-0.009 -0.039 0.035
-0.007 -0.037 0.033
0.005 -0.025 0.033
-0.035 -0.039 0.053
-0.029 -0.039 0.063
-0.021 -0.051 0.037
-0.013 -0.043 0.039
-0.019 -0.043 0.049
-0.027 -0.041 0.059
-0.013 -0.041 0.041
-0.011 -0.041 0.047
0.001 -0.033 0.037
-0.003 -0.033 0.043
-0.015 -0.031 0.057
-0.001 -0.025 0.051
-0.011 -0.027 0.063
-0.001 -0.019 0.063
-0.005 -0.027 0.051
-0.001 -0.021 0.059
-0.043 -0.043 0.087
-0.043 -0.043 0.087
-0.041 -0.043 0.085
-0.033 -0.037 0.089
-0.027 -0.041 0.093
-0.023 -0.041 0.095
-0.021 -0.039 0.093
-0.017 -0.039 0.093
-0.023 -0.035 0.071
-0.019 -0.035 0.071
-0.021 -0.035 0.073
-0.009 -0.031 0.079
-0.007 -0.027 0.069
-0.005 -0.027 0.071
-0.011 -0.033 0.077
-0.019 -0.037 0.083
-0.007 -0.031 0.083
-0.011 -0.031 0.081
-0.007 -0.033 0.085
0.003 -0.029 0.087
-0.001 -0.033 0.093
-0.001 -0.011 0.089
-0.037 -0.043 0.103
-0.007 -0.035 0.103
-0.007 -0.035 0.105
-0.023 -0.041 0.095
-0.023 -0.039 0.097
-0.011 -0.037 0.095
0.003 -0.031 0.101
0.003 -0.031 0.099
-0.003 -0.033 0.103
0.003 -0.029 0.031
0.007 -0.027 0.037
0.007 -0.013 0.045
0.009 -0.013 0.047
0.029 -0.009 0.041
0.005 -0.025 0.053
0.001 -0.015 0.075
0.011 -0.017 0.073
0.013 -0.011 0.085
0.025 -0.005 0.083
0.001 -0.013 0.035
0.005 0.005 0.037
0.015 -0.001 0.035
0.013 -0.001 0.037
0.037 -0.005 0.037
0.033 0.001 0.043
0.033 0.017 0.039
0.021 -0.003 0.055
0.031 0.007 0.053
0.027 -0.001 0.057
0.029 -0.001 0.055
0.031 0.009 0.049
0.035 0.013 0.063
0.033 0.005 0.045
0.033 0.025 0.059
0.037 -0.005 0.037
0.035 0.015 0.035
0.031 0.029 0.043
0.035 0.029 0.059
0.025 -0.005 0.079
0.025 0.003 0.071
0.023 0.001 0.073
0.031 0.001 0.077
0.027 0.001 0.067
0.035 0.019 0.069
0.023 -0.007 0.087
0.033 0.005 0.075
0.041 0.027 0.075
0.009 -0.017 0.075
-0.017 -0.037 0.067
-0.009 -0.039 0.049
-0.009 -0.039 0.047
-0.015 -0.041 0.055
-0.009 -0.037 0.051
-0.015 -0.041 0.055
-0.013 -0.037 0.055
0.007 -0.029 0.093
0.001 -0.017 0.085
0.003 -0.015 0.081
0.003 -0.031 0.091
-0.003 -0.023 0.055
0.013 -0.017 0.071
0.011 -0.013 0.083
0.019 -0.011 0.081
0.017 -0.011 0.083
0.015 -0.007 0.063
0.013 -0.011 0.057
0.001 -0.021 0.087
0.007 -0.025 0.097
0.001 -0.017 0.083
-0.031 -0.043 0.099
-0.037 -0.043 0.083
-0.025 -0.039 0.065
-0.021 -0.035 0.073
-0.017 -0.037 0.087
-0.011 -0.035 0.089
0.007 -0.029 0.103
0.007 -0.025 0.097
0.005 -0.029 0.103
0.001 -0.021 0.085
-0.001 -0.033 0.091
0.001 -0.017 0.081
0.009 -0.015 0.079
0.009 -0.013 0.083
-0.003 -0.025 0.107
-0.005 -0.023 0.109
0.007 -0.029 0.095
0.001 -0.019 0.097
-0.021 -0.039 0.101
-0.023 -0.035 0.103
-0.031 -0.037 0.103
-0.001 -0.033 0.109
-0.021 -0.027 0.105
-0.001 -0.019 0.099
0.003 -0.027 0.043
0.009 -0.017 0.049
0.025 -0.005 0.049
0.005 -0.021 0.063
0.013 -0.005 0.059
0.015 -0.009 0.061
0.017 -0.011 0.067
0.023 -0.005 0.075
0.027 -0.003 0.055
0.013 -0.015 0.077
0.007 -0.029 0.093
0.017 -0.011 0.085
0.007 -0.019 0.111
0.031 0.001 0.083
0.023 -0.007 0.085
0.023 0.023 0.045
0.035 0.005 0.073
0.033 0.007 0.043
0.031 0.011 0.047
0.027 0.013 0.047
0.033 0.027 0.039
0.033 0.031 0.047
0.019 -0.001 0.061
0.027 -0.001 0.077
0.035 0.009 0.083
0.033 0.019 0.083
0.031 0.015 0.089
0.035 0.023 0.035
0.035 0.011 0.063
0.037 0.025 0.063
0.033 0.031 0.047
0.033 0.035 0.047
0.041 0.025 0.079
0.027 -0.003 0.087
0.027 0.007 0.093
0.035 0.017 0.075
0.035 0.017 0.079
0.035 0.017 0.081
0.011 0.003 0.091
0.031 0.001 0.085
0.021 0.015 0.089
0.025 0.009 0.095
0.035 0.019 0.071
0.043 0.029 0.079
0.043 0.031 0.077
0.037 0.021 0.081
-0.005 -0.003 0.043
-0.021 0.001 0.035
-0.033 -0.017 0.055
-0.033 -0.025 0.063
-0.033 -0.025 0.065
-0.013 -0.007 0.055
-0.039 -0.009 0.045
-0.005 -0.001 0.053
-0.029 -0.019 0.061
-0.003 -0.001 0.061
-0.005 -0.005 0.069
-0.003 -0.003 0.071
-0.029 -0.011 0.053
-0.035 -0.029 0.089
-0.047 -0.035 0.093
-0.045 -0.035 0.093
-0.017 -0.015 0.083
-0.017 -0.015 0.099
-0.017 -0.017 0.103
-0.011 -0.013 0.101
-0.039 -0.029 0.089
-0.015 -0.017 0.069
-0.005 -0.017 0.075
-0.005 -0.005 0.069
-0.021 -0.017 0.087
-0.027 -0.021 0.091
-0.009 -0.011 0.089
-0.027 -0.025 0.105
-0.035 -0.023 0.099
-0.029 -0.023 0.103
-0.027 -0.021 0.101
-0.023 -0.029 0.105
-0.017 -0.027 0.105
-0.005 -0.019 0.105
-0.007 -0.023 0.111
-0.013 -0.013 0.107
-0.003 -0.001 0.047
-0.003 -0.001 0.057
0.001 -0.003 0.043
0.005 -0.005 0.045
0.023 0.035 0.059
0.011 0.027 0.061
0.025 0.031 0.061
0.023 0.017 0.057
0.005 0.001 0.067
0.011 -0.005 0.055
0.007 -0.003 0.051
0.011 0.021 0.069
0.017 0.015 0.063
0.017 0.015 0.067
0.009 0.007 0.081
0.007 0.001 0.089
0.003 -0.027 0.099
-0.007 0.015 0.037
0.025 0.041 0.047
0.005 0.029 0.059
0.005 0.029 0.061
0.019 0.037 0.051
0.021 0.037 0.055
0.025 0.041 0.051
0.025 0.037 0.059
0.025 0.035 0.061
0.007 0.023 0.037
0.003 0.029 0.047
0.029 0.039 0.051
0.027 0.027 0.063
0.027 0.031 0.065
0.027 0.021 0.069
0.007 0.029 0.059
0.007 0.031 0.049
0.021 0.017 0.049
0.019 0.017 0.061
0.027 0.033 0.063
0.033 0.029 0.033
0.015 0.035 0.047
0.019 0.039 0.039
0.023 0.041 0.041
0.025 0.041 0.043
0.031 0.039 0.049
0.025 0.041 0.051
0.017 0.015 0.071
0.017 0.017 0.067
0.029 0.029 0.069
0.031 0.029 0.069
0.031 0.021 0.075
0.029 0.033 0.065
-0.003 -0.013 0.031
-0.027 -0.041 0.051
-0.019 -0.049 0.039
-0.013 -0.043 0.039
-0.013 -0.041 0.043
-0.011 -0.041 0.047
-0.005 -0.035 0.043
-0.017 -0.043 0.051
-0.025 -0.041 0.059
-0.009 -0.035 0.051
-0.013 -0.033 0.063
0.001 -0.031 0.039
-0.007 -0.029 0.051
-0.013 -0.029 0.057
-0.001 -0.033 0.039
0.007 -0.027 0.037
0.007 -0.007 0.045
-0.013 -0.025 0.055
-0.013 -0.025 0.059
-0.011 -0.031 0.053
-0.033 -0.041 0.083
-0.033 -0.039 0.089
-0.023 -0.039 0.091
-0.029 -0.039 0.081
-0.017 -0.037 0.083
-0.021 -0.039 0.093
-0.015 -0.037 0.093
-0.009 -0.031 0.067
-0.001 -0.017 0.077
-0.001 -0.021 0.075
-0.017 -0.037 0.083
-0.015 -0.035 0.105
0.001 -0.021 0.105
0.007 -0.027 0.041
0.007 -0.011 0.043
0.011 -0.005 0.055
0.015 -0.009 0.061
0.013 -0.005 0.061
0.017 -0.005 0.069
0.025 -0.003 0.077
0.003 -0.029 0.087
0.007 -0.027 0.087
0.007 -0.029 0.095
0.017 -0.005 0.091
0.023 -0.003 0.091
0.005 -0.021 0.109
0.011 -0.013 0.111
0.003 -0.011 0.037
-0.009 0.003 0.039
0.035 0.011 0.033
0.035 0.023 0.031
0.033 -0.005 0.039
0.035 -0.003 0.039
0.033 0.011 0.043
0.035 0.007 0.039
0.035 0.009 0.037
0.025 0.015 0.047
0.035 0.007 0.039
0.033 0.009 0.057
0.031 0.007 0.055
0.031 0.027 0.055
0.033 0.023 0.037
0.031 0.031 0.041
0.031 0.035 0.041
0.033 0.035 0.051
0.021 -0.005 0.073
0.029 0.001 0.075
0.035 0.009 0.071
0.035 0.007 0.077
0.025 -0.003 0.089
0.031 0.005 0.087
0.025 -0.001 0.091
0.023 0.001 0.093
0.027 0.003 0.091
0.029 0.011 0.093
0.033 0.017 0.083
0.035 0.007 0.073
0.035 0.021 0.065
0.041 0.027 0.081
-0.039 -0.017 0.033
-0.033 -0.031 0.035
-0.035 -0.021 0.039
-0.037 -0.035 0.047
-0.035 -0.033 0.063
-0.017 -0.045 0.039
-0.041 -0.009 0.037
-0.043 -0.011 0.039
-0.037 -0.019 0.037
-0.037 -0.017 0.043
-0.031 -0.007 0.047
-0.037 -0.023 0.047
-0.013 -0.005 0.051
-0.029 -0.017 0.057
-0.031 -0.021 0.063
-0.017 -0.009 0.053
-0.009 -0.005 0.059
-0.047 -0.035 0.087
-0.049 -0.033 0.087
-0.045 -0.041 0.087
-0.049 -0.039 0.091
-0.047 -0.039 0.093
-0.043 -0.037 0.093
-0.041 -0.043 0.101
-0.047 -0.027 0.083
-0.045 -0.039 0.089
-0.041 -0.029 0.089
-0.029 -0.021 0.089
-0.037 -0.035 0.099
-0.045 -0.039 0.093
-0.025 -0.019 0.091
-0.039 -0.041 0.105
-0.023 -0.039 0.103
-0.007 -0.035 0.103
-0.043 -0.029 0.101
-0.039 -0.025 0.099
-0.037 -0.031 0.105
-0.027 -0.021 0.099
-0.021 -0.025 0.105
-0.009 -0.025 0.113
-0.033 -0.025 0.063
-0.031 -0.021 0.063
-0.029 -0.019 0.061
-0.005 -0.009 0.069
-0.045 -0.031 0.089
-0.029 -0.025 0.089
0.001 -0.007 0.081
-0.041 -0.027 0.099
0.007 -0.003 0.089
-0.019 -0.017 0.101
-0.007 -0.011 0.097
-0.017 -0.035 0.103
-0.037 -0.035 0.107
0.007 -0.017 0.113
-0.003 0.011 0.039
0.003 0.011 0.045
0.003 0.011 0.045
0.005 0.007 0.045
-0.007 -0.003 0.061
0.005 0.021 0.047
0.005 0.021 0.049
0.007 0.017 0.053
0.005 0.017 0.051
-0.007 -0.003 0.061
0.015 0.011 0.057
-0.005 -0.007 0.071
0.009 0.019 0.055
-0.009 -0.009 0.059
-0.003 -0.003 0.071
0.011 0.031 0.039
0.005 0.027 0.061
0.005 0.029 0.059
0.005 0.029 0.061
0.001 0.001 0.075
-0.011 -0.011 0.091
0.011 0.017 0.071
0.011 0.017 0.071
0.019 0.011 0.091
0.007 -0.001 0.089
0.033 0.025 0.085
-0.037 -0.033 0.039
-0.037 -0.027 0.043
-0.037 -0.025 0.039
-0.037 -0.023 0.047
-0.041 -0.013 0.043
-0.041 -0.007 0.043
-0.039 -0.007 0.043
-0.035 -0.007 0.045
-0.033 -0.017 0.049
-0.037 -0.025 0.055
-0.035 -0.027 0.037
-0.041 -0.015 0.035
-0.041 -0.013 0.039
-0.037 -0.025 0.041
-0.041 -0.009 0.039
-0.039 -0.009 0.045
-0.039 -0.009 0.045
-0.037 -0.007 0.045
-0.033 -0.017 0.051
-0.035 -0.031 0.063
-0.033 -0.005 0.039
-0.027 -0.005 0.039
-0.029 -0.011 0.049
-0.033 -0.005 0.041
-0.031 -0.019 0.059
-0.031 -0.017 0.057
-0.007 -0.013 0.063
-0.031 -0.013 0.049
-0.031 -0.013 0.051
-0.003 -0.001 0.055
-0.049 -0.033 0.085
-0.049 -0.031 0.087
-0.047 -0.033 0.089
-0.025 -0.031 0.075
-0.021 -0.025 0.079
-0.037 -0.023 0.097
-0.027 -0.021 0.093
-0.029 -0.029 0.073
-0.009 -0.017 0.073
-0.005 -0.013 0.069
-0.031 -0.021 0.083
-0.033 -0.025 0.089
-0.029 -0.021 0.089
-0.025 -0.019 0.091
-0.041 -0.027 0.099
-0.039 -0.025 0.101
-0.039 -0.025 0.101
-0.037 -0.023 0.099
-0.013 -0.013 0.101
-0.011 -0.025 0.111
-0.015 -0.015 0.101
-0.031 -0.005 0.041
0.005 0.007 0.041
0.013 0.003 0.057
0.013 0.003 0.059
-0.001 -0.009 0.077
0.001 -0.015 0.081
0.005 -0.009 0.087
0.007 -0.009 0.089
0.009 0.005 0.087
0.013 0.003 0.091
-0.019 0.003 0.035
-0.005 0.017 0.037
0.005 0.025 0.035
0.003 0.017 0.039
0.003 0.021 0.037
0.003 0.023 0.051
0.001 0.021 0.033
0.003 0.019 0.047
0.005 0.029 0.049
0.011 0.029 0.037
0.013 0.035 0.037
0.013 0.009 0.059
0.013 0.009 0.059
0.015 0.005 0.063
0.005 0.021 0.053
0.003 0.027 0.055
0.007 0.031 0.057
0.023 0.031 0.055
0.029 0.021 0.061
0.003 0.025 0.049
0.023 0.041 0.051
0.029 0.039 0.055
0.015 0.009 0.065
0.017 0.009 0.067
0.027 0.021 0.077
0.021 0.017 0.087
