-0.025 -0.019 0.071
-0.013 -0.021 0.061
0.005 -0.001 0.087
-0.027 -0.005 0.043
-0.027 -0.019 0.097
-0.019 -0.019 0.103
-0.023 -0.021 0.077
-0.005 -0.017 0.075
-0.021 -0.017 0.099
-0.001 -0.009 0.089
-0.027 -0.033 0.105
-0.025 -0.029 0.105
-0.001 -0.023 0.109
-0.023 -0.017 0.097
0.023 0.015 0.089
0.021 0.017 0.087
0.011 -0.013 0.113
-0.013 0.003 0.041
0.033 0.037 0.051
0.011 0.025 0.063
0.013 0.017 0.047
0.011 0.027 0.043
0.007 0.031 0.057
0.021 0.019 0.075
0.035 0.017 0.037
0.043 0.035 0.085
0.043 0.035 0.081
0.033 0.037 0.049
0.033 0.037 0.053
0.013 0.023 0.065
0.009 0.003 0.089
0.035 0.031 0.087
-0.037 -0.035 0.045
-0.043 -0.009 0.043
-0.023 -0.039 0.061
-0.037 -0.041 0.087
-0.045 -0.039 0.091
-0.023 -0.039 0.091
-0.049 -0.037 0.091
-0.023 -0.033 0.075
-0.009 -0.031 0.079
-0.029 -0.039 0.083
-0.037 -0.041 0.095
-0.037 -0.043 0.097
-0.011 -0.027 0.107
0.003 -0.025 0.049
0.003 -0.031 0.101
-0.019 -0.041 0.055
-0.033 -0.037 0.063
-0.023 -0.033 0.075
-0.017 -0.035 0.073
0.003 -0.019 0.063
-0.019 -0.037 0.081
-0.023 -0.035 0.073
-0.037 -0.043 0.083
-0.025 -0.033 0.089
-0.025 -0.039 0.097
-0.027 -0.041 0.097
-0.009 -0.035 0.103
-0.003 -0.033 0.031
-0.019 -0.049 0.039
-0.009 -0.039 0.051
-0.009 -0.039 0.037
-0.019 -0.039 0.059
0.007 -0.019 0.047
-0.001 -0.019 0.063
-0.003 -0.023 0.075
0.007 -0.017 0.069
0.007 -0.017 0.075
0.001 -0.031 0.085
0.007 -0.027 0.093
-0.003 -0.033 0.103
-0.015 -0.037 0.101
-0.001 -0.023 0.109
0.009 -0.015 0.047
0.023 -0.007 0.087
0.007 -0.025 0.039
0.021 0.003 0.031
0.037 -0.005 0.035
0.023 -0.001 0.035
0.021 -0.005 0.045
0.025 0.025 0.045
0.027 0.027 0.045
0.035 0.027 0.057
0.033 0.003 0.073
0.023 -0.007 0.085
-0.025 -0.003 0.037
-0.035 -0.037 0.051
-0.033 -0.035 0.063
-0.037 -0.021 0.045
-0.041 -0.013 0.035
-0.023 -0.017 0.061
-0.029 -0.021 0.067
-0.009 -0.017 0.059
-0.013 -0.003 0.051
-0.049 -0.033 0.087
-0.029 -0.027 0.073
-0.023 -0.017 0.087
-0.035 -0.025 0.099
-0.043 -0.029 0.101
-0.017 -0.029 0.105
-0.021 -0.021 0.105
0.001 0.007 0.039
-0.001 0.017 0.037
0.005 0.021 0.047
0.003 0.021 0.039
0.013 0.009 0.055
0.019 0.019 0.069
0.019 0.007 0.093
-0.045 -0.041 0.087
-0.035 -0.019 0.047
-0.037 -0.023 0.053
-0.041 -0.027 0.099
-0.041 -0.029 0.097
-0.031 -0.021 0.097
-0.031 -0.025 0.099
-0.025 -0.019 0.091
-0.023 -0.019 0.101
-0.023 -0.039 0.103
-0.033 -0.021 0.085
-0.023 -0.019 0.073
-0.005 -0.005 0.065
-0.013 -0.013 0.089
-0.003 -0.009 0.103
-0.019 -0.029 0.105
-0.013 -0.021 0.105
-0.013 -0.013 0.099
-0.017 -0.017 0.105
-0.015 -0.015 0.107
-0.011 -0.013 0.109
0.005 0.023 0.059
0.007 0.003 0.087
0.021 0.031 0.053
0.013 0.027 0.055
-0.011 -0.007 0.057
0.007 0.031 0.057
-0.029 -0.021 0.087
-0.017 -0.017 0.081
-0.015 -0.015 0.093
-0.003 -0.009 0.093
-0.035 -0.027 0.101
-0.023 -0.019 0.101
-0.025 -0.021 0.101
0.033 -0.005 0.041
0.005 -0.025 0.093
0.029 0.039 0.043
0.033 0.035 0.047
0.027 0.039 0.057
0.029 0.039 0.057
0.033 0.037 0.051
0.029 0.031 0.067
0.041 0.033 0.077
0.043 0.037 0.079
0.043 0.035 0.087
0.005 -0.021 0.061
-0.015 -0.049 0.037
0.007 -0.029 0.093
-0.001 -0.021 0.077
-0.001 -0.017 0.073
-0.003 -0.025 0.053
-0.001 -0.027 0.049
0.007 -0.027 0.041
0.011 -0.013 0.051
0.007 -0.025 0.097
0.005 -0.015 0.077
-0.023 -0.039 0.065
-0.005 -0.025 0.071
-0.003 -0.029 0.079
0.009 -0.013 0.083
-0.001 -0.031 0.105
-0.005 -0.023 0.109
-0.003 -0.013 0.089
-0.027 -0.031 0.105
0.001 -0.023 0.107
0.005 -0.025 0.051
0.005 -0.023 0.053
0.007 -0.021 0.061
0.005 -0.019 0.069
0.021 -0.009 0.083
0.025 -0.005 0.083
0.027 0.001 0.075
0.033 0.005 0.075
0.031 0.011 0.047
0.037 0.011 0.069
0.035 0.013 0.077
0.037 0.013 0.075
0.033 0.021 0.081
0.037 0.011 0.071
0.039 0.021 0.073
0.033 0.013 0.039
0.035 0.009 0.061
0.033 0.037 0.059
0.039 0.021 0.073
0.043 0.033 0.077
0.043 0.033 0.085
0.027 0.013 0.047
0.035 0.009 0.069
0.033 0.003 0.071
0.033 0.005 0.045
0.011 -0.017 0.059
0.033 0.005 0.067
0.001 -0.021 0.093
0.021 -0.009 0.081
0.035 0.015 0.075
0.013 -0.007 0.093
-0.001 -0.025 0.081
-0.009 -0.015 0.105
-0.015 -0.015 0.105
-0.003 -0.009 0.101
0.007 -0.023 0.047
0.031 0.001 0.047
0.015 -0.011 0.063
0.031 0.003 0.061
0.019 -0.009 0.073
0.007 -0.015 0.109
0.029 0.017 0.043
0.035 0.015 0.031
0.031 0.013 0.043
0.027 0.035 0.037
0.033 0.025 0.039
0.033 0.029 0.037
0.033 0.033 0.049
0.029 0.011 0.053
0.033 0.005 0.063
0.025 0.037 0.037
0.029 0.041 0.049
0.039 0.027 0.085
0.043 0.031 0.083
-0.013 0.005 0.037
-0.027 -0.011 0.053
-0.027 -0.009 0.051
-0.031 -0.021 0.063
-0.035 -0.017 0.045
-0.017 -0.003 0.043
-0.027 -0.003 0.041
-0.007 -0.005 0.063
-0.009 -0.011 0.095
-0.033 -0.025 0.065
-0.009 -0.019 0.071
-0.009 -0.015 0.083
0.003 -0.001 0.053
0.001 -0.011 0.081
0.005 0.029 0.047
0.003 0.023 0.051
0.013 0.035 0.039
0.009 0.031 0.049
0.009 0.031 0.053
0.029 0.027 0.067
0.031 0.037 0.061
0.011 0.005 0.073
0.021 0.009 0.091
0.001 -0.019 0.033
-0.011 -0.039 0.041
-0.025 -0.041 0.059
-0.019 -0.039 0.059
-0.009 -0.039 0.051
0.005 -0.029 0.041
-0.015 -0.031 0.057
0.011 -0.015 0.055
-0.023 -0.039 0.083
-0.001 -0.019 0.099
-0.001 -0.011 0.101
0.015 -0.013 0.063
0.029 -0.007 0.043
0.031 0.001 0.049
0.035 0.013 0.035
0.031 0.011 0.047
0.033 0.009 0.045
0.023 0.019 0.047
0.031 0.011 0.047
0.033 0.007 0.061
0.031 0.033 0.039
0.031 0.029 0.047
0.031 0.017 0.089
-0.017 -0.047 0.039
-0.011 -0.041 0.039
-0.013 -0.041 0.053
-0.001 -0.035 0.037
0.001 -0.025 0.047
-0.019 -0.037 0.065
-0.011 -0.031 0.053
-0.001 -0.025 0.053
-0.001 -0.025 0.053
-0.001 -0.019 0.063
-0.043 -0.041 0.089
-0.045 -0.039 0.091
-0.019 -0.039 0.095
-0.027 -0.041 0.095
-0.027 -0.035 0.071
-0.015 -0.031 0.079
-0.023 -0.039 0.097
-0.027 -0.037 0.099
-0.007 -0.027 0.109
0.013 -0.007 0.091
0.029 -0.001 0.083
0.023 -0.005 0.089
0.003 -0.021 0.107
0.005 0.005 0.043
0.007 0.005 0.039
0.019 -0.005 0.045
0.033 0.005 0.047
0.017 -0.003 0.053
0.015 -0.015 0.071
0.039 0.023 0.075
-0.031 -0.041 0.049
-0.031 -0.041 0.055
-0.041 -0.011 0.037
-0.029 -0.011 0.053
-0.045 -0.039 0.085
-0.029 -0.021 0.067
-0.023 -0.035 0.089
-0.029 -0.025 0.103
-0.041 -0.037 0.101
-0.023 -0.019 0.101
-0.027 -0.021 0.103
-0.037 -0.033 0.053
-0.009 -0.013 0.059
-0.025 -0.019 0.069
-0.019 -0.017 0.101
-0.013 -0.007 0.055
0.003 0.021 0.045
-0.005 -0.003 0.067
0.015 0.011 0.063
0.003 0.027 0.055
0.003 0.027 0.055
0.005 0.029 0.059
0.013 0.033 0.039
0.003 0.027 0.055
-0.037 -0.019 0.037
-0.025 -0.047 0.039
-0.037 -0.033 0.041
-0.037 -0.033 0.047
-0.035 -0.037 0.059
-0.035 -0.021 0.047
-0.037 -0.007 0.045
-0.043 -0.011 0.039
-0.047 -0.039 0.087
-0.045 -0.029 0.089
-0.023 -0.019 0.101
-0.013 -0.023 0.107
-0.011 -0.023 0.109
-0.013 -0.001 0.047
-0.003 -0.009 0.087
0.011 0.029 0.033
-0.007 0.015 0.037
0.009 0.003 0.043
0.003 0.021 0.037
0.003 0.021 0.043
0.011 0.009 0.053
0.013 0.011 0.055
0.009 0.001 0.065
0.015 0.013 0.061
0.017 0.015 0.063
0.011 0.031 0.057
0.023 0.031 0.059
0.029 0.027 0.065
-0.003 -0.025 0.053
-0.005 -0.033 0.045
-0.033 -0.009 0.045
-0.007 -0.015 0.103
-0.027 -0.003 0.041
-0.003 -0.001 0.069
-0.001 -0.003 0.079
0.001 -0.001 0.081
-0.009 -0.021 0.109
-0.041 -0.035 0.105
-0.001 -0.023 0.109
-0.003 -0.031 0.107
-0.009 -0.019 0.103
-0.009 -0.013 0.103
-0.005 -0.019 0.109
-0.031 -0.037 0.103
-0.027 -0.033 0.105
-0.001 -0.029 0.103
-0.001 -0.029 0.103
-0.003 -0.027 0.101
0.025 0.005 0.093
0.015 -0.013 0.083
0.025 -0.005 0.087
0.025 0.003 0.091
0.009 -0.009 0.091
0.035 0.015 0.037
0.035 0.023 0.033
0.035 0.011 0.063
0.011 0.029 0.059
0.033 0.027 0.039
0.025 0.007 0.095
0.029 0.007 0.091
0.035 0.007 0.067
-0.031 -0.005 0.045
-0.023 -0.025 0.105
-0.015 -0.019 0.105
-0.037 -0.027 0.059
-0.003 -0.001 0.063
-0.041 -0.029 0.103
-0.001 -0.009 0.097
0.011 0.003 0.091
0.015 -0.003 0.095
0.007 -0.009 0.089
-0.019 0.003 0.035
0.001 0.007 0.039
0.027 0.019 0.083
0.013 0.009 0.059
0.021 0.019 0.081
0.005 0.023 0.061
0.013 0.035 0.043
0.035 0.035 0.061
0.021 0.019 0.083
0.035 0.009 0.083
0.031 0.021 0.075
-0.037 -0.037 0.049
-0.037 -0.035 0.051
-0.037 -0.035 0.053
-0.037 -0.031 0.059
-0.021 -0.049 0.039
-0.033 -0.039 0.045
-0.027 -0.041 0.049
-0.005 -0.023 0.055
-0.025 -0.041 0.057
-0.017 -0.037 0.061
-0.033 -0.043 0.095
-0.025 -0.039 0.065
-0.007 -0.031 0.077
-0.023 -0.033 0.105
0.005 -0.021 0.055
-0.001 -0.027 0.081
-0.015 -0.041 0.047
0.015 -0.003 0.037
0.005 -0.025 0.051
0.007 -0.019 0.065
0.019 -0.003 0.057
0.017 -0.013 0.075
0.035 0.007 0.079
0.029 0.001 0.073
0.039 0.027 0.087
0.039 0.023 0.083
-0.027 -0.041 0.055
-0.017 -0.049 0.039
-0.005 -0.027 0.051
-0.005 -0.029 0.049
-0.017 -0.035 0.073
0.001 -0.031 0.087
-0.017 -0.037 0.099
-0.023 -0.039 0.103
-0.005 -0.033 0.101
-0.005 -0.035 0.105
0.005 -0.029 0.041
0.031 -0.007 0.037
0.009 -0.019 0.055
0.011 -0.003 0.045
0.017 -0.005 0.039
0.015 -0.005 0.041
0.025 -0.005 0.049
0.015 -0.003 0.055
0.035 0.009 0.037
0.013 -0.013 0.083
0.033 0.005 0.085
0.023 -0.005 0.089
0.039 0.025 0.085
-0.039 -0.029 0.051
-0.035 -0.009 0.045
-0.033 -0.017 0.055
-0.013 0.003 0.043
-0.001 -0.001 0.047
-0.029 -0.013 0.055
-0.011 -0.013 0.057
-0.043 -0.027 0.085
-0.023 -0.023 0.077
-0.029 -0.027 0.073
-0.019 -0.017 0.067
-0.025 -0.019 0.091
-0.039 -0.039 0.097
0.011 0.007 0.051
0.003 0.015 0.045
-0.001 -0.001 0.073
0.019 0.031 0.051
0.027 0.033 0.063
0.023 0.007 0.095
-0.037 -0.029 0.043
-0.043 -0.009 0.043
-0.033 -0.005 0.039
-0.029 -0.005 0.043
-0.023 -0.005 0.047
-0.023 -0.003 0.033
-0.031 -0.019 0.059
-0.019 -0.017 0.057
-0.009 -0.011 0.061
-0.007 -0.003 0.057
-0.033 -0.027 0.067
-0.021 -0.017 0.071
-0.039 -0.025 0.083
-0.039 -0.025 0.085
-0.019 -0.017 0.077
-0.023 -0.019 0.095
-0.015 -0.015 0.085
-0.017 -0.015 0.099
-0.037 -0.023 0.099
-0.011 0.001 0.047
-0.009 0.003 0.041
-0.001 -0.003 0.041
-0.001 -0.003 0.079
0.009 0.003 0.071
0.003 0.023 0.037
0.009 0.027 0.039
0.015 0.035 0.047
0.005 0.015 0.049
0.017 0.039 0.041
0.011 0.019 0.071
0.013 0.017 0.073
0.027 0.017 0.087
0.025 0.011 0.091
0.031 0.027 0.071
