-0.007 -0.031 0.049
-0.003 -0.029 0.043
0.003 -0.033 0.035
0.007 -0.027 0.039
0.007 -0.025 0.037
0.001 -0.025 0.045
-0.029 -0.041 0.055
-0.025 -0.041 0.059
-0.027 -0.039 0.061
-0.021 -0.051 0.037
-0.017 -0.051 0.035
-0.015 -0.049 0.035
-0.021 -0.051 0.037
-0.015 -0.047 0.039
-0.013 -0.043 0.039
-0.015 -0.043 0.041
-0.017 -0.041 0.043
-0.025 -0.041 0.047
-0.013 -0.043 0.039
-0.009 -0.039 0.039
-0.011 -0.041 0.039
-0.001 -0.035 0.035
-0.001 -0.035 0.033
-0.007 -0.039 0.037
-0.001 -0.035 0.037
-0.001 -0.033 0.039
-0.015 -0.043 0.041
-0.011 -0.041 0.045
-0.011 -0.041 0.045
-0.013 -0.041 0.043
-0.009 -0.039 0.043
-0.007 -0.037 0.045
-0.007 -0.037 0.041
-0.005 -0.035 0.041
-0.025 -0.041 0.049
-0.023 -0.041 0.055
-0.017 -0.043 0.051
-0.027 -0.039 0.063
-0.019 -0.039 0.057
-0.017 -0.037 0.063
-0.011 -0.039 0.053
-0.011 -0.037 0.053
-0.013 -0.033 0.053
-0.013 -0.035 0.055
-0.015 -0.033 0.057
-0.015 -0.035 0.059
-0.013 -0.033 0.061
-0.011 -0.029 0.053
-0.005 -0.023 0.055
-0.011 -0.021 0.057
-0.019 -0.039 0.059
-0.021 -0.039 0.061
-0.017 -0.037 0.061
-0.017 -0.037 0.067
-0.013 -0.033 0.063
-0.021 -0.037 0.067
-0.019 -0.037 0.069
-0.015 -0.035 0.071
-0.011 -0.041 0.045
-0.007 -0.037 0.041
-0.005 -0.035 0.045
-0.003 -0.033 0.041
0.001 -0.029 0.043
0.005 -0.027 0.043
-0.001 -0.027 0.047
-0.005 -0.029 0.049
-0.001 -0.023 0.057
0.007 -0.021 0.057
-0.013 -0.025 0.059
-0.011 -0.023 0.057
-0.005 -0.023 0.055
0.003 -0.021 0.057
0.007 -0.019 0.047
0.009 -0.017 0.049
0.009 -0.017 0.047
0.009 -0.015 0.047
0.009 -0.019 0.059
0.011 -0.017 0.053
0.011 -0.013 0.053
-0.009 -0.031 0.071
-0.013 -0.031 0.055
-0.001 -0.027 0.049
-0.009 -0.021 0.055
0.001 -0.023 0.055
-0.007 -0.019 0.059
-0.011 -0.025 0.063
-0.003 -0.019 0.061
-0.001 -0.021 0.061
0.003 -0.019 0.065
-0.007 -0.027 0.069
-0.009 -0.023 0.065
-0.009 -0.021 0.063
0.013 -0.017 0.067
0.015 -0.015 0.067
0.007 -0.019 0.067
0.005 -0.019 0.069
0.003 -0.019 0.067
0.015 -0.015 0.075
-0.029 -0.043 0.097
-0.035 -0.043 0.099
-0.037 -0.043 0.083
-0.035 -0.041 0.087
-0.039 -0.043 0.087
-0.033 -0.039 0.089
-0.027 -0.037 0.087
-0.023 -0.037 0.087
-0.029 -0.043 0.097
-0.027 -0.041 0.095
-0.037 -0.043 0.097
-0.023 -0.041 0.095
-0.027 -0.039 0.065
-0.025 -0.039 0.065
-0.023 -0.035 0.073
-0.023 -0.039 0.065
-0.019 -0.035 0.073
-0.015 -0.035 0.073
-0.015 -0.035 0.073
-0.011 -0.033 0.073
-0.027 -0.037 0.087
-0.025 -0.039 0.085
-0.019 -0.037 0.085
-0.019 -0.037 0.087
-0.015 -0.035 0.085
-0.015 -0.035 0.087
-0.023 -0.041 0.095
-0.019 -0.037 0.097
-0.017 -0.039 0.093
-0.013 -0.037 0.093
-0.015 -0.037 0.095
-0.013 -0.035 0.083
-0.011 -0.035 0.085
-0.011 -0.035 0.083
-0.009 -0.033 0.083
-0.009 -0.033 0.087
-0.005 -0.033 0.087
-0.003 -0.033 0.087
-0.011 -0.037 0.095
-0.019 -0.039 0.095
-0.025 -0.037 0.087
-0.011 -0.037 0.095
-0.023 -0.039 0.097
-0.023 -0.039 0.103
-0.019 -0.035 0.073
-0.019 -0.035 0.073
-0.009 -0.031 0.077
-0.007 -0.031 0.079
-0.005 -0.029 0.075
-0.003 -0.027 0.077
-0.001 -0.027 0.081
-0.017 -0.033 0.077
-0.009 -0.033 0.083
-0.001 -0.033 0.089
-0.001 -0.033 0.089
-0.009 -0.031 0.067
-0.009 -0.029 0.067
-0.009 -0.027 0.065
-0.009 -0.031 0.069
-0.001 -0.017 0.067
-0.011 -0.033 0.077
-0.007 -0.031 0.077
-0.003 -0.029 0.079
0.007 -0.029 0.087
-0.003 -0.021 0.073
-0.001 -0.023 0.077
-0.001 -0.021 0.079
0.003 -0.017 0.071
0.005 -0.017 0.073
0.005 -0.015 0.077
0.007 -0.017 0.075
0.013 -0.015 0.079
0.017 -0.013 0.079
0.001 -0.023 0.083
0.007 -0.027 0.089
-0.017 -0.037 0.091
-0.013 -0.035 0.089
0.003 -0.031 0.095
0.005 -0.031 0.097
-0.015 -0.037 0.095
-0.013 -0.037 0.095
-0.007 -0.035 0.099
-0.007 -0.035 0.103
-0.013 -0.037 0.099
-0.005 -0.035 0.099
-0.005 -0.035 0.099
-0.003 -0.035 0.107
-0.005 -0.035 0.103
-0.003 -0.035 0.105
-0.001 -0.033 0.101
-0.005 -0.033 0.087
0.001 -0.021 0.085
0.001 -0.019 0.089
0.003 -0.019 0.091
0.007 -0.029 0.103
0.009 -0.027 0.095
0.009 -0.027 0.095
0.003 -0.019 0.091
-0.001 -0.011 0.087
0.005 -0.027 0.103
0.001 -0.017 0.091
0.003 -0.019 0.091
0.001 -0.019 0.093
-0.003 -0.011 0.091
0.001 -0.009 0.095
-0.031 -0.043 0.099
-0.035 -0.043 0.101
-0.035 -0.043 0.101
-0.029 -0.037 0.101
-0.037 -0.039 0.105
-0.033 -0.037 0.105
-0.033 -0.033 0.105
-0.035 -0.035 0.107
-0.029 -0.041 0.099
-0.029 -0.039 0.099
-0.023 -0.039 0.103
-0.015 -0.035 0.105
-0.015 -0.035 0.105
-0.013 -0.037 0.097
-0.007 -0.035 0.097
-0.005 -0.035 0.099
-0.003 -0.033 0.099
-0.005 -0.035 0.103
-0.031 -0.037 0.103
-0.033 -0.033 0.105
-0.017 -0.033 0.105
-0.011 -0.031 0.105
-0.001 -0.031 0.107
-0.009 -0.027 0.107
-0.007 -0.027 0.107
-0.017 -0.033 0.105
0.003 -0.031 0.101
-0.001 -0.031 0.105
-0.001 -0.031 0.107
-0.003 -0.025 0.105
-0.003 -0.021 0.103
-0.003 -0.033 0.109
-0.011 -0.027 0.107
-0.007 -0.027 0.111
-0.001 -0.033 0.107
-0.001 -0.031 0.107
-0.005 -0.025 0.105
-0.005 -0.025 0.109
-0.007 -0.027 0.111
-0.007 -0.027 0.107
0.001 -0.023 0.107
0.005 -0.021 0.109
-0.005 -0.025 0.109
-0.005 -0.015 0.101
0.001 -0.023 0.107
-0.003 -0.013 0.099
-0.007 -0.021 0.109
0.005 -0.029 0.033
0.007 -0.027 0.035
0.007 -0.027 0.037
0.005 -0.029 0.037
0.007 -0.027 0.041
0.007 -0.025 0.039
0.007 -0.023 0.039
0.007 -0.027 0.041
0.007 -0.021 0.045
0.005 -0.013 0.039
0.025 -0.009 0.043
0.007 -0.017 0.043
0.007 -0.015 0.043
0.011 -0.011 0.053
0.029 -0.007 0.043
0.031 -0.005 0.041
0.005 -0.025 0.053
0.009 -0.019 0.051
0.009 -0.019 0.053
0.005 -0.021 0.061
0.007 -0.021 0.061
0.009 -0.019 0.063
0.013 -0.017 0.063
0.011 -0.009 0.053
0.013 -0.009 0.055
0.015 -0.011 0.063
0.019 -0.005 0.051
0.017 -0.009 0.067
0.015 -0.011 0.061
0.019 -0.005 0.053
0.021 -0.003 0.059
0.037 -0.005 0.035
0.037 -0.005 0.037
0.035 -0.003 0.039
0.007 -0.019 0.067
0.003 -0.017 0.069
0.013 -0.017 0.065
0.013 -0.017 0.065
0.001 -0.017 0.079
0.009 -0.017 0.075
0.019 -0.009 0.071
0.001 -0.015 0.075
0.005 -0.015 0.077
0.017 -0.011 0.067
0.019 -0.009 0.073
0.017 -0.013 0.075
0.021 -0.007 0.075
0.001 -0.017 0.087
0.003 -0.031 0.089
0.003 -0.031 0.095
0.003 -0.019 0.091
0.015 -0.013 0.081
0.013 -0.011 0.087
0.013 -0.005 0.093
0.021 -0.009 0.081
0.029 -0.001 0.083
0.003 -0.031 0.099
0.009 -0.027 0.097
0.005 -0.027 0.099
0.003 -0.031 0.101
0.005 -0.021 0.109
0.005 -0.021 0.109
0.005 -0.019 0.111
0.009 -0.017 0.109
0.001 -0.009 0.097
0.009 -0.019 0.053
0.011 -0.017 0.053
0.011 -0.017 0.055
0.009 -0.013 0.047
0.011 -0.017 0.055
0.011 -0.015 0.055
0.011 -0.017 0.057
0.011 -0.013 0.051
0.011 -0.013 0.053
0.011 -0.011 0.053
0.017 -0.005 0.045
0.017 -0.005 0.047
-0.003 0.007 0.039
0.017 -0.005 0.051
0.019 -0.005 0.053
0.019 -0.005 0.053
0.021 -0.005 0.053
0.017 -0.003 0.055
0.023 -0.005 0.053
0.035 0.001 0.039
0.031 0.001 0.045
0.033 0.009 0.045
0.035 0.015 0.037
0.033 0.021 0.037
0.003 0.003 0.033
0.021 -0.005 0.051
0.027 -0.007 0.045
0.023 -0.005 0.049
0.027 -0.003 0.049
0.027 -0.001 0.049
0.027 -0.003 0.049
0.023 -0.005 0.053
0.023 -0.005 0.053
0.027 -0.005 0.045
0.027 -0.003 0.049
0.031 0.001 0.045
0.019 -0.005 0.053
0.021 -0.005 0.053
0.025 -0.001 0.061
0.033 0.001 0.041
0.033 -0.003 0.041
0.033 -0.001 0.041
0.035 0.003 0.041
0.033 0.003 0.043
0.031 0.003 0.047
0.035 0.003 0.039
0.035 0.009 0.037
0.033 0.009 0.045
0.033 0.007 0.047
0.029 0.001 0.049
0.031 0.001 0.051
0.031 0.001 0.051
0.029 -0.001 0.055
0.029 -0.001 0.057
0.025 0.021 0.043
0.029 -0.001 0.059
0.031 0.001 0.063
0.033 0.007 0.057
0.033 0.005 0.061
0.033 0.005 0.061
0.033 0.003 0.067
0.033 0.009 0.057
0.033 0.011 0.057
0.035 0.007 0.065
0.033 0.007 0.043
0.033 0.005 0.049
0.031 0.015 0.043
0.031 0.007 0.051
0.031 0.009 0.053
0.023 0.023 0.047
0.031 0.023 0.041
0.023 0.023 0.047
0.023 0.025 0.047
0.029 0.029 0.045
0.023 -0.001 0.061
0.023 -0.003 0.059
0.025 -0.001 0.061
0.027 -0.001 0.061
0.029 0.001 0.061
0.031 0.001 0.061
0.017 -0.001 0.059
0.023 0.001 0.065
0.027 0.001 0.065
0.025 0.001 0.067
0.033 0.005 0.049
0.031 0.005 0.051
0.031 0.007 0.051
0.033 0.005 0.059
0.031 0.001 0.063
0.019 0.001 0.063
0.019 0.001 0.063
0.031 0.003 0.069
0.031 0.003 0.071
0.029 0.001 0.065
0.029 0.001 0.065
0.029 0.001 0.065
0.031 0.003 0.069
0.033 0.003 0.071
0.031 0.003 0.073
0.035 0.007 0.071
0.035 0.007 0.071
0.031 0.001 0.077
0.033 0.005 0.075
0.033 0.005 0.075
0.033 0.005 0.075
0.023 0.025 0.049
0.027 0.027 0.051
0.033 0.027 0.055
0.033 0.003 0.071
0.035 0.007 0.071
0.035 0.007 0.065
0.035 0.013 0.063
0.035 0.009 0.069
0.035 0.011 0.035
0.035 0.007 0.039
0.033 0.003 0.043
0.033 0.005 0.043
0.033 0.005 0.045
0.033 0.007 0.047
0.033 0.009 0.057
0.035 0.009 0.063
0.033 0.023 0.061
0.035 0.027 0.057
0.033 0.025 0.059
0.035 0.027 0.059
0.037 0.027 0.061
0.031 0.025 0.043
0.031 0.033 0.041
0.033 0.031 0.049
0.031 0.027 0.055
0.035 0.033 0.053
0.035 0.035 0.059
0.039 0.023 0.071
0.039 0.025 0.071
0.033 0.033 0.043
0.033 0.035 0.047
0.035 0.033 0.053
0.037 0.031 0.063
0.019 -0.011 0.081
0.021 -0.009 0.079
0.021 -0.009 0.079
0.029 0.001 0.073
0.017 -0.011 0.085
0.027 -0.003 0.081
0.029 -0.001 0.085
0.029 0.001 0.065
0.031 0.001 0.079
0.025 -0.005 0.079
0.027 -0.003 0.079
0.031 0.001 0.077
0.031 0.001 0.083
0.033 0.005 0.079
0.033 0.003 0.081
0.033 0.005 0.075
0.035 0.017 0.071
0.037 0.021 0.073
0.039 0.021 0.075
0.033 0.007 0.087
0.035 0.011 0.081
0.023 -0.005 0.089
0.019 -0.003 0.091
0.027 0.003 0.091
0.017 -0.003 0.093
0.017 -0.001 0.095
0.019 -0.001 0.095
0.031 0.001 0.083
0.027 0.005 0.091
0.033 0.011 0.087
0.019 -0.001 0.093
0.023 0.003 0.093
0.027 0.007 0.093
0.025 0.005 0.093
0.031 0.007 0.089
0.031 0.011 0.089
0.029 0.011 0.091
0.033 0.009 0.087
0.031 0.009 0.089
0.033 0.003 0.069
0.033 0.005 0.075
0.035 0.017 0.067
0.037 0.013 0.071
0.039 0.023 0.069
0.039 0.025 0.071
0.039 0.021 0.073
0.039 0.021 0.077
0.041 0.023 0.077
0.041 0.031 0.073
0.041 0.027 0.079
0.043 0.029 0.077
0.035 0.013 0.083
0.035 0.013 0.083
0.035 0.015 0.081
0.033 0.017 0.083
0.037 0.023 0.085
0.037 0.027 0.087
0.043 0.033 0.083
0.043 0.035 0.087
