-0.003 -0.001 0.047
-0.031 -0.023 0.065
-0.025 -0.021 0.073
0.003 0.003 0.077
0.011 0.003 0.091
0.003 -0.009 0.083
-0.001 -0.007 0.079
-0.009 -0.019 0.071
-0.039 -0.007 0.043
-0.041 -0.007 0.041
0.001 0.001 0.057
0.007 -0.001 0.055
-0.027 -0.003 0.041
-0.003 -0.003 0.039
-0.021 -0.015 0.055
-0.005 -0.001 0.057
-0.013 -0.015 0.103
-0.005 -0.013 0.103
-0.035 -0.023 0.085
-0.019 -0.017 0.067
-0.021 -0.017 0.069
-0.001 -0.009 0.089
0.001 -0.017 0.091
0.003 -0.011 0.085
0.001 -0.001 0.081
-0.025 -0.017 0.085
-0.023 -0.019 0.099
-0.001 -0.017 0.091
-0.007 -0.021 0.109
-0.023 -0.021 0.103
0.003 -0.017 0.107
-0.001 -0.009 0.097
-0.005 -0.013 0.103
-0.011 -0.013 0.109
0.021 0.017 0.085
0.017 0.017 0.081
0.025 0.007 0.095
0.017 0.001 0.095
0.015 -0.001 0.095
0.015 0.001 0.093
0.029 0.003 0.089
0.007 -0.015 0.111
-0.005 0.015 0.037
0.019 0.039 0.049
0.033 0.029 0.033
0.027 0.033 0.063
0.027 0.037 0.059
0.033 0.037 0.059
0.033 0.037 0.057
0.013 0.023 0.059
0.017 0.015 0.049
0.039 0.037 0.087
0.039 0.037 0.087
0.025 0.033 0.061
0.033 0.025 0.039
0.017 0.037 0.049
0.031 0.037 0.043
0.007 0.003 0.069
0.015 0.009 0.091
0.023 0.017 0.087
0.041 0.037 0.087
0.039 0.031 0.087
0.039 0.031 0.087
0.035 0.033 0.065
0.043 0.035 0.087
-0.029 -0.041 0.055
-0.015 -0.043 0.035
-0.013 -0.041 0.043
-0.005 -0.037 0.035
-0.011 -0.031 0.063
-0.003 -0.021 0.059
-0.005 -0.027 0.051
-0.043 -0.039 0.091
-0.035 -0.041 0.089
-0.015 -0.035 0.089
-0.009 -0.031 0.073
-0.017 -0.037 0.083
-0.021 -0.037 0.087
-0.001 -0.025 0.081
-0.023 -0.039 0.101
-0.009 -0.035 0.101
-0.005 -0.035 0.103
-0.011 -0.035 0.099
-0.003 -0.033 0.103
0.007 -0.023 0.045
0.009 -0.015 0.047
0.029 -0.007 0.045
0.011 -0.017 0.059
0.017 -0.009 0.067
0.001 -0.019 0.081
0.023 -0.005 0.089
-0.007 0.011 0.033
-0.001 0.007 0.039
0.025 0.013 0.031
0.017 -0.005 0.047
0.033 -0.005 0.041
0.033 0.005 0.047
0.017 -0.001 0.035
0.035 0.017 0.033
0.023 -0.005 0.051
0.023 -0.001 0.061
0.025 0.027 0.051
0.035 0.001 0.037
0.035 0.011 0.037
0.035 0.009 0.061
0.035 0.017 0.035
0.029 0.029 0.053
0.019 -0.009 0.071
0.021 -0.007 0.077
0.035 0.015 0.067
0.035 0.007 0.077
0.025 -0.003 0.089
0.035 0.019 0.077
0.039 0.025 0.083
0.041 0.027 0.081
-0.015 0.003 0.037
-0.025 -0.009 0.051
-0.025 -0.017 0.057
0.005 0.031 0.055
-0.017 -0.019 0.063
-0.025 -0.005 0.043
-0.029 -0.007 0.035
-0.029 -0.011 0.049
-0.029 -0.011 0.053
-0.031 -0.013 0.053
-0.013 0.003 0.039
0.013 0.031 0.045
-0.011 0.005 0.037
-0.005 0.013 0.039
-0.005 -0.003 0.063
-0.005 -0.001 0.057
-0.017 -0.017 0.069
-0.011 -0.015 0.081
-0.023 -0.017 0.087
-0.007 -0.011 0.097
0.003 -0.019 0.091
-0.035 -0.025 0.087
-0.031 -0.021 0.095
-0.029 -0.023 0.069
-0.017 -0.017 0.071
0.003 0.003 0.073
-0.019 -0.017 0.093
-0.019 -0.017 0.095
-0.011 -0.011 0.093
-0.013 -0.013 0.107
-0.005 -0.019 0.105
-0.009 -0.015 0.109
0.013 0.023 0.047
0.013 0.013 0.051
0.033 0.033 0.049
0.033 0.009 0.045
0.031 0.009 0.049
0.031 0.037 0.061
0.033 0.033 0.065
0.035 -0.003 0.033
0.035 0.007 0.037
0.005 0.003 0.081
0.027 0.021 0.077
0.011 0.009 0.085
0.013 -0.015 0.113
0.025 0.041 0.045
0.035 0.011 0.037
0.035 0.017 0.037
0.027 0.039 0.043
0.005 0.025 0.035
0.017 0.039 0.039
0.007 0.029 0.045
0.023 0.039 0.037
0.013 0.011 0.053
0.037 0.031 0.059
0.007 0.029 0.059
0.035 0.003 0.041
0.037 0.023 0.065
0.023 0.039 0.053
0.035 0.035 0.061
0.035 0.033 0.063
0.003 0.003 0.077
0.021 0.019 0.067
0.037 0.031 0.079
0.019 0.019 0.077
0.021 0.019 0.071
0.033 0.033 0.067
0.021 0.019 0.083
0.029 0.013 0.091
0.037 0.029 0.067
0.045 0.035 0.081
0.037 0.027 0.087
0.039 0.035 0.083
0.037 0.031 0.087
-0.025 -0.005 0.043
-0.015 0.003 0.041
-0.035 -0.027 0.061
-0.035 -0.025 0.061
-0.021 -0.015 0.055
-0.021 -0.011 0.053
-0.019 -0.011 0.053
-0.013 -0.009 0.055
-0.023 -0.017 0.061
-0.009 -0.009 0.061
-0.039 -0.007 0.035
-0.029 -0.005 0.041
-0.025 -0.003 0.037
-0.021 -0.005 0.045
-0.011 -0.013 0.057
-0.007 -0.009 0.067
-0.035 -0.033 0.089
-0.043 -0.037 0.093
-0.021 -0.019 0.093
-0.023 -0.017 0.097
-0.023 -0.019 0.095
-0.019 -0.017 0.095
-0.013 -0.013 0.093
-0.043 -0.029 0.089
-0.031 -0.031 0.069
-0.005 -0.017 0.077
-0.003 -0.017 0.077
-0.019 -0.015 0.085
-0.009 -0.013 0.085
-0.035 -0.027 0.101
-0.039 -0.031 0.105
-0.029 -0.031 0.105
-0.031 -0.027 0.099
-0.003 -0.009 0.103
-0.005 -0.019 0.105
-0.005 -0.019 0.107
-0.007 -0.011 0.103
0.001 -0.005 0.039
0.025 0.017 0.053
0.007 0.001 0.065
0.013 -0.003 0.061
0.007 0.005 0.079
0.013 0.003 0.071
0.003 -0.005 0.083
0.003 -0.027 0.099
-0.001 0.001 0.071
0.031 0.031 0.035
0.007 0.031 0.049
0.007 0.031 0.053
0.001 0.019 0.037
0.005 0.029 0.059
0.013 0.033 0.045
0.025 0.039 0.055
0.007 0.029 0.045
0.021 0.037 0.055
0.011 0.031 0.057
0.005 0.031 0.055
0.029 0.037 0.061
0.027 0.039 0.055
0.029 0.027 0.069
0.033 0.035 0.063
0.035 0.033 0.063
0.015 0.037 0.045
0.025 0.041 0.043
0.027 0.041 0.053
0.007 0.003 0.071
0.011 0.001 0.069
0.013 0.011 0.079
0.019 0.019 0.079
0.025 0.019 0.083
0.017 0.017 0.077
0.023 0.021 0.075
0.011 0.005 0.089
0.033 0.025 0.087
0.003 -0.029 0.043
0.005 -0.021 0.037
-0.001 -0.013 0.033
-0.013 -0.041 0.053
-0.021 -0.045 0.041
-0.015 -0.047 0.039
-0.007 -0.037 0.043
-0.009 -0.033 0.051
-0.013 -0.033 0.065
0.015 -0.011 0.061
-0.011 -0.027 0.061
0.009 -0.015 0.047
0.013 -0.007 0.057
-0.001 -0.025 0.053
0.015 -0.015 0.069
-0.011 -0.035 0.089
-0.017 -0.037 0.103
-0.001 -0.033 0.089
-0.011 -0.037 0.095
-0.003 -0.019 0.071
-0.001 -0.021 0.077
0.009 -0.027 0.095
0.009 -0.027 0.103
-0.037 -0.043 0.103
-0.003 -0.035 0.105
-0.027 -0.031 0.105
-0.005 -0.019 0.101
-0.003 -0.031 0.107
0.005 -0.029 0.033
0.007 -0.023 0.043
0.007 -0.019 0.043
0.009 -0.015 0.049
0.025 -0.005 0.049
0.033 -0.001 0.041
0.033 -0.003 0.041
0.015 -0.007 0.063
0.019 -0.001 0.095
0.033 0.005 0.049
0.033 0.005 0.037
0.031 0.009 0.047
0.031 0.013 0.045
0.035 0.009 0.039
0.027 0.013 0.051
0.021 0.019 0.047
0.019 0.023 0.047
0.023 0.025 0.049
0.025 0.019 0.043
0.033 0.019 0.067
0.039 0.023 0.069
0.033 0.019 0.065
0.035 0.029 0.055
0.031 0.037 0.047
0.035 0.033 0.063
0.035 0.009 0.083
0.039 0.023 0.073
0.031 0.011 0.089
0.029 0.013 0.091
0.041 0.027 0.083
0.043 0.033 0.079
-0.037 -0.031 0.039
-0.037 -0.031 0.043
-0.039 -0.017 0.041
-0.037 -0.035 0.043
-0.035 -0.035 0.061
-0.021 -0.041 0.041
-0.031 -0.041 0.049
-0.031 -0.037 0.065
-0.029 -0.039 0.061
-0.037 -0.025 0.043
-0.041 -0.011 0.035
-0.037 -0.035 0.049
-0.041 -0.013 0.043
-0.031 -0.009 0.047
-0.029 -0.009 0.047
-0.035 -0.035 0.061
-0.033 -0.027 0.067
-0.029 -0.027 0.071
-0.029 -0.011 0.053
-0.009 -0.009 0.061
-0.043 -0.041 0.089
-0.039 -0.041 0.099
-0.039 -0.041 0.099
-0.047 -0.029 0.087
-0.047 -0.029 0.087
-0.025 -0.017 0.085
-0.041 -0.041 0.101
-0.041 -0.041 0.101
-0.041 -0.035 0.105
-0.037 -0.035 0.107
-0.041 -0.041 0.103
-0.041 -0.037 0.101
-0.041 -0.039 0.105
-0.017 -0.015 0.105
-0.035 -0.037 0.059
-0.029 -0.025 0.071
-0.027 -0.025 0.073
-0.005 -0.005 0.069
-0.009 -0.011 0.061
-0.001 -0.005 0.079
-0.027 -0.019 0.087
-0.039 -0.029 0.095
0.005 -0.005 0.087
-0.007 -0.023 0.115
0.005 0.007 0.047
-0.009 -0.005 0.055
-0.011 -0.003 0.053
0.003 0.023 0.039
0.003 0.023 0.037
0.003 0.019 0.047
0.005 0.015 0.051
0.011 0.009 0.051
-0.003 -0.001 0.069
-0.001 0.001 0.065
0.005 0.029 0.059
0.009 0.023 0.065
0.007 0.021 0.061
0.015 0.013 0.063
0.011 0.017 0.071
0.013 0.035 0.037
0.017 0.037 0.047
-0.003 -0.003 0.073
0.007 0.005 0.079
-0.001 -0.007 0.077
0.011 0.019 0.067
0.013 0.007 0.091
0.015 0.001 0.093
0.015 0.013 0.079
-0.009 -0.027 0.031
-0.011 -0.035 0.033
-0.021 -0.051 0.035
-0.007 -0.037 0.039
-0.007 -0.037 0.041
-0.009 -0.037 0.033
-0.013 -0.039 0.035
-0.009 -0.039 0.041
-0.017 -0.041 0.055
-0.023 -0.039 0.061
-0.007 -0.033 0.049
-0.045 -0.043 0.085
-0.027 -0.035 0.071
-0.011 -0.037 0.095
-0.031 -0.041 0.093
-0.013 -0.033 0.067
-0.019 -0.031 0.079
-0.007 -0.031 0.077
-0.019 -0.031 0.079
-0.021 -0.037 0.091
-0.019 -0.037 0.089
-0.003 -0.031 0.085
-0.033 -0.043 0.097
-0.015 -0.037 0.099
-0.013 -0.037 0.099
-0.017 -0.037 0.103
0.001 -0.033 0.031
0.003 -0.033 0.035
0.027 -0.009 0.039
0.023 -0.005 0.045
0.027 -0.007 0.043
0.027 -0.007 0.045
0.011 -0.017 0.071
0.007 -0.015 0.077
0.005 -0.015 0.077
0.003 -0.029 0.087
0.001 -0.031 0.089
0.011 -0.013 0.083
0.013 -0.009 0.089
0.021 -0.007 0.087
-0.003 -0.035 0.037
0.007 0.005 0.039
0.011 -0.001 0.037
0.009 0.001 0.041
0.011 -0.003 0.045
0.031 0.001 0.045
0.015 -0.003 0.049
0.031 -0.005 0.035
0.031 -0.007 0.041
0.029 -0.007 0.043
0.013 -0.009 0.055
0.025 -0.001 0.061
0.033 0.005 0.057
0.019 -0.005 0.041
0.033 0.005 0.049
0.033 0.027 0.055
0.013 -0.015 0.075
0.019 -0.011 0.075
0.027 -0.003 0.079
0.021 -0.001 0.073
0.023 0.003 0.095
0.025 -0.001 0.091
0.027 0.007 0.093
0.025 -0.005 0.081
0.035 0.007 0.071
-0.033 -0.035 0.063
-0.037 -0.025 0.041
-0.033 -0.017 0.053
-0.041 -0.009 0.039
-0.043 -0.011 0.043
-0.043 -0.009 0.041
-0.039 -0.007 0.039
-0.037 -0.007 0.035
-0.025 -0.003 0.041
-0.023 -0.017 0.061
-0.041 -0.029 0.097
-0.023 -0.037 0.091
-0.041 -0.025 0.081
-0.039 -0.027 0.095
-0.019 -0.017 0.071
-0.025 -0.021 0.073
-0.011 -0.015 0.075
-0.029 -0.019 0.085
-0.027 -0.021 0.091
-0.027 -0.019 0.087
-0.043 -0.029 0.101
-0.041 -0.027 0.099
-0.033 -0.023 0.099
-0.013 -0.025 0.107
-0.033 -0.021 0.097
-0.017 -0.019 0.105
-0.007 -0.011 0.101
-0.013 -0.013 0.107
-0.023 -0.005 0.045
0.011 -0.001 0.049
0.003 -0.005 0.083
-0.001 -0.017 0.109
0.005 0.017 0.043
-0.001 0.013 0.037
0.003 0.023 0.037
0.005 0.019 0.051
0.003 0.029 0.049
0.007 0.031 0.049
0.015 0.035 0.047
0.013 0.009 0.057
0.003 0.027 0.055
0.005 0.027 0.061
0.005 0.023 0.055
0.019 0.039 0.039
0.023 0.041 0.051
0.023 0.037 0.057
0.013 0.011 0.079
0.013 0.017 0.073
0.015 0.009 0.075
0.017 0.017 0.077
0.027 0.021 0.079
0.015 0.011 0.089
0.017 0.013 0.071
0.017 0.017 0.081
0.033 0.029 0.071
0.037 0.029 0.075
0.033 0.033 0.067
