-0.017 -0.017 0.071
-0.033 -0.005 0.037
-0.041 -0.007 0.043
-0.019 -0.005 0.047
-0.013 -0.001 0.049
-0.009 -0.011 0.061
-0.015 -0.013 0.055
-0.005 -0.001 0.055
-0.001 -0.021 0.099
-0.035 -0.023 0.085
-0.007 -0.019 0.071
-0.009 -0.019 0.069
-0.015 -0.015 0.089
-0.003 -0.021 0.109
0.017 0.017 0.077
0.021 0.015 0.089
-0.015 0.005 0.035
0.017 0.019 0.047
0.031 0.037 0.059
0.031 0.039 0.057
0.013 0.023 0.065
0.011 0.027 0.061
0.017 0.039 0.041
0.025 0.037 0.059
0.033 0.025 0.087
-0.027 -0.043 0.035
-0.021 -0.051 0.037
-0.021 -0.051 0.037
-0.029 -0.045 0.035
-0.017 -0.037 0.063
-0.033 -0.019 0.033
-0.039 -0.029 0.051
-0.037 -0.031 0.039
-0.027 -0.041 0.043
-0.037 -0.035 0.055
-0.003 -0.033 0.089
-0.037 -0.043 0.081
-0.041 -0.043 0.101
-0.041 -0.043 0.101
-0.007 -0.035 0.103
-0.009 -0.025 0.113
-0.015 -0.041 0.055
0.023 -0.005 0.045
0.029 -0.009 0.041
-0.037 -0.029 0.053
-0.021 -0.041 0.053
-0.029 -0.037 0.067
-0.029 -0.033 0.071
-0.023 -0.039 0.083
-0.013 -0.035 0.085
-0.019 -0.039 0.093
-0.015 -0.037 0.097
-0.013 -0.035 0.103
-0.017 -0.037 0.103
-0.001 -0.033 0.031
-0.019 -0.031 0.031
-0.017 -0.035 0.033
-0.003 -0.033 0.031
-0.009 -0.037 0.033
-0.009 -0.039 0.051
-0.015 -0.045 0.035
0.003 -0.031 0.033
-0.001 -0.033 0.039
-0.007 -0.035 0.049
0.007 -0.027 0.035
-0.001 -0.023 0.057
-0.019 -0.031 0.079
-0.003 -0.025 0.073
-0.013 -0.035 0.089
0.005 -0.027 0.087
-0.029 -0.039 0.099
0.025 -0.009 0.043
0.033 -0.007 0.033
0.019 -0.001 0.093
0.007 -0.029 0.097
0.033 -0.007 0.041
0.029 -0.009 0.037
0.033 0.005 0.047
0.031 0.007 0.053
0.029 0.025 0.057
0.019 0.003 0.067
0.035 0.019 0.077
-0.031 -0.009 0.047
-0.037 -0.035 0.047
-0.033 -0.037 0.063
-0.037 -0.021 0.045
-0.031 -0.023 0.067
-0.021 -0.007 0.049
-0.013 -0.001 0.049
-0.031 -0.033 0.067
-0.029 -0.023 0.069
-0.027 -0.019 0.089
-0.033 -0.025 0.089
-0.027 -0.019 0.089
-0.027 -0.019 0.089
-0.035 -0.023 0.099
-0.021 -0.017 0.099
-0.005 -0.013 0.065
-0.005 -0.001 0.061
0.011 0.001 0.053
-0.001 -0.013 0.075
0.001 -0.013 0.079
-0.001 -0.011 0.077
-0.005 -0.009 0.089
0.003 0.019 0.041
0.003 0.025 0.053
0.003 0.015 0.047
0.003 0.021 0.043
0.005 0.027 0.057
0.013 0.009 0.059
0.005 0.017 0.051
0.029 0.021 0.061
0.009 0.005 0.073
0.013 0.011 0.079
0.011 0.001 0.091
0.021 0.005 0.095
0.015 0.009 0.091
0.015 0.011 0.089
0.019 0.017 0.085
0.033 0.021 0.079
0.033 0.025 0.075
0.035 0.029 0.077
0.033 0.033 0.067
-0.037 -0.033 0.057
-0.031 -0.039 0.063
-0.037 -0.029 0.041
-0.037 -0.025 0.041
-0.031 -0.013 0.053
-0.037 -0.025 0.087
-0.009 -0.003 0.055
-0.029 -0.019 0.083
-0.047 -0.039 0.091
-0.047 -0.031 0.089
-0.039 -0.025 0.097
-0.039 -0.031 0.105
-0.025 -0.019 0.099
-0.025 -0.021 0.103
-0.021 -0.017 0.099
-0.035 -0.037 0.107
-0.033 -0.039 0.103
-0.009 -0.029 0.105
-0.013 -0.019 0.105
-0.009 -0.027 0.111
-0.013 -0.031 0.105
-0.003 -0.011 0.103
0.005 0.025 0.057
0.013 0.021 0.071
0.005 0.001 0.083
0.011 0.001 0.091
0.009 0.031 0.049
-0.007 -0.001 0.051
-0.031 -0.005 0.045
0.013 0.021 0.047
-0.027 -0.009 0.049
-0.001 0.001 0.059
-0.009 -0.017 0.073
-0.019 -0.017 0.099
-0.001 -0.007 0.095
0.003 0.001 0.081
-0.001 -0.009 0.097
-0.001 -0.011 0.099
0.033 0.037 0.051
0.027 0.021 0.077
0.029 0.019 0.081
0.007 -0.029 0.103
0.009 -0.027 0.103
0.001 -0.009 0.101
0.023 0.039 0.039
0.027 0.031 0.033
0.023 0.039 0.053
0.021 0.037 0.055
0.039 0.037 0.087
0.041 0.035 0.085
-0.013 -0.041 0.053
-0.001 -0.035 0.037
-0.017 -0.041 0.055
-0.001 -0.027 0.047
0.011 -0.017 0.073
0.021 -0.009 0.081
0.001 -0.019 0.083
-0.037 -0.041 0.103
0.007 -0.027 0.089
0.005 -0.021 0.109
0.001 -0.031 0.091
0.027 -0.003 0.047
0.013 -0.007 0.093
0.025 -0.001 0.063
0.037 0.021 0.075
0.031 0.001 0.083
0.033 0.005 0.057
0.035 0.007 0.077
0.035 0.029 0.057
0.043 0.031 0.077
0.025 -0.003 0.089
0.037 0.027 0.065
0.003 -0.033 0.035
-0.009 -0.029 0.067
-0.003 -0.017 0.093
-0.021 -0.025 0.105
0.033 0.003 0.043
0.033 0.005 0.041
0.031 0.005 0.055
0.033 0.003 0.067
0.033 0.005 0.085
0.029 0.007 0.091
0.023 0.003 0.095
0.035 0.019 0.031
0.031 0.031 0.043
0.031 0.033 0.039
0.035 0.013 0.069
0.043 0.037 0.079
-0.019 -0.015 0.055
-0.039 -0.007 0.039
-0.007 -0.003 0.055
-0.025 -0.003 0.041
-0.003 -0.001 0.045
-0.009 -0.007 0.059
-0.043 -0.031 0.091
-0.031 -0.029 0.089
-0.027 -0.021 0.099
-0.043 -0.027 0.087
-0.017 -0.015 0.087
-0.003 -0.021 0.103
-0.003 -0.001 0.057
0.003 -0.009 0.083
-0.015 0.001 0.043
0.005 0.029 0.049
0.017 0.023 0.045
0.029 0.039 0.051
0.027 0.033 0.063
0.029 0.031 0.067
0.023 0.007 0.095
0.005 -0.029 0.039
-0.011 -0.041 0.047
-0.007 -0.037 0.049
-0.011 -0.041 0.051
0.005 -0.025 0.043
0.013 -0.009 0.055
0.013 -0.009 0.057
-0.011 -0.029 0.061
0.015 -0.011 0.063
-0.009 -0.031 0.071
-0.005 -0.023 0.073
-0.001 -0.019 0.099
-0.003 -0.015 0.087
-0.007 -0.027 0.109
-0.001 -0.023 0.109
0.007 -0.019 0.109
0.007 -0.019 0.109
0.011 -0.009 0.053
0.001 -0.021 0.093
0.031 0.001 0.047
0.033 0.005 0.047
0.033 0.005 0.063
0.033 0.011 0.057
0.035 0.025 0.035
0.031 0.029 0.047
0.031 0.003 0.083
0.035 0.007 0.079
0.041 0.027 0.083
-0.017 -0.039 0.057
0.011 -0.013 0.053
0.013 -0.009 0.055
-0.035 -0.041 0.085
-0.011 -0.035 0.087
-0.007 -0.029 0.071
-0.009 -0.031 0.077
-0.003 -0.021 0.073
-0.001 -0.021 0.077
0.015 -0.015 0.067
-0.013 -0.031 0.081
-0.001 -0.027 0.081
-0.035 -0.037 0.107
-0.003 -0.035 0.107
-0.001 -0.033 0.101
-0.001 -0.031 0.105
0.001 -0.019 0.105
0.033 -0.007 0.039
0.013 -0.015 0.077
0.033 0.007 0.041
0.015 -0.005 0.063
0.031 0.019 0.059
0.029 0.023 0.043
0.021 -0.009 0.075
0.035 0.021 0.067
0.033 0.019 0.083
-0.037 -0.035 0.045
-0.031 -0.037 0.037
-0.033 -0.017 0.051
-0.033 -0.031 0.035
-0.043 -0.009 0.043
-0.039 -0.039 0.099
-0.049 -0.031 0.087
-0.045 -0.033 0.091
-0.035 -0.029 0.089
-0.045 -0.035 0.093
-0.041 -0.035 0.101
-0.041 -0.031 0.097
-0.043 -0.029 0.103
-0.043 -0.035 0.105
-0.021 -0.025 0.105
-0.039 -0.029 0.095
-0.013 0.003 0.043
-0.007 0.015 0.037
0.003 0.017 0.039
0.011 0.019 0.067
0.009 0.007 0.087
0.019 0.003 0.095
-0.031 -0.035 0.065
-0.037 -0.023 0.041
-0.013 -0.001 0.047
-0.033 -0.021 0.057
-0.033 -0.021 0.057
-0.045 -0.033 0.091
-0.021 -0.021 0.079
-0.033 -0.027 0.067
-0.023 -0.029 0.077
-0.037 -0.025 0.087
-0.043 -0.033 0.103
-0.041 -0.029 0.097
-0.009 -0.011 0.101
0.011 -0.003 0.091
-0.005 0.013 0.039
0.009 0.001 0.041
0.011 0.029 0.037
0.015 0.037 0.037
0.005 0.003 0.081
0.023 0.021 0.077
0.005 0.003 0.083
0.019 0.017 0.085
0.037 0.029 0.075
0.007 0.005 0.083
-0.001 -0.021 0.109
0.005 -0.025 0.095
0.007 -0.025 0.095
-0.003 -0.031 0.043
-0.009 -0.013 0.103
0.019 0.007 0.093
-0.031 -0.037 0.103
-0.025 -0.033 0.105
-0.005 -0.023 0.115
-0.019 -0.017 0.103
-0.003 -0.015 0.089
-0.023 -0.033 0.105
-0.015 -0.035 0.105
-0.025 -0.029 0.105
-0.009 -0.015 0.109
0.007 -0.025 0.039
0.031 0.001 0.051
0.005 -0.029 0.103
0.009 -0.027 0.103
0.013 0.009 0.089
0.025 0.015 0.089
0.025 0.017 0.087
0.035 0.007 0.063
0.039 0.029 0.087
0.045 0.035 0.081
0.043 0.033 0.085
0.023 0.019 0.083
0.019 0.001 0.095
0.029 0.007 0.091
0.035 0.011 0.081
-0.033 -0.023 0.099
-0.013 -0.009 0.055
-0.023 -0.031 0.105
-0.015 -0.029 0.105
-0.025 -0.019 0.099
-0.019 -0.025 0.105
-0.021 -0.019 0.103
0.003 -0.013 0.085
0.017 -0.005 0.091
0.017 0.031 0.049
0.013 0.011 0.081
0.001 0.015 0.037
0.023 0.021 0.075
0.023 0.021 0.079
0.005 0.019 0.051
0.013 0.027 0.045
0.005 0.025 0.059
0.021 0.019 0.071
0.011 0.021 0.071
0.029 0.021 0.071
0.011 0.009 0.087
0.027 0.007 0.093
0.029 0.011 0.093
-0.023 -0.049 0.039
-0.021 -0.045 0.041
-0.009 -0.031 0.071
-0.003 -0.031 0.083
-0.027 -0.033 0.105
0.005 -0.021 0.061
0.013 -0.017 0.067
0.007 -0.029 0.097
0.001 -0.031 0.101
0.007 -0.021 0.061
0.007 -0.021 0.057
0.027 -0.009 0.039
0.017 -0.005 0.043
0.007 -0.021 0.057
0.009 -0.019 0.057
0.011 -0.017 0.073
0.025 -0.003 0.089
0.031 0.001 0.085
0.025 -0.005 0.085
0.031 0.003 0.087
-0.023 -0.049 0.037
-0.017 -0.051 0.035
-0.019 -0.039 0.059
-0.009 -0.039 0.035
0.001 -0.033 0.037
-0.007 -0.025 0.053
-0.009 -0.027 0.053
-0.019 -0.037 0.083
-0.007 -0.033 0.089
-0.039 -0.043 0.081
-0.019 -0.037 0.067
-0.025 -0.039 0.083
-0.009 -0.031 0.079
-0.039 -0.041 0.105
-0.003 -0.035 0.107
-0.011 -0.037 0.095
-0.003 -0.033 0.101
0.007 -0.027 0.041
0.013 -0.003 0.045
0.019 -0.003 0.037
0.007 -0.021 0.051
0.003 -0.015 0.081
-0.003 -0.035 0.033
0.027 0.007 0.033
0.031 0.001 0.063
0.033 0.003 0.081
-0.035 -0.033 0.061
-0.033 -0.003 0.033
-0.033 -0.023 0.059
-0.033 -0.005 0.037
-0.021 -0.005 0.047
-0.021 0.001 0.037
-0.029 -0.021 0.089
-0.045 -0.027 0.083
-0.029 -0.023 0.069
-0.025 -0.019 0.071
-0.021 -0.027 0.079
-0.039 -0.039 0.099
0.003 0.013 0.045
0.003 -0.005 0.083
0.007 -0.009 0.089
-0.013 0.005 0.037
0.011 0.029 0.037
0.013 0.035 0.037
0.003 0.019 0.039
0.005 0.015 0.049
0.005 0.029 0.059
0.021 0.035 0.055
0.015 0.013 0.079
0.017 0.007 0.069
-0.021 -0.017 0.057
0.039 0.037 0.087
0.039 0.025 0.071
0.027 0.015 0.089
0.033 0.015 0.083
0.031 0.033 0.065
-0.027 -0.021 0.101
-0.011 -0.011 0.089
-0.011 -0.013 0.109
-0.013 -0.013 0.107
0.039 0.025 0.069
0.039 0.025 0.069
0.039 0.025 0.071
0.041 0.025 0.077
0.031 0.013 0.089
0.025 0.037 0.059
0.031 0.039 0.057
0.027 0.041 0.053
0.031 0.023 0.041
0.037 0.011 0.069
0.013 0.027 0.057
0.027 0.039 0.057
0.037 0.029 0.065
0.019 0.017 0.085
0.021 0.019 0.083
0.043 0.031 0.083
0.023 0.021 0.079
0.021 0.017 0.087
0.041 0.029 0.085
-0.037 -0.027 0.053
-0.037 -0.027 0.057
-0.013 0.003 0.039
-0.013 0.003 0.043
-0.023 -0.017 0.061
-0.037 -0.039 0.095
-0.023 -0.021 0.077
-0.023 -0.019 0.067
-0.017 -0.019 0.065
-0.025 -0.017 0.085
-0.005 -0.009 0.091
-0.039 -0.031 0.105
-0.009 -0.025 0.113
-0.005 -0.003 0.065
0.009 0.001 0.069
0.015 0.011 0.089
0.009 0.025 0.035
0.015 0.037 0.043
0.011 0.003 0.051
-0.001 0.001 0.063
0.013 0.001 0.057
0.023 0.017 0.053
0.021 0.033 0.055
0.015 0.035 0.045
0.017 0.039 0.043
0.019 0.033 0.053
0.037 0.029 0.073
0.037 0.033 0.085
