-0.025 -0.041 0.043
-0.035 -0.037 0.055
-0.033 -0.037 0.063
-0.031 -0.041 0.045
-0.039 -0.029 0.045
-0.035 -0.033 0.037
-0.033 -0.039 0.041
-0.035 -0.021 0.047
-0.031 -0.035 0.067
-0.047 -0.039 0.087
-0.011 -0.035 0.087
-0.027 -0.037 0.087
-0.037 -0.041 0.089
-0.031 -0.031 0.089
-0.031 -0.043 0.095
-0.029 -0.037 0.087
-0.025 -0.039 0.097
-0.033 -0.043 0.097
-0.031 -0.043 0.099
-0.015 -0.035 0.105
-0.009 -0.027 0.109
-0.023 -0.037 0.067
0.025 -0.003 0.055
0.013 -0.015 0.075
0.011 -0.015 0.077
-0.019 -0.039 0.101
0.007 -0.029 0.101
-0.005 -0.025 0.109
-0.035 -0.033 0.059
-0.033 -0.039 0.057
-0.023 -0.041 0.057
-0.031 -0.033 0.069
-0.021 -0.033 0.075
-0.023 -0.037 0.069
-0.017 -0.035 0.073
-0.031 -0.039 0.081
0.003 -0.023 0.055
-0.033 -0.031 0.067
-0.013 -0.035 0.103
-0.013 -0.035 0.085
-0.007 -0.035 0.097
-0.011 -0.035 0.097
-0.019 -0.039 0.101
-0.011 -0.035 0.103
-0.011 -0.035 0.101
-0.015 -0.037 0.099
-0.021 -0.051 0.035
-0.025 -0.041 0.045
-0.003 -0.035 0.035
-0.017 -0.043 0.049
-0.023 -0.041 0.047
-0.015 -0.041 0.043
-0.009 -0.039 0.037
-0.003 -0.031 0.043
-0.001 -0.035 0.035
0.005 -0.017 0.039
-0.011 -0.031 0.053
0.005 -0.025 0.049
-0.045 -0.043 0.085
-0.033 -0.041 0.085
-0.039 -0.043 0.085
-0.041 -0.039 0.091
-0.035 -0.041 0.089
-0.019 -0.033 0.077
-0.011 -0.033 0.075
-0.015 -0.035 0.083
-0.023 -0.041 0.095
-0.015 -0.035 0.089
-0.011 -0.035 0.099
-0.003 -0.025 0.107
-0.003 -0.013 0.101
0.031 -0.001 0.043
0.003 -0.021 0.061
0.009 -0.013 0.049
0.013 -0.015 0.059
0.029 -0.001 0.057
0.033 -0.007 0.033
0.009 -0.019 0.067
0.021 -0.005 0.073
0.011 -0.013 0.081
0.011 -0.009 0.091
0.031 0.011 0.033
0.035 0.017 0.031
0.013 0.001 0.033
0.011 -0.001 0.037
0.011 -0.001 0.037
0.019 -0.005 0.039
0.029 -0.009 0.037
0.035 0.015 0.033
0.033 0.001 0.043
0.031 0.001 0.055
0.033 0.007 0.057
0.037 0.027 0.061
0.015 -0.013 0.079
0.029 0.001 0.073
0.027 -0.001 0.077
0.035 0.009 0.073
0.037 0.011 0.069
0.007 0.029 0.059
0.005 0.031 0.055
-0.037 -0.007 0.037
-0.035 -0.007 0.045
0.011 0.027 0.049
-0.027 -0.013 0.055
-0.031 -0.023 0.089
-0.045 -0.035 0.093
-0.013 -0.013 0.095
0.009 0.007 0.085
-0.025 -0.019 0.089
-0.003 -0.009 0.089
-0.003 -0.009 0.103
-0.001 -0.009 0.101
0.005 -0.015 0.109
-0.033 -0.023 0.099
-0.023 -0.019 0.099
-0.003 -0.019 0.105
-0.007 -0.021 0.105
-0.009 -0.015 0.105
0.021 0.037 0.055
0.033 0.037 0.049
0.019 0.019 0.065
0.035 0.033 0.063
0.005 0.003 0.079
0.007 0.003 0.087
0.029 0.017 0.085
0.027 0.031 0.033
0.035 0.025 0.035
0.031 0.011 0.047
0.003 0.025 0.035
0.031 0.037 0.047
0.017 0.015 0.059
0.019 0.019 0.065
0.033 0.005 0.049
0.011 0.019 0.049
0.033 0.035 0.063
0.033 0.005 0.045
0.035 0.031 0.055
0.017 0.039 0.045
0.017 0.037 0.047
0.041 0.033 0.077
0.043 0.035 0.075
0.031 0.033 0.065
-0.029 -0.005 0.045
-0.003 -0.001 0.045
-0.035 -0.023 0.055
-0.021 -0.015 0.055
-0.027 -0.017 0.059
-0.031 -0.023 0.067
-0.009 -0.009 0.061
-0.039 -0.007 0.041
-0.017 -0.007 0.049
-0.031 -0.025 0.099
-0.019 -0.017 0.099
-0.035 -0.023 0.097
-0.001 -0.001 0.075
-0.027 -0.019 0.087
-0.021 -0.017 0.097
-0.031 -0.021 0.097
-0.007 -0.011 0.093
-0.005 -0.009 0.095
-0.037 -0.031 0.103
-0.029 -0.025 0.101
-0.003 -0.031 0.107
-0.007 -0.011 0.101
-0.009 -0.023 0.113
-0.005 -0.019 0.109
-0.001 -0.001 0.051
0.005 -0.005 0.045
0.025 0.017 0.057
-0.001 0.001 0.065
0.007 -0.003 0.051
0.009 -0.003 0.057
0.011 -0.003 0.061
0.013 0.021 0.071
0.023 0.021 0.069
0.025 0.039 0.057
0.019 0.017 0.085
0.003 -0.009 0.083
0.005 -0.001 0.087
0.005 -0.005 0.087
0.013 0.007 0.091
0.013 0.003 0.091
-0.019 0.003 0.035
-0.011 0.005 0.037
-0.011 0.003 0.043
0.013 0.031 0.043
0.003 0.027 0.033
0.003 0.029 0.051
0.005 0.021 0.055
0.025 0.021 0.067
0.027 0.029 0.065
0.023 0.033 0.059
0.027 0.041 0.053
0.013 0.035 0.037
0.009 0.005 0.073
0.013 0.009 0.077
0.031 0.027 0.071
0.027 0.021 0.071
0.029 0.027 0.069
0.015 0.013 0.085
0.019 0.017 0.083
0.033 0.019 0.083
0.007 -0.021 0.045
-0.013 -0.041 0.043
-0.009 -0.039 0.051
-0.013 -0.043 0.039
0.007 -0.021 0.055
-0.007 -0.031 0.047
-0.001 -0.027 0.045
0.011 -0.017 0.053
0.011 -0.007 0.053
0.009 -0.009 0.047
0.007 -0.017 0.043
-0.009 -0.019 0.067
0.015 -0.015 0.067
-0.007 -0.035 0.101
0.001 -0.033 0.097
-0.001 -0.031 0.103
-0.001 -0.031 0.105
0.001 -0.031 0.085
-0.003 -0.019 0.073
-0.007 -0.031 0.081
0.001 -0.017 0.079
0.003 -0.031 0.089
-0.001 -0.011 0.089
-0.001 -0.011 0.097
-0.035 -0.043 0.101
-0.003 -0.021 0.101
-0.003 -0.013 0.101
0.003 -0.029 0.043
0.007 -0.011 0.043
0.007 -0.007 0.045
0.035 -0.003 0.039
0.005 -0.025 0.053
0.007 -0.021 0.059
0.019 -0.007 0.089
0.015 -0.005 0.091
0.031 0.005 0.053
0.033 0.027 0.039
0.031 0.011 0.047
0.035 0.009 0.061
0.031 0.013 0.045
0.035 0.011 0.037
0.027 0.015 0.045
0.025 0.017 0.045
0.037 0.021 0.069
0.035 0.019 0.069
0.035 0.023 0.063
0.035 0.005 0.039
0.035 0.011 0.037
0.035 0.021 0.035
0.035 0.033 0.063
0.033 0.003 0.069
0.033 0.003 0.073
0.031 0.001 0.079
0.025 -0.001 0.091
0.025 0.001 0.091
0.031 0.003 0.087
-0.035 -0.035 0.039
-0.023 -0.047 0.041
-0.037 -0.029 0.039
-0.035 -0.039 0.053
-0.033 -0.039 0.055
-0.037 -0.025 0.047
-0.041 -0.007 0.043
-0.029 -0.019 0.061
-0.031 -0.019 0.057
-0.033 -0.025 0.065
-0.027 -0.017 0.059
-0.009 -0.011 0.061
-0.045 -0.041 0.087
-0.049 -0.033 0.087
-0.049 -0.031 0.085
-0.047 -0.027 0.085
-0.047 -0.029 0.087
-0.039 -0.027 0.089
-0.029 -0.029 0.071
-0.021 -0.017 0.073
-0.001 -0.013 0.075
-0.001 -0.011 0.075
-0.035 -0.023 0.085
-0.043 -0.027 0.087
-0.037 -0.025 0.087
-0.043 -0.029 0.103
-0.023 -0.019 0.101
-0.027 -0.027 0.105
-0.011 -0.025 0.111
-0.013 -0.013 0.099
-0.005 -0.009 0.099
-0.005 -0.001 0.053
-0.003 -0.015 0.071
-0.005 -0.003 0.067
0.003 -0.003 0.083
-0.015 -0.017 0.107
-0.011 -0.015 0.109
0.003 -0.017 0.111
-0.007 0.013 0.037
0.005 0.005 0.043
0.003 0.021 0.039
0.009 0.027 0.039
0.003 0.023 0.037
0.003 0.023 0.045
0.011 0.001 0.053
-0.001 0.001 0.061
0.011 0.007 0.053
0.013 0.009 0.055
0.017 0.017 0.061
0.027 0.031 0.063
0.011 0.031 0.057
0.021 0.041 0.049
0.009 0.019 0.065
0.011 0.019 0.071
0.029 0.025 0.067
0.029 0.029 0.067
0.013 0.005 0.091
0.011 0.003 0.091
0.031 0.023 0.071
-0.011 -0.011 0.089
-0.031 -0.025 0.099
-0.023 -0.023 0.105
-0.029 -0.019 0.085
-0.025 -0.015 0.055
-0.015 -0.015 0.075
-0.023 -0.003 0.041
-0.023 -0.001 0.039
-0.027 -0.009 0.049
-0.029 -0.005 0.045
-0.019 -0.005 0.047
-0.011 -0.001 0.049
-0.009 -0.011 0.101
-0.003 -0.009 0.103
-0.013 -0.009 0.055
-0.033 -0.035 0.105
-0.033 -0.037 0.105
-0.021 -0.023 0.105
-0.017 -0.023 0.105
-0.019 -0.029 0.105
-0.017 -0.027 0.105
-0.011 -0.025 0.111
-0.047 -0.027 0.085
-0.003 -0.019 0.107
-0.003 -0.019 0.099
-0.025 -0.017 0.085
-0.021 -0.027 0.105
-0.025 -0.019 0.099
-0.033 -0.033 0.105
-0.003 -0.023 0.109
-0.013 -0.015 0.107
-0.007 -0.023 0.115
-0.005 -0.011 0.101
-0.003 -0.011 0.103
0.001 -0.009 0.101
-0.001 0.001 0.071
0.021 0.005 0.095
0.007 0.003 0.087
0.003 -0.027 0.101
0.005 -0.009 0.087
0.013 -0.007 0.093
0.009 -0.027 0.097
0.001 -0.019 0.111
0.003 -0.017 0.111
-0.001 0.011 0.039
0.025 0.021 0.079
0.027 0.021 0.041
0.027 0.019 0.083
0.029 0.027 0.069
0.023 0.037 0.057
0.025 0.039 0.057
0.003 0.003 0.075
0.027 0.021 0.079
0.021 0.007 0.093
-0.013 -0.033 0.033
-0.035 -0.039 0.049
-0.017 -0.041 0.045
-0.025 -0.041 0.057
-0.015 -0.041 0.055
-0.027 -0.041 0.045
-0.033 -0.037 0.039
-0.017 -0.041 0.047
0.005 -0.029 0.041
-0.011 -0.023 0.057
-0.007 -0.019 0.059
-0.001 -0.021 0.061
0.003 -0.019 0.063
-0.033 -0.043 0.095
-0.015 -0.035 0.081
-0.033 -0.041 0.085
-0.003 -0.027 0.075
-0.033 -0.043 0.097
-0.031 -0.043 0.099
-0.029 -0.043 0.095
0.001 -0.033 0.097
-0.005 -0.033 0.101
0.005 -0.025 0.045
0.005 -0.029 0.041
0.007 -0.019 0.043
0.023 -0.005 0.053
0.013 -0.017 0.065
0.003 -0.015 0.077
0.005 -0.013 0.081
0.023 -0.007 0.085
0.003 -0.031 0.101
-0.009 -0.039 0.037
0.003 -0.021 0.059
0.031 -0.009 0.039
0.019 -0.001 0.035
0.033 0.001 0.041
0.033 -0.007 0.035
0.031 0.001 0.049
0.031 0.003 0.053
0.021 -0.005 0.053
0.031 0.001 0.051
0.019 -0.003 0.057
0.025 -0.003 0.051
0.035 0.029 0.055
0.009 -0.013 0.083
0.015 -0.013 0.083
0.031 0.001 0.085
0.021 0.001 0.095
0.035 0.005 0.073
-0.033 -0.005 0.039
-0.035 -0.029 0.035
-0.037 -0.021 0.045
-0.035 -0.031 0.063
-0.041 -0.013 0.043
-0.033 -0.017 0.049
-0.033 -0.005 0.041
-0.027 -0.005 0.045
-0.017 -0.005 0.045
-0.033 -0.017 0.055
-0.029 -0.019 0.059
-0.009 -0.003 0.055
-0.049 -0.031 0.085
-0.029 -0.021 0.087
-0.025 -0.019 0.095
-0.009 -0.011 0.087
-0.011 -0.011 0.089
-0.041 -0.037 0.105
-0.029 -0.027 0.101
-0.029 -0.025 0.103
-0.031 -0.023 0.099
-0.041 -0.029 0.099
-0.039 -0.025 0.101
-0.019 -0.017 0.103
-0.009 -0.013 0.103
-0.021 -0.003 0.043
-0.017 -0.001 0.041
0.009 0.001 0.047
-0.003 -0.007 0.073
0.003 0.001 0.079
0.011 0.027 0.031
0.003 0.023 0.037
0.003 0.013 0.045
0.003 0.021 0.041
0.001 0.021 0.033
0.001 0.021 0.033
0.003 0.029 0.051
0.015 0.035 0.047
0.009 0.027 0.063
0.025 0.031 0.061
0.017 0.039 0.039
0.027 0.031 0.063
0.021 0.035 0.055
0.027 0.041 0.053
0.011 0.001 0.069
0.013 0.007 0.075
0.011 0.009 0.083
0.019 0.011 0.091
0.033 0.027 0.079
0.039 0.033 0.081
0.009 0.027 0.063
0.031 0.029 0.069
0.013 0.023 0.061
0.039 0.037 0.087
0.023 0.019 0.083
-0.031 -0.003 0.037
-0.027 -0.017 0.059
0.029 0.029 0.069
0.029 0.031 0.067
-0.017 -0.011 0.053
0.023 0.021 0.079
-0.025 -0.019 0.091
-0.011 -0.013 0.109
0.001 -0.009 0.103
-0.001 -0.009 0.089
0.025 0.007 0.095
0.001 -0.007 0.095
-0.019 -0.017 0.099
-0.001 -0.009 0.089
-0.011 -0.011 0.093
-0.027 -0.033 0.105
-0.009 -0.015 0.109
-0.001 -0.017 0.109
0.035 0.015 0.071
0.035 0.013 0.077
0.039 0.021 0.073
0.035 0.013 0.077
0.035 -0.001 0.037
0.017 0.013 0.089
0.019 0.011 0.091
0.031 0.003 0.085
0.029 0.019 0.041
0.033 0.035 0.049
0.035 0.035 0.061
0.027 0.041 0.051
0.031 0.037 0.043
0.033 0.033 0.047
0.037 0.031 0.063
0.037 0.031 0.063
0.043 0.029 0.081
0.009 0.029 0.061
0.023 0.041 0.041
