0.003 -0.017 0.071
-0.007 -0.033 0.049
-0.005 -0.031 0.045
-0.003 -0.025 0.053
-0.003 -0.033 0.043
0.007 -0.021 0.051
0.007 -0.021 0.047
0.007 -0.019 0.047
0.013 -0.015 0.059
-0.015 -0.035 0.065
-0.023 -0.049 0.039
-0.019 -0.049 0.039
-0.015 -0.049 0.037
-0.015 -0.043 0.051
-0.021 -0.045 0.041
-0.013 -0.041 0.047
-0.011 -0.037 0.053
-0.007 -0.037 0.049
-0.013 -0.039 0.053
-0.011 -0.041 0.051
-0.007 -0.037 0.043
-0.009 -0.039 0.043
-0.009 -0.039 0.051
-0.005 -0.035 0.045
-0.005 -0.035 0.045
-0.017 -0.041 0.055
-0.027 -0.041 0.059
-0.017 -0.041 0.055
-0.015 -0.043 0.051
-0.017 -0.041 0.055
-0.025 -0.041 0.059
-0.023 -0.039 0.065
-0.021 -0.039 0.063
-0.009 -0.037 0.051
-0.009 -0.033 0.051
-0.015 -0.035 0.059
0.007 -0.029 0.089
0.007 -0.027 0.089
0.007 -0.029 0.087
0.001 -0.019 0.087
0.009 -0.015 0.079
0.009 -0.013 0.081
0.009 -0.013 0.083
0.003 -0.015 0.081
0.001 -0.019 0.087
0.001 -0.017 0.087
0.001 -0.019 0.083
0.001 -0.019 0.085
-0.035 -0.007 0.045
0.001 -0.015 0.081
-0.035 -0.007 0.045
0.005 -0.031 0.097
0.001 -0.033 0.097
0.001 -0.033 0.097
-0.007 -0.033 0.089
-0.013 -0.031 0.055
-0.005 -0.021 0.059
-0.011 -0.023 0.057
-0.005 -0.033 0.045
0.005 -0.025 0.045
-0.003 -0.029 0.043
0.007 -0.019 0.067
0.013 -0.015 0.079
0.001 -0.015 0.081
0.003 -0.015 0.081
0.003 -0.013 0.083
0.007 -0.013 0.083
0.015 -0.015 0.067
0.011 -0.015 0.051
0.011 -0.013 0.051
0.011 -0.013 0.053
0.017 -0.011 0.071
0.019 -0.009 0.071
0.017 -0.011 0.083
0.015 -0.009 0.061
0.021 -0.007 0.075
0.001 -0.023 0.087
0.001 -0.023 0.087
0.001 -0.023 0.083
0.001 -0.023 0.087
-0.007 -0.031 0.049
-0.011 -0.023 0.057
-0.001 -0.021 0.061
0.001 -0.023 0.057
-0.009 -0.031 0.069
-0.007 -0.023 0.067
-0.013 -0.019 0.057
-0.005 -0.019 0.063
-0.007 -0.023 0.067
0.001 -0.017 0.079
0.001 -0.019 0.087
0.001 -0.019 0.083
0.003 -0.015 0.079
0.007 -0.015 0.079
0.015 -0.013 0.083
0.011 -0.015 0.079
0.019 -0.011 0.083
0.019 -0.011 0.083
0.019 -0.009 0.085
0.019 -0.009 0.085
0.021 -0.009 0.085
0.021 -0.009 0.085
0.023 -0.007 0.085
0.023 -0.007 0.087
0.007 -0.017 0.075
0.005 -0.015 0.077
0.009 -0.015 0.079
0.019 -0.009 0.087
0.015 -0.011 0.085
0.021 -0.007 0.087
-0.031 -0.043 0.095
-0.029 -0.041 0.099
-0.025 -0.041 0.095
-0.023 -0.037 0.103
-0.023 -0.041 0.095
-0.031 -0.035 0.103
-0.029 -0.035 0.101
-0.031 -0.035 0.103
-0.015 -0.035 0.069
-0.015 -0.037 0.101
-0.017 -0.037 0.085
-0.017 -0.037 0.087
-0.003 -0.035 0.107
-0.023 -0.041 0.095
-0.019 -0.039 0.101
-0.013 -0.037 0.099
-0.019 -0.039 0.095
-0.011 -0.035 0.083
-0.001 -0.033 0.091
-0.011 -0.037 0.095
-0.011 -0.037 0.095
-0.005 -0.035 0.099
-0.017 -0.031 0.105
-0.007 -0.027 0.111
-0.027 -0.031 0.105
0.007 -0.029 0.103
0.009 -0.027 0.103
0.001 -0.021 0.093
-0.005 -0.033 0.095
0.003 -0.031 0.101
0.003 -0.031 0.101
0.001 -0.021 0.093
-0.009 -0.031 0.069
0.007 -0.029 0.087
0.001 -0.017 0.071
0.003 -0.017 0.073
-0.007 -0.031 0.077
0.007 -0.027 0.089
0.003 -0.019 0.091
-0.001 -0.021 0.075
-0.001 -0.023 0.077
-0.001 -0.019 0.077
-0.001 -0.023 0.079
0.005 -0.017 0.075
0.009 -0.015 0.079
0.009 -0.013 0.083
0.011 -0.013 0.083
0.015 -0.011 0.085
0.017 -0.007 0.089
0.003 -0.019 0.091
0.001 -0.017 0.091
-0.011 -0.029 0.105
0.003 -0.031 0.101
0.003 -0.031 0.101
-0.003 -0.025 0.107
-0.003 -0.023 0.109
-0.001 -0.021 0.099
-0.003 -0.023 0.101
0.005 -0.021 0.109
-0.009 -0.029 0.105
-0.001 -0.033 0.109
-0.003 -0.031 0.107
-0.007 -0.027 0.105
-0.007 -0.027 0.111
-0.005 -0.023 0.115
-0.005 -0.025 0.109
-0.005 -0.023 0.109
-0.003 -0.021 0.109
0.003 -0.031 0.101
0.003 -0.031 0.093
0.007 -0.029 0.093
0.007 -0.025 0.095
0.003 -0.019 0.091
-0.003 -0.015 0.091
0.001 -0.017 0.091
-0.001 -0.013 0.095
0.009 -0.017 0.113
0.011 -0.017 0.113
-0.003 -0.015 0.091
-0.001 -0.011 0.095
-0.039 -0.043 0.103
-0.035 -0.043 0.101
-0.033 -0.039 0.103
-0.031 -0.033 0.103
-0.023 -0.039 0.103
-0.023 -0.037 0.103
-0.023 -0.035 0.103
-0.025 -0.037 0.103
-0.031 -0.037 0.103
-0.023 -0.033 0.105
-0.023 -0.035 0.103
-0.017 -0.037 0.103
-0.017 -0.037 0.103
-0.019 -0.037 0.103
-0.001 -0.033 0.101
-0.003 -0.035 0.107
-0.001 -0.033 0.109
-0.001 -0.033 0.109
-0.041 -0.029 0.103
-0.031 -0.033 0.103
-0.029 -0.031 0.105
-0.035 -0.027 0.101
-0.033 -0.031 0.103
-0.035 -0.023 0.099
-0.023 -0.027 0.105
-0.023 -0.025 0.105
-0.025 -0.023 0.105
-0.005 -0.025 0.115
-0.003 -0.019 0.109
-0.023 -0.031 0.105
-0.021 -0.023 0.105
-0.007 -0.023 0.115
-0.013 -0.017 0.107
-0.005 -0.027 0.103
-0.003 -0.025 0.101
0.001 -0.021 0.109
-0.007 -0.027 0.111
-0.005 -0.025 0.113
-0.011 -0.017 0.105
0.003 -0.017 0.111
0.003 -0.017 0.111
-0.007 -0.013 0.103
0.011 -0.017 0.113
0.011 -0.015 0.111
0.011 -0.013 0.113
-0.001 -0.011 0.097
-0.009 -0.015 0.109
0.003 -0.031 0.037
0.007 -0.027 0.039
0.003 -0.031 0.037
0.007 -0.019 0.043
0.003 -0.029 0.043
0.007 -0.027 0.041
0.007 -0.021 0.045
0.007 -0.021 0.051
0.007 -0.019 0.045
0.013 -0.009 0.057
0.023 -0.005 0.053
0.023 -0.005 0.053
0.029 -0.005 0.045
0.029 -0.007 0.043
0.025 -0.009 0.043
0.021 -0.005 0.047
0.023 -0.005 0.049
0.031 -0.003 0.041
0.005 -0.025 0.053
0.007 -0.021 0.059
0.005 -0.021 0.063
0.005 -0.021 0.063
0.007 -0.019 0.067
0.013 -0.017 0.063
0.017 -0.009 0.067
0.019 -0.007 0.071
0.021 -0.003 0.059
0.013 -0.005 0.059
0.015 -0.013 0.063
0.015 -0.013 0.063
0.015 -0.005 0.063
0.023 -0.005 0.053
0.019 -0.005 0.053
0.025 -0.003 0.057
0.027 -0.003 0.055
0.027 -0.003 0.055
0.035 -0.005 0.037
0.009 -0.019 0.065
0.011 -0.017 0.073
0.025 -0.005 0.087
0.021 -0.007 0.075
0.025 -0.005 0.083
0.005 -0.015 0.077
0.011 -0.015 0.079
0.013 -0.005 0.093
0.021 -0.009 0.075
0.021 -0.009 0.075
0.023 -0.007 0.079
0.027 -0.003 0.081
0.027 -0.003 0.079
0.009 -0.027 0.095
0.009 -0.027 0.097
0.009 -0.011 0.087
0.009 -0.009 0.089
0.009 -0.011 0.087
0.013 -0.009 0.089
0.013 -0.011 0.087
0.013 -0.005 0.093
0.011 -0.009 0.091
0.017 -0.003 0.093
0.015 -0.003 0.095
0.023 -0.007 0.083
0.025 -0.005 0.087
0.025 -0.001 0.091
0.025 -0.003 0.089
0.003 -0.031 0.101
0.007 -0.029 0.097
0.011 -0.017 0.113
0.013 -0.015 0.113
0.009 -0.015 0.113
0.021 -0.009 0.075
0.023 -0.007 0.083
0.023 -0.007 0.081
0.023 -0.007 0.081
0.025 -0.005 0.081
0.025 -0.005 0.083
0.033 0.003 0.081
0.033 0.005 0.079
0.021 -0.009 0.085
0.023 -0.007 0.087
0.033 0.005 0.083
0.029 -0.001 0.045
0.031 0.001 0.051
0.033 0.003 0.043
0.031 0.017 0.059
0.031 0.027 0.043
0.033 0.023 0.039
0.025 0.001 0.067
0.029 -0.001 0.059
0.031 0.001 0.063
0.029 0.001 0.065
0.031 0.001 0.077
0.033 0.003 0.069
0.023 0.001 0.063
0.021 -0.001 0.061
0.033 0.003 0.081
0.033 0.003 0.081
0.033 0.005 0.083
0.031 -0.001 0.043
0.031 -0.001 0.043
0.035 0.009 0.061
0.033 0.007 0.041
0.035 0.009 0.071
0.035 0.009 0.071
0.035 0.007 0.079
0.037 0.013 0.073
0.037 0.013 0.071
0.023 0.021 0.045
0.035 0.021 0.065
0.039 0.021 0.075
0.035 0.009 0.079
0.035 0.013 0.077
0.033 0.009 0.085
0.035 0.009 0.083
0.033 0.011 0.083
0.037 0.013 0.075
0.037 0.011 0.075
0.037 0.011 0.071
0.035 0.013 0.079
0.035 0.017 0.079
0.035 0.017 0.075
0.035 0.019 0.073
0.039 0.021 0.077
0.039 0.021 0.079
0.027 0.015 0.045
0.025 0.021 0.043
0.033 0.025 0.039
0.033 0.027 0.039
0.035 0.011 0.061
0.035 0.013 0.063
0.025 0.023 0.043
0.037 0.013 0.071
0.033 0.015 0.061
0.035 0.017 0.067
0.035 0.017 0.069
0.027 0.021 0.041
0.025 0.023 0.043
0.035 0.017 0.069
0.029 0.001 0.073
0.033 0.005 0.083
0.033 0.003 0.077
0.025 -0.005 0.087
0.031 0.007 0.051
0.031 0.003 0.055
0.035 0.007 0.075
0.035 0.009 0.075
0.031 0.009 0.053
0.033 0.009 0.059
0.037 0.011 0.069
0.033 0.011 0.085
0.033 0.013 0.085
0.035 0.013 0.079
0.035 0.015 0.079
0.035 0.017 0.079
0.029 0.015 0.089
0.033 0.011 0.085
0.031 0.015 0.089
0.029 0.019 0.083
0.035 0.029 0.055
0.039 0.023 0.069
0.041 0.023 0.077
0.037 0.011 0.075
0.035 0.017 0.067
0.035 0.017 0.069
0.037 0.021 0.069
0.041 0.025 0.081
0.035 0.003 0.039
0.035 0.007 0.037
0.035 0.011 0.037
0.035 0.019 0.035
0.035 0.023 0.035
0.035 0.017 0.037
0.035 0.019 0.037
0.033 0.023 0.039
0.033 0.031 0.045
0.033 0.003 0.065
0.033 0.009 0.057
0.035 0.011 0.063
0.035 0.009 0.065
0.035 0.027 0.057
0.035 0.031 0.057
0.037 0.027 0.061
0.037 0.029 0.061
0.041 0.025 0.075
0.041 0.023 0.077
0.041 0.023 0.077
0.037 0.029 0.061
0.037 0.031 0.065
0.033 0.033 0.047
0.033 0.033 0.043
0.033 0.033 0.045
0.037 0.029 0.067
0.041 0.027 0.075
0.037 0.031 0.065
0.031 0.035 0.041
0.033 0.035 0.047
0.035 0.035 0.053
0.041 0.027 0.079
0.043 0.029 0.081
0.041 0.027 0.079
0.035 0.035 0.061
0.043 0.031 0.077
0.043 0.029 0.081
0.033 0.033 0.047
0.035 0.035 0.057
0.033 0.037 0.057
0.033 0.037 0.059
0.031 0.003 0.085
0.017 -0.003 0.093
0.021 -0.001 0.091
0.023 0.001 0.093
0.025 0.003 0.091
0.023 0.003 0.093
0.027 0.007 0.093
0.031 0.001 0.077
0.031 0.003 0.085
0.033 0.007 0.087
0.033 0.009 0.087
0.029 0.001 0.077
0.033 0.003 0.077
0.031 0.001 0.083
0.031 0.007 0.089
0.029 0.007 0.091
0.033 0.011 0.085
0.033 0.013 0.085
0.039 0.021 0.079
0.039 0.023 0.081
0.033 0.015 0.087
0.033 0.017 0.087
0.017 -0.001 0.095
0.017 -0.001 0.095
0.023 0.005 0.095
0.021 0.005 0.095
0.011 -0.001 0.091
0.017 0.001 0.095
0.019 -0.001 0.095
0.013 0.005 0.091
0.019 0.003 0.095
0.029 0.011 0.093
0.021 0.015 0.089
0.023 0.005 0.095
0.025 0.005 0.093
0.021 0.003 0.095
0.029 0.005 0.089
0.027 0.007 0.093
0.027 0.009 0.093
0.025 0.007 0.095
0.025 0.015 0.089
0.027 0.017 0.087
0.029 0.015 0.089
0.035 0.015 0.069
0.037 0.013 0.075
0.037 0.013 0.075
0.037 0.021 0.069
0.035 0.017 0.073
0.039 0.025 0.073
0.041 0.023 0.077
0.041 0.025 0.081
0.039 0.021 0.079
0.039 0.023 0.081
0.039 0.023 0.083
0.041 0.025 0.081
0.039 0.027 0.085
0.043 0.031 0.083
0.033 0.005 0.081
0.033 0.011 0.087
0.039 0.025 0.085
0.037 0.027 0.087
0.039 0.027 0.087
0.041 0.025 0.081
0.041 0.027 0.081
0.043 0.029 0.079
0.043 0.035 0.075
0.043 0.033 0.079
0.041 0.033 0.087
