-0.029 -0.037 0.035
-0.027 -0.037 0.035
-0.039 -0.029 0.045
-0.035 -0.035 0.059
-0.027 -0.041 0.037
-0.027 -0.043 0.039
-0.025 -0.047 0.039
-0.017 -0.041 0.043
-0.019 -0.049 0.039
-0.039 -0.029 0.047
-0.035 -0.039 0.051
-0.029 -0.041 0.053
-0.017 -0.041 0.055
-0.033 -0.019 0.055
-0.029 -0.037 0.067
-0.027 -0.035 0.071
-0.045 -0.043 0.085
-0.037 -0.043 0.085
-0.037 -0.043 0.085
-0.047 -0.039 0.091
-0.047 -0.039 0.093
-0.017 -0.035 0.073
-0.049 -0.033 0.085
-0.045 -0.039 0.089
-0.037 -0.043 0.085
-0.009 -0.031 0.079
-0.025 -0.037 0.087
-0.031 -0.035 0.089
-0.005 -0.033 0.089
-0.035 -0.043 0.101
-0.035 -0.037 0.107
-0.043 -0.033 0.105
-0.017 -0.027 0.105
-0.005 -0.025 0.115
-0.007 -0.039 0.035
-0.001 -0.035 0.037
-0.027 -0.039 0.061
0.023 -0.009 0.043
-0.009 -0.031 0.067
-0.011 -0.033 0.069
-0.009 -0.031 0.079
-0.015 -0.037 0.097
-0.023 -0.039 0.103
-0.019 -0.039 0.101
-0.007 -0.035 0.099
-0.001 -0.033 0.101
0.007 -0.019 0.111
-0.033 -0.037 0.061
-0.023 -0.041 0.057
-0.019 -0.041 0.053
-0.035 -0.035 0.061
-0.033 -0.025 0.065
-0.027 -0.041 0.059
-0.027 -0.039 0.063
-0.023 -0.037 0.069
-0.023 -0.035 0.071
-0.021 -0.037 0.067
0.003 -0.021 0.061
0.031 0.001 0.061
-0.029 -0.029 0.073
-0.029 -0.033 0.071
-0.043 -0.043 0.083
-0.019 -0.037 0.069
-0.029 -0.027 0.071
-0.027 -0.035 0.071
-0.029 -0.043 0.097
-0.019 -0.037 0.103
-0.017 -0.037 0.103
-0.021 -0.037 0.099
-0.013 -0.037 0.099
-0.023 -0.033 0.031
-0.007 -0.037 0.033
0.001 -0.033 0.031
0.005 -0.025 0.033
-0.033 -0.039 0.043
-0.029 -0.041 0.045
-0.027 -0.041 0.057
-0.019 -0.051 0.037
-0.015 -0.049 0.037
-0.021 -0.045 0.041
-0.009 -0.039 0.035
-0.031 -0.039 0.063
-0.029 -0.039 0.063
-0.011 -0.039 0.035
-0.003 -0.027 0.047
-0.049 -0.039 0.093
-0.033 -0.039 0.087
-0.041 -0.041 0.089
-0.017 -0.037 0.091
-0.011 -0.035 0.083
-0.027 -0.039 0.085
-0.025 -0.039 0.085
-0.017 -0.035 0.071
-0.003 -0.029 0.079
-0.017 -0.037 0.083
-0.011 -0.035 0.083
-0.007 -0.031 0.081
-0.007 -0.031 0.083
-0.015 -0.037 0.093
-0.015 -0.037 0.095
-0.013 -0.037 0.093
-0.035 -0.043 0.099
-0.023 -0.039 0.103
0.003 -0.031 0.095
0.007 -0.025 0.039
0.003 -0.013 0.037
0.021 -0.003 0.037
0.015 -0.011 0.063
0.019 -0.009 0.071
0.007 -0.029 0.089
0.025 -0.005 0.081
0.001 0.003 0.035
0.003 0.005 0.037
-0.001 0.007 0.039
0.035 -0.007 0.033
0.033 0.015 0.031
0.021 -0.003 0.037
0.033 -0.007 0.041
0.035 -0.007 0.035
0.021 -0.003 0.057
0.025 -0.003 0.055
0.033 0.005 0.057
0.035 0.011 0.033
0.033 0.033 0.043
0.023 0.001 0.065
0.029 0.001 0.075
0.033 0.007 0.087
0.029 0.007 0.091
0.033 0.003 0.071
0.035 0.007 0.071
0.037 0.023 0.067
0.037 0.021 0.069
0.041 0.023 0.079
0.039 0.023 0.081
0.041 0.027 0.083
0.041 0.027 0.079
-0.029 -0.005 0.043
-0.035 -0.019 0.047
-0.035 -0.025 0.061
-0.023 -0.005 0.047
-0.009 -0.007 0.059
-0.021 -0.019 0.061
-0.025 -0.019 0.063
-0.031 -0.021 0.061
-0.037 -0.019 0.043
-0.029 -0.005 0.043
-0.029 -0.005 0.041
-0.001 -0.005 0.039
-0.019 -0.019 0.063
-0.009 -0.009 0.061
-0.003 -0.001 0.069
-0.021 -0.013 0.053
-0.001 -0.001 0.051
-0.043 -0.035 0.091
-0.033 -0.033 0.089
-0.029 -0.025 0.071
-0.023 -0.021 0.077
-0.023 -0.019 0.099
-0.011 -0.013 0.103
-0.039 -0.027 0.089
-0.007 -0.007 0.065
-0.003 -0.003 0.073
-0.005 -0.003 0.067
-0.001 -0.001 0.077
-0.027 -0.019 0.085
-0.019 -0.017 0.097
-0.037 -0.031 0.105
-0.015 -0.033 0.105
-0.039 -0.025 0.101
-0.013 -0.023 0.107
-0.009 -0.015 0.109
-0.001 -0.009 0.097
-0.001 0.001 0.057
0.003 -0.001 0.055
0.005 0.003 0.071
0.015 -0.005 0.063
0.013 0.011 0.083
0.017 0.015 0.085
-0.001 -0.009 0.097
0.009 -0.005 0.091
0.011 -0.001 0.091
0.019 0.011 0.091
0.007 -0.015 0.113
0.005 -0.015 0.111
0.009 -0.015 0.113
-0.009 0.013 0.033
-0.003 0.009 0.039
0.031 0.037 0.043
0.003 0.013 0.041
0.013 0.035 0.037
0.003 0.001 0.059
0.013 0.021 0.069
0.017 0.015 0.055
0.027 0.019 0.055
0.009 0.029 0.059
0.027 0.029 0.065
0.025 0.019 0.063
0.031 0.037 0.043
0.031 0.031 0.067
0.031 0.033 0.065
0.027 0.041 0.045
0.031 0.037 0.059
0.013 0.003 0.071
0.011 0.005 0.073
0.009 0.007 0.077
0.027 0.021 0.079
0.027 0.021 0.067
0.015 0.013 0.083
0.027 0.013 0.091
0.033 0.021 0.079
0.033 0.025 0.083
0.039 0.033 0.079
0.007 -0.023 0.045
-0.015 -0.043 0.035
-0.019 -0.041 0.055
-0.015 -0.039 0.055
-0.015 -0.035 0.063
0.013 -0.015 0.063
0.015 -0.013 0.067
-0.005 -0.023 0.071
0.007 -0.013 0.045
0.007 -0.015 0.043
0.005 -0.009 0.041
0.021 -0.003 0.059
-0.007 -0.021 0.067
-0.009 -0.021 0.063
0.015 -0.005 0.063
-0.029 -0.039 0.085
-0.003 -0.033 0.099
-0.007 -0.035 0.093
-0.003 -0.033 0.103
-0.011 -0.037 0.095
-0.003 -0.029 0.079
0.003 -0.025 0.089
0.001 -0.021 0.089
0.003 -0.031 0.099
0.007 -0.029 0.103
0.007 -0.029 0.093
-0.023 -0.027 0.105
-0.003 -0.025 0.107
-0.001 -0.031 0.107
-0.003 -0.021 0.109
-0.001 -0.011 0.097
0.033 -0.005 0.039
0.015 -0.007 0.061
0.015 -0.013 0.083
0.009 -0.027 0.097
0.035 0.027 0.033
0.033 0.007 0.043
0.033 0.029 0.037
0.035 0.009 0.065
0.029 0.013 0.053
0.031 0.001 0.059
0.031 0.001 0.057
0.033 0.019 0.065
0.035 0.015 0.071
0.029 0.017 0.057
0.037 0.027 0.063
0.035 0.003 0.041
0.035 0.009 0.061
0.033 0.031 0.049
0.035 0.031 0.055
0.033 0.035 0.063
0.027 -0.001 0.077
0.031 0.001 0.083
0.033 0.005 0.077
0.035 0.009 0.077
0.035 0.017 0.079
0.035 0.017 0.075
0.039 0.021 0.073
0.023 0.001 0.093
0.031 0.003 0.083
0.033 0.017 0.087
0.035 0.005 0.073
-0.025 -0.039 0.035
-0.035 -0.037 0.047
-0.037 -0.035 0.043
-0.035 -0.037 0.057
-0.031 -0.035 0.065
-0.037 -0.025 0.049
-0.043 -0.009 0.043
-0.033 -0.007 0.045
-0.013 -0.003 0.051
-0.049 -0.039 0.093
-0.029 -0.037 0.067
-0.033 -0.037 0.095
-0.047 -0.029 0.087
-0.043 -0.025 0.083
-0.047 -0.029 0.087
-0.021 -0.027 0.079
-0.021 -0.025 0.079
-0.005 -0.003 0.065
-0.005 -0.005 0.069
-0.037 -0.025 0.087
-0.017 -0.015 0.085
-0.009 -0.011 0.087
-0.043 -0.031 0.101
-0.029 -0.029 0.103
-0.043 -0.031 0.103
-0.037 -0.023 0.097
-0.037 -0.023 0.099
-0.021 -0.019 0.103
-0.027 -0.027 0.105
-0.029 -0.025 0.103
-0.017 -0.015 0.101
-0.009 -0.011 0.101
-0.037 -0.023 0.041
-0.037 -0.019 0.041
-0.035 -0.019 0.047
-0.035 -0.013 0.045
-0.031 -0.009 0.047
-0.021 -0.019 0.065
-0.011 -0.009 0.057
-0.019 -0.017 0.071
-0.011 -0.015 0.081
-0.019 -0.015 0.085
-0.023 -0.019 0.095
0.005 -0.005 0.087
-0.015 0.001 0.043
-0.005 0.011 0.037
-0.003 0.017 0.037
0.001 0.021 0.035
0.011 0.029 0.033
-0.005 0.017 0.035
0.003 0.027 0.047
0.011 0.005 0.055
0.013 0.011 0.053
0.013 0.009 0.055
0.015 0.013 0.057
0.003 0.027 0.055
0.005 0.031 0.053
0.007 0.025 0.063
0.025 0.029 0.061
0.025 0.031 0.061
0.027 0.031 0.063
0.015 0.007 0.061
0.017 0.033 0.049
0.017 0.035 0.049
0.021 0.035 0.055
0.027 0.033 0.063
-0.001 0.001 0.071
0.003 0.003 0.073
0.011 0.009 0.079
0.017 0.009 0.071
0.009 0.023 0.065
0.027 0.031 0.065
0.013 0.011 0.087
0.015 0.007 0.091
0.015 0.013 0.077
0.011 0.017 0.067
0.037 0.029 0.073
0.019 0.017 0.083
0.033 0.025 0.081
0.033 0.027 0.083
0.033 0.025 0.081
-0.031 -0.005 0.039
-0.037 -0.031 0.039
-0.037 -0.027 0.041
-0.037 -0.025 0.047
-0.041 -0.013 0.043
-0.041 -0.013 0.043
-0.035 -0.023 0.057
-0.035 -0.025 0.061
-0.041 -0.009 0.037
-0.031 -0.003 0.037
-0.021 0.001 0.035
-0.023 -0.017 0.057
-0.019 -0.017 0.057
-0.029 -0.013 0.055
-0.047 -0.031 0.089
-0.049 -0.037 0.093
-0.031 -0.023 0.067
-0.035 -0.025 0.087
-0.029 -0.023 0.093
-0.029 -0.021 0.087
-0.037 -0.025 0.095
-0.025 -0.019 0.071
-0.005 -0.013 0.067
-0.005 -0.015 0.067
-0.003 -0.001 0.069
-0.027 -0.019 0.087
-0.029 -0.021 0.095
-0.025 -0.019 0.091
-0.021 -0.017 0.083
-0.021 -0.017 0.097
-0.001 -0.007 0.095
-0.041 -0.033 0.099
-0.041 -0.027 0.099
-0.025 -0.019 0.099
-0.015 -0.015 0.105
-0.029 -0.005 0.045
0.009 0.003 0.041
-0.013 0.001 0.045
-0.011 0.001 0.047
-0.001 -0.001 0.049
0.007 0.009 0.049
0.005 0.009 0.047
-0.017 -0.009 0.053
-0.003 -0.001 0.049
0.001 0.001 0.061
0.003 0.015 0.045
-0.003 -0.003 0.073
-0.015 -0.013 0.095
-0.013 -0.013 0.093
0.005 -0.009 0.087
0.003 -0.005 0.083
0.001 -0.003 0.081
0.015 0.001 0.093
-0.011 -0.013 0.109
-0.003 0.011 0.039
0.011 0.029 0.035
0.015 0.033 0.033
0.003 0.023 0.039
0.005 0.019 0.049
0.003 0.027 0.053
0.003 0.025 0.041
0.011 0.029 0.035
0.015 0.009 0.061
0.019 0.033 0.051
0.015 0.037 0.039
0.009 0.021 0.063
0.011 0.023 0.067
0.019 0.039 0.039
0.017 0.039 0.043
0.023 0.041 0.045
0.027 0.041 0.051
0.007 0.003 0.069
0.001 0.001 0.073
0.027 0.021 0.069
0.031 0.025 0.071
0.013 0.011 0.085
0.029 0.025 0.069
0.033 0.025 0.075
0.037 0.033 0.081
0.037 0.033 0.083
0.039 0.037 0.087
-0.001 -0.001 0.051
0.035 0.011 0.061
0.019 0.019 0.077
0.043 0.035 0.087
0.043 0.033 0.083
0.021 0.017 0.087
-0.029 -0.005 0.045
0.011 0.025 0.063
0.041 0.027 0.083
0.009 0.027 0.063
0.011 0.025 0.065
-0.025 -0.017 0.059
0.013 0.021 0.069
-0.011 -0.015 0.107
-0.011 -0.015 0.079
-0.001 -0.017 0.087
0.029 0.013 0.091
-0.003 -0.009 0.099
-0.007 -0.019 0.101
-0.003 -0.023 0.101
-0.037 -0.025 0.085
-0.031 -0.021 0.087
-0.017 -0.017 0.081
-0.017 -0.017 0.079
0.025 0.011 0.093
0.023 0.009 0.093
-0.019 -0.015 0.091
-0.027 -0.019 0.087
-0.019 -0.015 0.087
-0.001 -0.009 0.103
-0.017 -0.015 0.091
-0.001 -0.009 0.093
-0.011 -0.013 0.109
-0.009 -0.015 0.109
0.011 -0.017 0.113
-0.017 -0.015 0.105
-0.023 -0.023 0.105
-0.005 -0.019 0.109
0.007 -0.015 0.113
0.041 0.023 0.079
0.043 0.037 0.079
0.033 0.007 0.085
0.031 0.007 0.089
0.005 -0.027 0.091
0.033 0.007 0.087
0.005 -0.015 0.111
0.011 0.029 0.057
0.009 0.029 0.047
0.033 0.029 0.039
0.033 0.035 0.061
0.031 0.037 0.061
0.035 0.035 0.055
0.025 0.041 0.051
0.023 0.039 0.053
0.027 0.033 0.063
0.037 0.027 0.063
0.037 0.023 0.065
0.011 0.029 0.055
0.011 0.029 0.051
0.013 0.025 0.059
0.013 0.027 0.061
0.029 0.033 0.065
0.025 0.039 0.039
0.041 0.037 0.087
0.025 0.021 0.071
0.017 0.015 0.087
0.015 0.011 0.089
0.021 0.019 0.083
0.021 0.015 0.089
0.031 0.013 0.089
0.027 0.017 0.087
0.043 0.033 0.075
0.045 0.035 0.081
0.037 0.029 0.069
0.035 0.009 0.083
0.039 0.029 0.087
