-0.031 -0.003 0.037
0.005 0.001 0.065
0.001 0.001 0.059
-0.021 -0.017 0.069
-0.023 -0.021 0.075
-0.007 -0.019 0.069
0.003 -0.005 0.083
-0.001 -0.007 0.079
0.009 0.003 0.089
-0.003 -0.009 0.087
-0.027 -0.013 0.055
-0.027 -0.007 0.045
-0.037 -0.011 0.045
-0.035 -0.009 0.045
-0.035 -0.007 0.045
-0.037 -0.007 0.045
-0.031 -0.021 0.063
-0.031 -0.021 0.063
0.017 0.017 0.081
-0.005 -0.001 0.055
0.015 0.011 0.089
-0.025 -0.007 0.047
-0.019 -0.005 0.047
0.013 0.019 0.073
-0.007 -0.001 0.043
-0.003 -0.003 0.041
-0.013 0.001 0.045
-0.017 -0.019 0.057
-0.021 -0.019 0.059
0.003 0.001 0.081
-0.011 -0.019 0.067
-0.007 -0.019 0.071
-0.029 -0.013 0.055
-0.023 -0.011 0.053
-0.007 -0.003 0.057
0.003 0.001 0.081
-0.005 -0.001 0.059
-0.033 -0.025 0.099
-0.031 -0.023 0.099
-0.037 -0.023 0.099
-0.037 -0.023 0.099
-0.023 -0.017 0.097
-0.039 -0.025 0.101
-0.015 -0.015 0.091
-0.011 -0.013 0.095
-0.017 -0.015 0.101
-0.019 -0.019 0.103
-0.013 -0.015 0.107
-0.009 -0.019 0.103
-0.021 -0.023 0.105
-0.013 -0.023 0.107
-0.011 -0.023 0.109
-0.043 -0.025 0.083
-0.041 -0.027 0.087
-0.025 -0.019 0.067
-0.019 -0.017 0.069
-0.019 -0.015 0.087
-0.011 -0.011 0.093
-0.009 -0.011 0.099
-0.001 -0.017 0.081
-0.007 -0.019 0.069
-0.001 -0.017 0.083
-0.001 -0.017 0.091
0.001 -0.009 0.097
0.001 -0.017 0.091
0.001 -0.009 0.081
0.001 -0.001 0.081
0.001 0.001 0.077
-0.021 -0.017 0.091
-0.023 -0.019 0.101
-0.013 -0.013 0.107
-0.011 -0.013 0.109
0.001 -0.019 0.095
0.001 -0.017 0.085
-0.009 -0.011 0.095
-0.027 -0.027 0.105
-0.021 -0.029 0.105
-0.023 -0.027 0.105
-0.007 -0.023 0.111
-0.005 -0.025 0.109
-0.037 -0.027 0.101
-0.031 -0.021 0.097
-0.021 -0.019 0.101
-0.021 -0.029 0.105
-0.007 -0.023 0.111
-0.005 -0.019 0.105
-0.001 -0.017 0.109
-0.013 -0.013 0.099
0.021 0.017 0.087
0.017 0.017 0.079
0.025 0.021 0.067
0.025 0.021 0.071
0.017 0.017 0.077
0.023 0.017 0.087
0.019 0.019 0.069
0.027 0.021 0.071
0.013 0.009 0.089
0.021 0.019 0.083
0.007 -0.003 0.051
0.023 0.021 0.079
0.029 0.019 0.083
0.037 -0.005 0.037
0.035 -0.001 0.039
0.011 0.005 0.089
0.023 0.009 0.093
0.019 0.003 0.095
0.025 0.009 0.095
0.001 -0.017 0.085
0.003 -0.003 0.083
0.005 0.001 0.085
0.027 0.005 0.091
0.029 0.003 0.089
0.025 0.007 0.095
0.025 0.001 0.091
0.011 -0.015 0.113
-0.015 0.005 0.033
0.033 0.031 0.069
0.033 0.037 0.057
0.031 0.039 0.057
0.033 0.037 0.055
0.025 0.041 0.047
0.011 0.029 0.053
0.011 0.029 0.057
0.017 0.017 0.065
0.011 0.017 0.049
0.033 0.031 0.069
0.029 0.033 0.065
0.037 0.031 0.059
0.007 0.031 0.053
0.023 0.037 0.057
0.013 0.027 0.045
0.011 0.027 0.043
0.005 0.031 0.053
0.015 0.031 0.047
0.029 0.035 0.063
0.021 0.041 0.047
0.023 0.031 0.059
0.031 0.037 0.061
0.033 0.037 0.059
0.011 0.007 0.053
0.021 0.019 0.077
0.039 0.029 0.087
0.035 0.015 0.079
0.009 0.029 0.061
0.011 0.025 0.065
0.007 0.029 0.059
0.013 0.027 0.061
0.031 0.029 0.069
0.033 0.031 0.069
0.043 0.035 0.081
0.043 0.035 0.085
0.037 0.031 0.065
0.037 0.031 0.063
0.017 0.039 0.041
0.023 0.041 0.041
0.029 0.041 0.047
0.027 0.041 0.045
0.033 0.037 0.053
0.023 0.037 0.057
0.025 0.037 0.059
0.031 0.039 0.057
0.007 0.003 0.069
0.011 0.009 0.081
0.005 0.003 0.081
0.021 0.017 0.087
0.033 0.017 0.085
0.019 0.017 0.083
0.013 0.021 0.071
0.013 0.019 0.073
0.031 0.027 0.071
0.035 0.031 0.083
0.027 0.031 0.065
0.019 0.019 0.079
0.021 0.019 0.081
0.027 0.017 0.085
0.039 0.023 0.083
0.041 0.033 0.087
0.035 0.009 0.083
0.033 0.009 0.087
0.033 0.019 0.085
0.035 0.031 0.087
0.039 0.031 0.087
0.003 -0.031 0.033
-0.035 -0.039 0.049
-0.035 -0.039 0.049
-0.021 -0.051 0.037
-0.021 -0.051 0.037
-0.015 -0.049 0.035
-0.021 -0.049 0.039
-0.017 -0.049 0.039
-0.015 -0.047 0.039
-0.015 -0.049 0.035
-0.021 -0.049 0.039
-0.015 -0.045 0.035
-0.029 -0.041 0.045
-0.015 -0.045 0.037
-0.015 -0.033 0.033
-0.001 -0.035 0.033
-0.003 -0.035 0.039
-0.005 -0.035 0.043
-0.017 -0.037 0.063
-0.015 -0.035 0.061
-0.013 -0.041 0.037
-0.011 -0.041 0.039
-0.005 -0.037 0.035
-0.025 -0.041 0.059
-0.005 -0.029 0.047
-0.005 -0.035 0.039
-0.001 -0.035 0.037
-0.001 -0.027 0.049
0.001 -0.025 0.047
0.007 -0.017 0.043
0.007 -0.021 0.047
-0.013 -0.031 0.059
-0.009 -0.031 0.051
-0.011 -0.031 0.053
-0.005 -0.025 0.053
-0.011 -0.023 0.055
-0.011 -0.023 0.057
-0.005 -0.027 0.051
-0.005 -0.023 0.055
0.003 -0.025 0.051
0.011 -0.017 0.055
0.001 -0.019 0.063
0.011 -0.017 0.059
-0.029 -0.039 0.081
-0.043 -0.041 0.089
-0.045 -0.039 0.093
-0.033 -0.039 0.089
-0.021 -0.037 0.069
-0.015 -0.035 0.071
-0.017 -0.037 0.083
-0.017 -0.037 0.091
-0.017 -0.037 0.091
-0.017 -0.039 0.093
-0.019 -0.039 0.095
-0.015 -0.037 0.095
-0.033 -0.039 0.089
-0.021 -0.035 0.073
-0.005 -0.027 0.071
-0.005 -0.025 0.071
-0.005 -0.019 0.069
-0.005 -0.027 0.073
-0.005 -0.027 0.073
-0.001 -0.019 0.065
-0.003 -0.027 0.075
-0.011 -0.035 0.083
-0.013 -0.035 0.083
-0.015 -0.035 0.091
-0.011 -0.035 0.089
-0.011 -0.035 0.083
0.007 -0.029 0.087
-0.035 -0.043 0.101
-0.029 -0.037 0.101
-0.019 -0.037 0.099
-0.029 -0.043 0.097
-0.021 -0.037 0.097
-0.019 -0.037 0.097
-0.017 -0.037 0.095
-0.005 -0.033 0.101
0.003 -0.031 0.101
0.005 -0.031 0.097
-0.003 -0.035 0.105
0.009 -0.013 0.047
0.021 -0.003 0.039
0.023 -0.009 0.041
0.001 -0.021 0.061
0.009 -0.019 0.061
0.013 -0.013 0.057
0.015 -0.011 0.061
0.019 -0.003 0.057
0.033 -0.007 0.039
0.003 -0.019 0.067
0.005 -0.015 0.077
0.015 -0.013 0.079
0.021 -0.005 0.073
0.021 -0.003 0.073
0.023 -0.005 0.075
0.013 -0.009 0.089
0.013 -0.007 0.091
0.025 -0.005 0.087
0.001 -0.031 0.099
0.005 -0.029 0.101
0.005 -0.019 0.111
0.009 -0.017 0.109
-0.007 0.011 0.033
0.017 0.003 0.031
0.029 0.015 0.031
0.031 0.015 0.031
0.035 0.015 0.031
0.017 -0.001 0.033
0.013 -0.001 0.035
0.015 -0.001 0.035
0.017 -0.001 0.035
0.017 -0.005 0.045
0.019 -0.005 0.047
0.031 0.011 0.033
0.023 -0.001 0.035
0.031 -0.007 0.037
0.033 -0.005 0.037
0.035 0.021 0.035
0.033 0.025 0.037
0.033 0.011 0.041
0.017 -0.005 0.049
0.015 -0.001 0.057
0.015 0.001 0.059
0.021 0.001 0.063
0.025 -0.001 0.063
0.031 0.003 0.055
0.031 0.003 0.053
0.023 -0.003 0.055
0.023 0.027 0.051
0.023 0.025 0.049
0.025 0.027 0.051
0.031 0.029 0.051
0.035 0.017 0.033
0.035 0.023 0.033
0.035 0.009 0.039
0.031 0.031 0.041
0.031 0.029 0.045
0.033 0.031 0.045
0.027 0.027 0.055
0.027 0.027 0.053
0.033 0.035 0.051
0.017 -0.011 0.067
0.027 -0.003 0.079
0.031 0.003 0.065
0.029 0.001 0.073
0.025 0.003 0.069
0.035 0.005 0.073
0.031 0.001 0.077
0.023 -0.007 0.079
0.023 -0.007 0.085
0.031 0.007 0.089
0.037 0.011 0.073
0.035 0.015 0.065
0.039 0.023 0.069
0.035 0.017 0.077
0.035 0.015 0.079
0.037 0.021 0.077
0.039 0.023 0.075
0.039 0.023 0.073
0.041 0.025 0.075
0.035 0.017 0.081
0.043 0.029 0.079
-0.039 -0.009 0.033
-0.039 -0.007 0.033
-0.041 -0.009 0.037
-0.039 -0.007 0.039
-0.023 -0.003 0.033
-0.021 0.001 0.033
-0.037 -0.031 0.045
-0.037 -0.035 0.049
-0.029 -0.045 0.035
-0.037 -0.033 0.041
-0.031 -0.015 0.049
-0.031 -0.013 0.051
-0.037 -0.025 0.055
-0.035 -0.023 0.057
-0.041 -0.015 0.037
-0.037 -0.021 0.045
-0.033 -0.017 0.047
-0.041 -0.013 0.033
-0.043 -0.009 0.043
-0.037 -0.029 0.057
-0.029 -0.005 0.039
-0.031 -0.013 0.053
-0.035 -0.005 0.035
-0.021 0.001 0.037
-0.015 0.003 0.041
-0.025 -0.019 0.061
-0.021 -0.011 0.053
-0.015 -0.015 0.055
-0.023 -0.019 0.065
-0.025 -0.011 0.053
-0.027 -0.013 0.055
-0.017 -0.013 0.055
-0.009 -0.005 0.057
-0.005 -0.001 0.059
-0.003 -0.001 0.063
-0.049 -0.031 0.087
-0.047 -0.027 0.085
-0.049 -0.031 0.085
-0.047 -0.035 0.089
-0.047 -0.033 0.089
-0.047 -0.035 0.093
-0.041 -0.029 0.089
-0.033 -0.033 0.065
-0.033 -0.025 0.089
-0.035 -0.025 0.087
-0.027 -0.027 0.091
-0.025 -0.021 0.093
-0.039 -0.027 0.087
-0.037 -0.025 0.087
-0.031 -0.025 0.067
-0.029 -0.023 0.069
-0.021 -0.017 0.067
-0.027 -0.023 0.073
-0.027 -0.019 0.067
-0.021 -0.017 0.067
-0.015 -0.017 0.071
-0.015 -0.017 0.069
-0.021 -0.019 0.077
-0.019 -0.019 0.079
-0.005 -0.017 0.077
-0.005 -0.013 0.069
-0.007 -0.007 0.065
-0.027 -0.019 0.087
-0.031 -0.021 0.085
-0.011 -0.011 0.093
-0.017 -0.015 0.087
-0.009 -0.011 0.093
-0.003 -0.009 0.093
-0.043 -0.033 0.101
-0.041 -0.027 0.099
-0.041 -0.027 0.099
-0.027 -0.023 0.101
-0.039 -0.025 0.099
-0.039 -0.025 0.099
-0.027 -0.025 0.105
-0.025 -0.023 0.105
-0.015 -0.015 0.103
-0.013 -0.023 0.107
-0.013 -0.013 0.107
-0.029 -0.005 0.043
-0.015 0.003 0.041
0.003 0.015 0.043
0.003 0.013 0.045
-0.007 -0.003 0.061
0.003 0.001 0.061
0.013 0.003 0.057
0.015 0.009 0.061
0.003 0.011 0.041
-0.003 -0.005 0.073
0.005 0.001 0.065
-0.001 -0.003 0.079
-0.017 -0.015 0.091
-0.013 -0.013 0.091
-0.013 -0.013 0.097
0.005 -0.005 0.085
0.005 -0.003 0.087
0.007 -0.009 0.089
0.011 -0.005 0.093
-0.001 -0.017 0.107
0.005 -0.015 0.109
-0.021 0.001 0.035
-0.011 0.005 0.039
-0.005 0.017 0.035
-0.009 0.003 0.041
0.001 0.019 0.037
0.003 0.023 0.037
0.005 0.009 0.041
-0.001 0.019 0.035
0.001 0.019 0.037
0.003 0.025 0.041
0.003 0.027 0.051
0.001 0.021 0.035
0.003 0.023 0.035
0.003 0.025 0.039
0.005 0.023 0.037
0.003 0.025 0.039
0.011 0.027 0.035
0.003 0.025 0.047
0.005 0.027 0.043
0.011 0.029 0.043
0.003 0.029 0.049
0.011 0.029 0.035
0.003 0.025 0.051
0.005 0.021 0.057
0.003 0.027 0.053
0.015 0.003 0.061
0.015 0.005 0.063
0.011 0.025 0.065
0.009 0.031 0.053
0.005 0.023 0.061
0.023 0.031 0.055
0.005 0.029 0.061
0.027 0.019 0.061
0.013 0.035 0.043
0.009 0.025 0.065
0.025 0.019 0.063
0.027 0.031 0.063
0.017 0.039 0.039
0.017 0.039 0.041
0.019 0.039 0.047
0.021 0.041 0.047
0.023 0.041 0.041
0.021 0.041 0.043
0.021 0.039 0.053
0.023 0.041 0.049
0.027 0.041 0.053
0.017 0.007 0.069
0.011 0.019 0.071
0.011 0.019 0.071
0.023 0.021 0.069
0.029 0.029 0.069
0.013 0.011 0.081
0.015 0.009 0.091
0.019 0.017 0.083
0.029 0.011 0.093
0.021 0.017 0.087
0.029 0.017 0.085
0.019 0.017 0.081
0.031 0.027 0.071
0.033 0.033 0.067
0.035 0.029 0.077
0.035 0.029 0.079
0.041 0.031 0.073
0.035 0.029 0.085
0.035 0.031 0.087
0.037 0.031 0.089
0.033 0.033 0.065
