0.005 0.027 0.061
0.009 0.027 0.063
0.009 0.027 0.063
0.007 0.029 0.061
0.029 0.029 0.069
0.033 0.029 0.071
0.035 0.031 0.069
0.033 0.013 0.059
0.037 0.025 0.065
0.013 0.027 0.055
0.037 0.031 0.065
0.013 0.017 0.069
0.013 0.017 0.071
-0.007 -0.003 0.061
-0.001 0.001 0.065
-0.019 -0.017 0.073
0.041 0.029 0.085
0.037 0.013 0.075
0.043 0.033 0.085
0.043 0.035 0.087
0.041 0.027 0.081
0.043 0.029 0.081
0.041 0.027 0.083
0.021 0.019 0.071
0.041 0.037 0.087
0.043 0.033 0.083
0.041 0.035 0.083
0.037 0.029 0.089
0.039 0.035 0.087
0.041 0.035 0.087
0.041 0.023 0.077
0.045 0.035 0.081
0.041 0.025 0.079
0.037 0.011 0.069
0.035 0.015 0.079
0.023 0.017 0.087
0.025 0.017 0.085
0.029 0.017 0.087
0.017 0.011 0.089
0.033 0.015 0.085
0.037 0.023 0.085
0.033 0.019 0.085
0.011 0.023 0.067
0.011 0.025 0.065
0.011 0.023 0.067
-0.019 -0.007 0.049
-0.023 -0.007 0.049
-0.023 -0.009 0.051
-0.021 -0.009 0.051
-0.027 -0.009 0.049
-0.029 -0.005 0.043
-0.027 -0.003 0.041
-0.027 -0.005 0.045
-0.029 -0.009 0.047
-0.027 -0.019 0.061
-0.025 -0.013 0.055
-0.027 -0.017 0.059
-0.019 -0.017 0.071
-0.029 -0.019 0.059
0.023 0.021 0.069
0.029 0.029 0.069
0.011 0.025 0.063
0.013 0.023 0.061
-0.001 -0.001 0.047
0.029 0.031 0.067
0.043 0.033 0.077
0.037 0.027 0.065
0.035 0.015 0.069
0.041 0.023 0.077
0.041 0.025 0.081
0.007 0.025 0.063
0.013 0.025 0.063
0.007 0.029 0.061
0.011 0.031 0.057
0.011 0.027 0.061
0.009 0.029 0.061
-0.027 -0.009 0.051
0.009 0.025 0.065
0.011 0.025 0.065
0.027 0.033 0.063
0.029 0.033 0.065
0.027 0.037 0.061
0.013 0.023 0.067
0.029 0.031 0.067
-0.021 -0.017 0.057
-0.025 -0.017 0.059
-0.027 -0.019 0.065
-0.027 -0.019 0.063
0.021 0.019 0.083
-0.019 -0.019 0.063
0.005 0.005 0.077
0.039 0.031 0.087
0.039 0.023 0.083
0.041 0.027 0.083
0.039 0.023 0.083
0.041 0.029 0.085
0.027 0.017 0.087
0.027 0.017 0.087
0.027 0.015 0.089
0.039 0.029 0.087
0.033 0.027 0.087
-0.027 -0.009 0.051
-0.025 -0.011 0.053
-0.017 -0.009 0.053
-0.001 0.001 0.067
-0.001 0.001 0.065
0.023 0.021 0.079
0.013 0.019 0.067
0.013 0.021 0.067
0.023 0.021 0.079
0.023 0.021 0.079
-0.001 0.001 0.065
-0.035 -0.023 0.099
-0.017 -0.015 0.099
-0.005 -0.009 0.099
-0.011 -0.013 0.103
-0.031 -0.021 0.095
-0.015 -0.013 0.095
-0.011 -0.013 0.109
-0.017 -0.015 0.101
-0.033 -0.021 0.097
-0.021 -0.017 0.099
-0.017 -0.015 0.099
0.017 0.009 0.091
-0.011 -0.015 0.079
0.017 0.009 0.091
0.027 0.011 0.093
0.019 0.007 0.093
0.029 0.013 0.091
-0.003 -0.009 0.101
0.001 -0.009 0.095
0.001 -0.009 0.097
-0.001 -0.017 0.091
-0.001 -0.011 0.097
0.001 -0.009 0.101
-0.003 -0.017 0.095
-0.001 -0.019 0.097
-0.009 -0.015 0.107
-0.009 -0.015 0.105
-0.011 -0.015 0.105
0.001 -0.009 0.101
-0.003 -0.019 0.105
-0.001 -0.011 0.103
0.003 -0.019 0.091
0.003 -0.019 0.091
0.001 -0.019 0.093
-0.001 -0.019 0.099
-0.001 -0.021 0.099
-0.001 -0.025 0.099
0.001 -0.025 0.097
-0.021 -0.017 0.073
-0.037 -0.025 0.087
-0.041 -0.025 0.081
-0.041 -0.027 0.087
-0.041 -0.025 0.085
-0.041 -0.027 0.087
-0.031 -0.021 0.087
-0.029 -0.021 0.097
-0.019 -0.017 0.075
-0.015 -0.015 0.077
-0.017 -0.017 0.069
-0.003 -0.009 0.087
-0.013 -0.015 0.081
-0.001 -0.009 0.087
-0.021 -0.019 0.075
-0.015 -0.015 0.077
0.027 0.015 0.089
0.027 0.011 0.093
0.025 0.015 0.089
0.025 0.013 0.089
0.025 0.009 0.095
0.025 0.007 0.095
0.025 0.007 0.095
0.023 0.011 0.091
0.023 0.017 0.085
0.021 0.017 0.085
0.025 0.017 0.087
0.019 0.017 0.085
0.021 0.019 0.083
0.013 0.009 0.089
0.017 0.015 0.087
-0.011 -0.011 0.093
-0.003 -0.009 0.097
-0.025 -0.017 0.085
-0.009 -0.011 0.089
-0.015 -0.015 0.103
-0.007 -0.013 0.103
-0.013 -0.013 0.101
-0.005 -0.013 0.103
-0.003 -0.011 0.103
-0.003 -0.009 0.103
-0.011 -0.013 0.097
-0.017 -0.015 0.091
-0.015 -0.013 0.095
-0.011 -0.013 0.099
0.001 -0.023 0.087
0.001 -0.023 0.085
0.023 0.007 0.095
0.003 -0.027 0.097
-0.009 -0.011 0.087
-0.009 -0.011 0.087
-0.001 -0.011 0.087
-0.011 -0.013 0.097
-0.015 -0.013 0.095
-0.021 -0.027 0.105
-0.027 -0.033 0.105
-0.037 -0.031 0.105
-0.021 -0.023 0.105
-0.023 -0.027 0.105
-0.035 -0.035 0.107
-0.037 -0.033 0.107
-0.033 -0.033 0.105
-0.019 -0.025 0.105
-0.011 -0.023 0.109
-0.021 -0.023 0.105
-0.013 -0.023 0.107
-0.005 -0.019 0.109
-0.011 -0.023 0.111
0.003 -0.017 0.107
0.011 -0.013 0.111
-0.035 -0.023 0.097
-0.011 -0.015 0.105
-0.027 -0.019 0.097
-0.013 -0.013 0.099
-0.013 -0.013 0.107
-0.017 -0.015 0.105
-0.025 -0.023 0.105
-0.009 -0.015 0.109
-0.011 -0.013 0.109
0.001 -0.029 0.101
0.005 -0.015 0.109
-0.009 -0.015 0.105
-0.001 -0.017 0.109
-0.007 -0.023 0.111
-0.001 -0.017 0.107
0.007 -0.015 0.111
0.003 -0.017 0.109
-0.003 -0.021 0.109
-0.007 -0.011 0.103
-0.001 -0.009 0.101
-0.005 -0.023 0.115
-0.005 -0.023 0.115
0.035 0.011 0.061
0.033 0.011 0.057
0.035 0.009 0.061
0.033 0.013 0.059
0.035 0.007 0.063
0.031 0.017 0.059
0.039 0.023 0.069
0.035 0.015 0.073
0.035 0.015 0.065
0.035 0.015 0.069
0.037 0.031 0.065
0.027 0.013 0.051
0.041 0.029 0.073
0.037 0.029 0.069
0.041 0.025 0.075
0.043 0.035 0.075
0.033 0.001 0.043
0.033 0.005 0.043
0.033 -0.007 0.041
0.031 0.001 0.047
0.031 0.005 0.053
0.037 0.013 0.075
0.041 0.025 0.075
0.043 0.037 0.079
0.023 0.021 0.069
0.043 0.033 0.077
0.043 0.035 0.077
0.045 0.035 0.081
0.043 0.037 0.079
0.043 0.033 0.075
0.035 0.015 0.077
0.039 0.021 0.079
0.025 0.021 0.073
0.025 0.021 0.075
0.033 0.009 0.059
0.035 0.017 0.067
0.035 0.015 0.065
0.035 0.013 0.065
0.039 0.021 0.073
0.037 0.013 0.073
0.035 -0.003 0.037
0.031 0.017 0.087
0.031 0.017 0.089
0.033 0.011 0.085
0.035 0.013 0.083
0.033 0.011 0.083
0.033 0.007 0.085
0.041 0.035 0.087
0.039 0.029 0.087
0.023 0.011 0.091
0.029 0.011 0.093
0.033 0.009 0.087
0.015 0.013 0.087
0.035 0.009 0.083
0.035 0.009 0.083
0.035 0.013 0.083
0.031 0.005 0.087
0.033 0.013 0.085
0.007 -0.027 0.089
0.025 0.009 0.095
0.003 -0.025 0.091
0.007 -0.025 0.097
0.009 -0.027 0.095
0.003 -0.025 0.093
0.019 0.005 0.093
0.025 0.007 0.095
0.019 0.009 0.091
0.021 0.003 0.095
0.013 0.001 0.091
0.033 0.007 0.087
0.029 0.003 0.089
0.029 0.003 0.089
0.027 0.001 0.089
0.025 0.001 0.091
0.021 0.001 0.095
0.007 -0.027 0.097
0.005 -0.027 0.103
0.005 -0.027 0.103
0.001 -0.019 0.097
0.005 -0.015 0.111
0.011 -0.013 0.113
0.001 -0.009 0.097
0.011 0.025 0.051
0.011 0.031 0.055
0.011 0.031 0.055
0.011 0.029 0.053
0.013 0.027 0.057
0.013 0.027 0.057
0.025 0.037 0.059
0.029 0.017 0.043
0.029 0.019 0.041
0.029 0.019 0.041
0.031 0.019 0.039
0.031 0.025 0.043
0.031 0.023 0.041
0.035 0.021 0.035
0.035 0.021 0.035
0.025 0.041 0.043
0.035 0.025 0.035
0.035 0.025 0.035
0.031 0.033 0.039
0.035 0.019 0.031
0.035 0.027 0.033
0.035 0.025 0.031
0.025 0.037 0.035
0.033 0.037 0.059
0.033 0.035 0.061
0.027 0.017 0.043
0.037 0.031 0.059
0.035 0.033 0.061
0.037 0.031 0.061
0.031 0.039 0.055
0.031 0.039 0.055
0.027 0.039 0.057
0.027 0.037 0.059
0.033 0.037 0.051
0.035 0.033 0.063
0.035 0.033 0.065
0.013 0.027 0.055
0.031 0.013 0.043
0.035 0.007 0.039
0.033 0.009 0.045
0.033 0.021 0.039
0.035 0.019 0.037
0.035 0.019 0.037
0.027 0.015 0.045
0.027 0.039 0.057
0.027 0.041 0.053
0.025 0.041 0.051
0.021 0.039 0.053
0.027 0.041 0.049
0.027 0.041 0.051
0.027 0.041 0.053
0.029 0.039 0.055
0.031 0.039 0.055
0.017 0.039 0.045
0.027 0.041 0.047
0.027 0.041 0.045
0.023 0.041 0.045
0.025 0.041 0.051
0.023 0.041 0.049
0.009 0.029 0.047
0.013 0.027 0.055
0.009 0.029 0.047
0.033 0.037 0.049
0.031 0.027 0.043
0.027 0.039 0.041
0.035 0.035 0.057
0.033 0.033 0.049
0.033 0.033 0.047
0.035 0.035 0.053
0.033 0.037 0.055
0.029 0.035 0.063
0.035 0.033 0.065
0.033 0.031 0.069
0.033 0.029 0.071
0.037 0.033 0.081
0.031 0.007 0.049
0.029 0.013 0.053
0.037 0.027 0.065
0.029 0.013 0.053
0.035 0.011 0.061
0.037 0.011 0.071
0.013 0.025 0.057
0.011 0.031 0.057
0.007 0.031 0.057
0.007 0.031 0.057
0.013 0.023 0.061
0.013 0.023 0.065
0.013 0.021 0.065
0.007 0.029 0.061
0.009 0.027 0.063
0.031 0.039 0.057
0.031 0.037 0.061
0.035 0.031 0.067
0.029 0.029 0.069
0.037 0.029 0.067
0.037 0.029 0.065
0.037 0.029 0.067
0.037 0.029 0.069
0.029 0.037 0.061
0.033 0.033 0.067
0.031 0.033 0.065
0.029 0.035 0.063
0.029 0.033 0.065
0.035 0.007 0.039
0.035 0.011 0.037
0.033 0.011 0.043
0.033 0.011 0.043
0.035 0.021 0.033
0.033 0.023 0.039
0.035 0.011 0.061
0.035 0.009 0.063
0.035 0.011 0.065
0.035 0.029 0.055
0.035 0.033 0.057
0.037 0.031 0.061
0.023 0.041 0.045
0.021 0.039 0.053
0.023 0.039 0.039
0.021 0.041 0.043
0.027 0.033 0.035
0.021 0.041 0.049
0.025 0.041 0.051
0.027 0.041 0.045
0.025 0.039 0.057
0.023 0.041 0.051
0.025 0.041 0.051
0.035 0.035 0.055
0.017 0.017 0.079
0.035 0.031 0.087
0.021 0.019 0.081
0.039 0.035 0.083
0.007 0.005 0.079
0.037 0.031 0.089
0.021 0.019 0.083
0.023 0.019 0.083
0.039 0.023 0.083
0.041 0.033 0.087
0.041 0.035 0.083
0.039 0.029 0.087
0.035 0.013 0.079
0.033 0.027 0.087
0.013 0.023 0.067
0.013 0.021 0.069
0.011 0.023 0.067
0.013 0.017 0.073
0.023 0.021 0.071
0.023 0.021 0.067
0.025 0.021 0.071
0.031 0.027 0.071
0.043 0.035 0.077
0.043 0.037 0.079
0.039 0.035 0.087
0.041 0.033 0.087
0.013 0.011 0.087
0.015 0.009 0.091
0.021 0.017 0.087
0.017 0.009 0.091
0.031 0.009 0.089
0.019 0.007 0.093
0.023 0.003 0.095
0.027 0.003 0.091
0.029 0.007 0.091
0.027 0.007 0.093
0.019 0.011 0.091
0.029 0.011 0.093
0.019 0.017 0.083
0.025 0.019 0.083
0.037 0.011 0.069
0.035 0.011 0.067
0.037 0.013 0.075
0.041 0.025 0.075
0.043 0.029 0.077
0.043 0.031 0.075
0.037 0.027 0.067
0.041 0.027 0.083
0.041 0.027 0.081
0.043 0.031 0.081
0.035 0.009 0.083
0.033 0.009 0.087
0.035 0.013 0.081
0.035 0.017 0.081
0.033 0.011 0.087
0.041 0.029 0.085
0.033 0.017 0.087
0.037 0.031 0.089
0.037 0.031 0.089
0.043 0.037 0.081
0.043 0.035 0.081
