0.009 0.025 0.043
-0.001 -0.011 0.031
0.005 0.005 0.043
0.005 0.005 0.043
0.005 0.015 0.047
0.001 0.031 0.043
0.003 0.029 0.043
0.035 -0.015 0.065
0.039 -0.009 0.047
0.041 -0.021 0.053
0.019 0.007 0.047
0.023 0.007 0.045
0.019 0.005 0.041
0.011 0.011 0.051
0.013 0.011 0.053
0.007 0.005 0.043
0.027 0.007 0.037
0.023 -0.001 0.057
0.023 -0.011 0.057
0.025 -0.011 0.061
0.011 0.015 0.063
0.011 0.015 0.061
0.025 -0.001 0.053
0.049 -0.015 0.037
0.049 -0.015 0.037
0.041 -0.011 0.045
0.041 -0.011 0.045
0.035 -0.003 0.033
0.049 -0.015 0.035
0.039 -0.017 0.057
0.041 -0.011 0.051
0.035 -0.011 0.085
0.035 -0.013 0.087
0.039 -0.025 0.085
0.041 -0.035 0.089
0.043 -0.037 0.081
0.031 -0.009 0.069
0.027 -0.003 0.077
0.025 -0.001 0.083
0.015 0.015 0.069
0.019 0.005 0.069
0.021 -0.005 0.069
0.023 -0.005 0.071
0.029 -0.007 0.069
0.023 -0.003 0.075
0.021 0.001 0.087
0.033 -0.001 0.091
0.031 0.003 0.093
0.011 -0.001 0.095
0.039 -0.025 0.065
0.035 -0.015 0.073
0.033 -0.001 0.091
0.033 -0.001 0.101
0.041 -0.029 0.099
0.041 -0.033 0.101
0.043 -0.029 0.097
0.027 -0.007 0.105
0.019 0.001 0.105
0.015 -0.005 0.101
0.013 -0.005 0.103
0.019 0.001 0.105
0.023 -0.003 0.103
0.035 -0.003 0.105
0.021 -0.001 0.097
0.023 -0.003 0.101
0.037 -0.013 0.099
0.037 -0.017 0.097
0.035 -0.005 0.103
-0.021 0.035 0.035
-0.001 0.035 0.037
-0.007 0.027 0.033
-0.007 0.025 0.031
-0.031 0.031 0.037
-0.035 0.033 0.047
-0.035 0.035 0.053
-0.011 0.033 0.041
-0.005 0.033 0.049
-0.005 0.031 0.053
-0.015 0.025 0.049
0.003 0.027 0.047
-0.005 0.035 0.039
-0.003 0.031 0.051
0.005 0.037 0.037
-0.003 0.035 0.039
0.001 0.035 0.039
0.003 0.033 0.041
-0.011 0.033 0.057
-0.027 0.011 0.049
-0.007 0.033 0.057
-0.011 0.035 0.067
0.001 0.027 0.061
-0.013 0.033 0.059
-0.013 0.029 0.053
-0.001 0.031 0.055
0.001 0.023 0.061
-0.013 0.035 0.037
-0.003 0.035 0.039
-0.015 0.033 0.063
-0.005 0.033 0.059
0.003 0.019 0.071
0.001 0.027 0.077
-0.017 0.035 0.073
-0.015 0.035 0.075
-0.011 0.035 0.081
-0.011 0.033 0.087
-0.007 0.029 0.091
-0.001 0.023 0.093
-0.003 0.023 0.093
-0.003 0.027 0.091
-0.033 0.043 0.085
-0.023 0.037 0.067
-0.003 0.033 0.065
-0.011 0.037 0.075
-0.027 0.041 0.083
-0.023 0.039 0.083
-0.031 0.043 0.083
0.033 0.001 0.031
0.007 0.033 0.041
0.005 0.019 0.045
0.015 0.011 0.053
0.007 0.015 0.063
0.011 0.015 0.061
0.011 0.015 0.063
0.001 0.029 0.053
0.003 0.035 0.037
0.013 0.009 0.081
0.015 0.011 0.075
0.015 0.015 0.073
0.019 0.005 0.069
0.007 0.019 0.071
0.013 0.009 0.081
0.011 0.009 0.087
0.013 0.015 0.083
0.007 0.015 0.089
0.011 0.007 0.089
0.031 0.001 0.087
0.011 0.017 0.083
0.011 0.019 0.083
0.003 0.027 0.085
0.005 0.023 0.089
0.021 0.003 0.107
0.017 0.007 0.113
-0.011 -0.009 0.035
-0.005 -0.011 0.039
-0.003 -0.009 0.041
-0.001 -0.001 0.065
-0.001 -0.021 0.033
-0.001 -0.019 0.037
-0.001 -0.019 0.037
0.007 -0.039 0.037
0.009 -0.043 0.043
0.007 -0.041 0.041
0.005 -0.033 0.043
0.011 -0.037 0.045
0.019 -0.035 0.045
0.031 -0.037 0.043
0.031 -0.037 0.057
0.033 -0.035 0.063
0.005 -0.031 0.045
0.005 -0.031 0.045
0.005 -0.019 0.045
0.011 -0.029 0.053
0.017 -0.031 0.057
0.017 -0.023 0.061
0.001 -0.011 0.049
0.003 -0.013 0.051
0.007 -0.013 0.055
0.011 -0.015 0.055
0.001 -0.003 0.051
0.001 -0.005 0.055
0.005 -0.007 0.063
0.009 -0.007 0.067
0.003 -0.005 0.067
0.013 -0.035 0.045
0.005 -0.023 0.045
0.009 -0.027 0.049
0.011 -0.027 0.053
0.011 -0.029 0.051
0.011 -0.029 0.053
0.025 -0.035 0.061
0.019 -0.027 0.063
0.023 -0.031 0.065
0.017 -0.021 0.057
0.019 -0.019 0.065
0.025 -0.039 0.083
0.025 -0.041 0.085
0.025 -0.037 0.087
0.037 -0.047 0.087
0.029 -0.045 0.087
0.025 -0.037 0.085
0.027 -0.037 0.089
0.027 -0.039 0.089
0.027 -0.043 0.087
0.031 -0.041 0.089
0.019 -0.025 0.065
0.019 -0.025 0.067
0.027 -0.033 0.067
0.023 -0.025 0.075
0.013 -0.005 0.067
0.001 -0.001 0.075
0.015 -0.009 0.079
0.017 -0.005 0.069
0.009 -0.003 0.073
0.015 -0.007 0.079
0.017 -0.007 0.077
0.021 -0.029 0.087
0.019 -0.027 0.085
0.021 -0.031 0.087
0.017 -0.021 0.087
0.023 -0.033 0.095
0.025 -0.033 0.089
0.023 -0.029 0.093
0.021 -0.029 0.097
0.011 -0.007 0.085
0.015 -0.017 0.085
0.015 -0.019 0.091
0.009 -0.005 0.095
0.025 -0.027 0.073
0.017 -0.019 0.077
0.019 -0.025 0.089
0.019 -0.025 0.095
0.023 -0.037 0.099
0.031 -0.043 0.105
0.031 -0.043 0.105
0.033 -0.037 0.107
0.021 -0.027 0.099
0.009 -0.001 0.103
0.011 -0.007 0.103
0.025 -0.029 0.101
-0.039 0.019 0.037
-0.039 0.023 0.039
-0.031 0.011 0.041
-0.035 0.013 0.043
-0.025 0.009 0.041
-0.027 0.011 0.043
-0.033 0.013 0.045
-0.037 0.015 0.045
-0.041 0.027 0.047
-0.025 0.003 0.035
-0.025 0.003 0.039
-0.027 0.009 0.037
-0.031 0.007 0.053
-0.031 0.017 0.049
-0.035 0.017 0.049
-0.025 0.019 0.047
-0.035 0.019 0.051
-0.037 0.015 0.045
-0.025 0.015 0.045
-0.031 0.007 0.057
-0.029 0.005 0.061
-0.029 0.005 0.061
-0.029 0.005 0.061
-0.019 0.021 0.061
-0.019 0.021 0.063
-0.021 0.029 0.059
-0.019 0.027 0.061
-0.017 0.023 0.051
-0.027 0.013 0.059
-0.017 0.023 0.055
-0.017 0.025 0.055
-0.019 0.021 0.067
-0.041 0.025 0.043
-0.041 0.023 0.047
-0.033 0.021 0.055
-0.031 0.023 0.059
-0.021 0.011 0.071
-0.003 0.005 0.073
-0.025 0.031 0.071
-0.017 0.017 0.075
-0.019 0.019 0.079
-0.021 0.029 0.073
-0.021 0.029 0.075
-0.021 0.031 0.075
-0.013 0.015 0.077
-0.013 0.015 0.077
-0.001 0.005 0.085
-0.005 0.007 0.081
-0.019 0.031 0.081
-0.015 0.027 0.089
-0.013 0.017 0.089
-0.015 0.021 0.089
-0.033 0.041 0.077
-0.025 0.031 0.073
-0.033 0.037 0.081
-0.023 0.031 0.071
-0.019 0.029 0.083
-0.027 0.033 0.085
-0.017 0.031 0.085
0.001 0.001 0.051
0.001 -0.003 0.047
-0.031 0.019 0.051
-0.015 0.021 0.051
-0.017 0.021 0.055
-0.015 0.021 0.053
-0.023 0.005 0.061
0.001 0.009 0.061
0.001 0.009 0.063
0.001 -0.005 0.061
-0.037 0.021 0.055
0.001 0.001 0.079
0.003 -0.001 0.079
0.001 0.003 0.083
-0.009 0.011 0.079
-0.009 0.011 0.081
0.007 0.003 0.083
0.011 0.001 0.081
-0.001 0.007 0.089
0.009 -0.003 0.097
0.009 -0.005 0.101
-0.003 0.017 0.093
0.025 0.007 0.097
0.023 0.001 0.057
0.021 0.007 0.059
0.043 -0.015 0.049
0.037 -0.007 0.039
0.029 -0.001 0.041
0.037 -0.025 0.069
0.039 -0.025 0.065
0.041 -0.023 0.053
0.041 -0.025 0.055
0.041 -0.029 0.055
0.039 -0.025 0.061
0.035 -0.025 0.071
0.039 -0.035 0.051
0.039 -0.033 0.049
0.035 -0.015 0.065
0.035 -0.015 0.059
0.035 -0.015 0.061
0.029 -0.011 0.053
0.035 -0.015 0.069
0.035 -0.015 0.069
0.041 -0.019 0.055
0.041 -0.025 0.045
0.025 0.003 0.049
0.023 0.003 0.055
0.023 0.005 0.053
0.025 0.005 0.047
0.021 -0.007 0.057
0.021 -0.007 0.057
0.029 0.003 0.041
0.033 -0.003 0.043
0.033 -0.007 0.049
0.035 -0.015 0.071
0.035 -0.023 0.071
0.017 -0.007 0.063
0.021 -0.009 0.055
0.023 -0.007 0.055
0.031 -0.011 0.065
0.039 -0.029 0.039
0.049 -0.023 0.039
0.041 -0.021 0.041
0.041 -0.015 0.045
0.043 -0.019 0.049
0.041 -0.017 0.045
0.051 -0.019 0.037
0.051 -0.021 0.037
0.051 -0.017 0.037
0.041 -0.011 0.039
0.043 -0.015 0.051
0.035 -0.015 0.061
0.033 -0.029 0.071
0.037 -0.029 0.087
0.043 -0.035 0.101
0.041 -0.027 0.097
0.043 -0.045 0.083
0.041 -0.033 0.085
0.041 -0.029 0.093
0.043 -0.039 0.085
0.039 -0.045 0.093
0.039 -0.043 0.091
0.043 -0.031 0.097
0.037 -0.025 0.081
0.033 -0.009 0.087
0.021 -0.003 0.071
0.035 -0.007 0.093
0.027 -0.003 0.075
0.023 -0.001 0.077
0.035 -0.013 0.083
0.023 -0.001 0.077
0.037 -0.021 0.097
0.039 -0.019 0.101
0.041 -0.023 0.093
0.039 -0.019 0.095
0.035 -0.011 0.097
0.037 -0.013 0.093
0.035 -0.015 0.087
0.035 -0.013 0.089
0.039 -0.025 0.097
0.037 -0.025 0.103
0.037 -0.023 0.103
0.035 -0.013 0.103
0.023 -0.003 0.101
0.035 -0.011 0.087
0.031 -0.007 0.081
0.037 -0.025 0.069
0.037 -0.021 0.065
0.039 -0.027 0.083
0.041 -0.027 0.095
0.039 -0.017 0.093
0.035 -0.009 0.093
0.033 -0.001 0.091
0.041 -0.037 0.103
0.037 -0.035 0.107
0.043 -0.039 0.103
0.039 -0.035 0.103
0.041 -0.031 0.099
0.029 -0.021 0.105
0.025 -0.005 0.111
0.023 -0.001 0.109
0.023 -0.001 0.107
0.023 -0.001 0.099
0.033 -0.001 0.109
0.033 -0.001 0.101
0.031 -0.015 0.105
0.023 0.001 0.107
0.039 -0.029 0.099
0.037 -0.021 0.097
0.037 -0.019 0.097
0.001 0.027 0.059
0.005 0.019 0.053
0.005 0.019 0.051
0.005 0.017 0.047
0.003 0.025 0.057
0.003 0.029 0.045
-0.003 0.035 0.041
-0.007 0.035 0.077
-0.007 0.035 0.079
-0.009 0.035 0.081
0.001 0.019 0.059
0.003 0.017 0.055
-0.001 0.019 0.063
-0.001 0.019 0.063
0.001 0.021 0.061
0.017 0.011 0.059
0.015 0.013 0.059
0.005 0.021 0.049
0.005 0.021 0.053
0.015 0.013 0.063
0.003 0.013 0.047
0.001 0.025 0.059
0.001 0.027 0.057
-0.023 0.031 0.041
-0.025 0.031 0.041
-0.001 0.027 0.065
0.001 0.033 0.041
0.011 0.017 0.083
0.009 0.021 0.079
0.007 0.019 0.073
0.011 0.019 0.079
0.011 0.017 0.085
0.007 0.023 0.085
0.011 0.019 0.083
0.013 0.015 0.063
0.009 0.021 0.077
-0.003 0.031 0.071
-0.005 0.035 0.071
-0.001 0.031 0.077
-0.003 0.033 0.077
-0.005 0.035 0.073
-0.001 0.021 0.063
-0.001 0.031 0.051
0.001 0.017 0.059
-0.001 0.017 0.061
-0.017 0.035 0.035
-0.015 0.035 0.037
-0.003 0.035 0.041
-0.001 0.033 0.043
-0.027 0.035 0.059
-0.023 0.037 0.065
0.013 0.011 0.081
0.011 0.019 0.079
-0.003 0.033 0.077
-0.001 0.031 0.083
0.007 0.023 0.081
0.009 0.021 0.085
-0.001 0.029 0.075
-0.001 0.031 0.079
0.009 0.009 0.091
-0.005 0.025 0.093
-0.007 0.031 0.089
-0.003 0.029 0.089
-0.005 0.025 0.093
-0.007 0.029 0.091
-0.035 0.043 0.087
-0.013 0.035 0.083
-0.021 0.037 0.079
-0.029 0.039 0.087
0.023 0.005 0.051
0.029 0.005 0.041
0.025 0.003 0.045
0.025 0.005 0.047
0.005 0.023 0.047
0.009 0.025 0.043
0.017 0.013 0.069
0.017 0.011 0.055
0.017 0.013 0.071
0.021 0.007 0.061
0.003 0.017 0.053
0.003 0.023 0.059
0.005 0.035 0.037
0.019 0.005 0.069
0.009 0.021 0.079
0.005 0.025 0.079
0.013 0.017 0.079
0.003 0.015 0.093
0.031 0.001 0.087
0.031 0.005 0.097
0.031 0.001 0.093
0.003 0.025 0.089
0.031 0.003 0.099
0.029 0.005 0.103
0.019 0.003 0.111
