0.023 0.007 0.045
0.033 0.001 0.037
0.033 -0.003 0.043
0.031 -0.013 0.059
0.037 -0.017 0.065
0.025 0.005 0.043
0.011 -0.001 0.033
0.007 0.011 0.053
0.031 0.003 0.035
0.021 0.007 0.061
0.023 -0.011 0.057
0.027 -0.001 0.049
0.039 -0.009 0.039
0.039 -0.009 0.041
0.039 -0.009 0.039
0.037 -0.005 0.035
0.041 -0.013 0.041
0.037 -0.017 0.061
0.035 -0.015 0.089
0.033 -0.001 0.091
0.037 -0.019 0.085
0.039 -0.025 0.085
0.031 -0.003 0.083
0.021 -0.001 0.077
0.021 -0.003 0.071
0.033 -0.011 0.077
0.031 -0.007 0.079
0.029 0.003 0.091
0.033 -0.003 0.087
0.031 -0.001 0.085
0.029 0.005 0.099
0.023 -0.001 0.097
0.017 -0.003 0.093
0.037 -0.015 0.097
0.037 -0.013 0.095
0.035 -0.011 0.083
0.035 -0.015 0.105
0.033 -0.001 0.107
0.019 0.005 0.107
0.025 -0.003 0.105
0.023 0.001 0.107
0.033 -0.003 0.105
0.025 -0.007 0.115
-0.017 0.033 0.039
-0.003 0.035 0.039
-0.027 0.031 0.043
-0.031 0.037 0.063
-0.015 0.031 0.043
-0.015 0.025 0.047
-0.011 0.031 0.055
0.003 0.031 0.041
0.003 0.027 0.049
-0.017 0.023 0.047
-0.005 0.035 0.039
-0.009 0.035 0.069
-0.015 0.029 0.055
-0.015 0.033 0.061
-0.007 0.031 0.051
-0.011 0.035 0.061
-0.031 0.037 0.059
-0.019 0.035 0.037
-0.029 0.035 0.059
-0.011 0.033 0.059
-0.003 0.031 0.075
-0.001 0.031 0.083
-0.007 0.027 0.093
-0.031 0.035 0.067
-0.023 0.039 0.073
-0.031 0.043 0.075
-0.027 0.041 0.079
-0.011 0.037 0.075
0.007 0.029 0.043
0.009 0.009 0.047
0.017 0.007 0.045
0.021 0.005 0.039
0.007 0.031 0.037
0.007 0.011 0.055
0.009 0.021 0.083
0.011 0.007 0.085
0.029 0.005 0.099
0.019 0.007 0.111
0.019 0.007 0.043
0.019 0.007 0.063
0.039 -0.009 0.037
0.041 -0.031 0.053
0.037 -0.037 0.049
0.035 -0.005 0.041
0.041 -0.011 0.039
0.025 0.003 0.045
0.037 -0.007 0.039
0.035 -0.001 0.037
0.037 -0.017 0.063
0.031 -0.013 0.059
0.023 -0.011 0.057
0.029 -0.007 0.051
0.031 -0.013 0.059
0.019 -0.003 0.061
0.041 -0.029 0.043
0.051 -0.017 0.037
0.035 -0.011 0.033
0.039 -0.031 0.063
0.041 -0.015 0.055
0.043 -0.039 0.083
0.033 -0.011 0.075
0.033 -0.019 0.077
0.029 -0.005 0.079
0.029 -0.003 0.079
0.037 -0.023 0.087
0.035 -0.013 0.083
0.035 -0.011 0.089
0.037 -0.013 0.095
0.037 -0.019 0.089
0.031 -0.003 0.085
0.033 -0.009 0.083
0.029 0.005 0.089
0.039 -0.037 0.105
0.037 -0.033 0.105
0.031 0.003 0.099
0.033 -0.001 0.101
0.023 0.001 0.107
0.025 -0.007 0.113
0.003 0.029 0.045
-0.005 0.007 0.039
0.009 0.029 0.041
-0.013 0.035 0.037
-0.005 0.033 0.047
0.005 0.035 0.037
-0.003 0.013 0.059
0.001 0.019 0.059
-0.007 0.033 0.061
-0.003 0.031 0.057
0.005 0.019 0.071
0.015 0.007 0.077
-0.007 0.035 0.067
0.003 0.025 0.077
0.001 0.025 0.091
-0.029 0.043 0.077
-0.007 0.035 0.069
-0.015 0.033 0.085
-0.013 0.033 0.085
-0.031 0.043 0.083
0.003 0.015 0.037
0.019 0.007 0.049
0.027 0.007 0.039
0.007 0.033 0.035
0.005 0.031 0.035
0.023 0.001 0.057
0.019 0.009 0.061
0.013 0.017 0.069
0.015 0.011 0.079
0.013 0.005 0.083
-0.001 -0.011 0.047
0.013 -0.015 0.055
0.015 -0.035 0.045
0.013 -0.025 0.055
0.019 -0.031 0.059
0.003 -0.025 0.041
0.005 -0.027 0.043
0.003 -0.021 0.041
0.011 -0.021 0.053
0.007 -0.009 0.059
0.003 -0.011 0.053
0.013 -0.025 0.055
0.015 -0.029 0.057
0.019 -0.029 0.061
0.017 -0.027 0.059
0.007 -0.015 0.051
0.001 -0.003 0.051
0.009 0.003 0.083
0.003 0.005 0.087
0.001 0.015 0.095
0.005 0.009 0.091
0.009 0.001 0.097
0.025 -0.043 0.083
0.021 -0.031 0.097
0.023 -0.037 0.099
0.017 -0.019 0.073
-0.001 -0.001 0.071
-0.001 -0.001 0.071
0.007 0.001 0.095
0.017 0.001 0.091
0.019 -0.001 0.093
0.015 -0.017 0.091
0.019 -0.029 0.085
0.015 -0.007 0.103
0.019 0.001 0.095
0.021 0.001 0.095
0.013 -0.007 0.103
0.021 -0.013 0.105
0.023 -0.013 0.107
0.023 -0.033 0.099
0.015 -0.017 0.101
0.031 -0.023 0.105
0.019 -0.003 0.109
0.019 -0.003 0.109
0.033 -0.025 0.105
-0.033 0.035 0.063
-0.039 0.031 0.049
-0.033 0.023 0.059
-0.031 0.025 0.061
-0.037 0.033 0.055
-0.029 0.029 0.069
-0.029 0.031 0.069
-0.035 0.043 0.087
-0.027 0.013 0.061
-0.023 0.013 0.063
-0.001 0.001 0.059
-0.019 0.019 0.077
-0.017 0.027 0.087
-0.029 0.037 0.089
-0.023 0.037 0.085
-0.021 0.013 0.071
-0.013 0.015 0.085
-0.015 0.025 0.089
-0.015 0.017 0.087
-0.011 0.013 0.085
-0.007 0.031 0.089
-0.035 0.041 0.081
-0.029 0.039 0.087
-0.029 0.037 0.089
-0.029 0.041 0.085
-0.023 0.037 0.085
-0.015 0.035 0.079
-0.027 0.039 0.087
-0.013 0.015 0.083
-0.017 0.025 0.087
-0.027 0.035 0.087
-0.019 0.031 0.081
-0.025 0.035 0.087
-0.011 0.021 0.091
-0.003 0.017 0.093
0.001 0.011 0.091
-0.017 0.031 0.089
0.003 0.009 0.089
0.001 0.015 0.095
0.009 0.005 0.087
0.029 0.003 0.103
-0.003 -0.019 0.035
-0.003 -0.015 0.039
0.007 -0.037 0.041
0.025 -0.037 0.041
0.021 -0.035 0.049
0.023 -0.035 0.057
0.027 -0.037 0.059
-0.001 -0.015 0.041
0.001 -0.017 0.041
-0.001 -0.013 0.045
0.013 -0.025 0.055
0.007 -0.011 0.055
0.015 -0.011 0.057
0.009 -0.009 0.061
0.015 -0.033 0.047
0.013 -0.033 0.047
0.013 -0.033 0.047
0.005 -0.019 0.047
0.007 -0.013 0.055
0.019 -0.031 0.057
0.027 -0.033 0.067
0.023 -0.035 0.085
0.027 -0.041 0.087
0.033 -0.045 0.091
0.005 -0.005 0.065
-0.001 -0.001 0.065
0.001 -0.001 0.073
0.021 -0.031 0.087
0.019 -0.027 0.087
0.019 -0.027 0.089
0.019 -0.021 0.093
0.023 -0.029 0.099
0.021 -0.033 0.097
0.027 -0.041 0.099
0.029 -0.041 0.103
0.033 -0.037 0.107
0.023 -0.033 0.099
0.025 -0.031 0.099
0.013 -0.011 0.103
0.013 -0.009 0.103
0.013 -0.013 0.107
0.019 -0.005 0.105
0.015 -0.011 0.109
0.023 -0.033 0.099
0.029 -0.027 0.105
-0.027 0.009 0.039
-0.037 0.017 0.035
-0.037 0.029 0.061
-0.025 0.003 0.035
-0.031 0.011 0.039
-0.027 0.007 0.043
-0.027 0.003 0.043
-0.037 0.015 0.037
-0.017 0.025 0.053
-0.029 0.007 0.061
-0.017 0.023 0.049
-0.031 0.011 0.057
-0.019 0.027 0.063
-0.021 0.023 0.065
-0.005 0.011 0.073
-0.025 0.029 0.065
-0.021 0.027 0.077
-0.021 0.013 0.071
-0.013 0.015 0.079
-0.013 0.029 0.091
-0.027 0.033 0.073
-0.027 0.033 0.085
-0.015 0.029 0.089
0.001 0.001 0.053
-0.017 0.021 0.049
-0.001 0.007 0.065
0.003 0.007 0.089
0.015 0.007 0.113
-0.019 -0.001 0.033
-0.019 0.001 0.037
0.001 -0.023 0.037
-0.013 -0.009 0.035
0.005 -0.035 0.037
0.007 -0.033 0.045
0.023 -0.037 0.051
-0.001 -0.021 0.037
0.005 -0.023 0.047
0.009 -0.027 0.049
0.013 -0.029 0.055
0.003 -0.007 0.059
0.001 -0.005 0.055
0.003 -0.019 0.043
0.001 -0.013 0.047
0.009 -0.013 0.055
0.019 -0.017 0.063
0.003 -0.009 0.055
0.027 -0.043 0.087
0.027 -0.037 0.089
0.019 -0.011 0.067
0.015 -0.011 0.081
0.017 -0.005 0.077
0.001 0.001 0.079
0.019 -0.025 0.089
0.017 -0.015 0.081
0.009 0.001 0.097
0.017 -0.019 0.069
0.017 -0.019 0.075
0.017 -0.021 0.091
0.019 -0.025 0.095
0.019 -0.027 0.095
0.017 -0.023 0.097
0.023 -0.037 0.099
0.021 -0.021 0.105
0.021 -0.019 0.105
0.019 -0.001 0.105
0.019 -0.025 0.099
0.021 -0.027 0.101
0.009 -0.003 0.099
-0.033 0.013 0.033
-0.039 0.031 0.049
-0.027 0.003 0.043
-0.031 0.031 0.037
-0.041 0.023 0.045
-0.031 0.009 0.057
-0.001 0.003 0.063
-0.037 0.025 0.059
-0.039 0.025 0.053
-0.037 0.033 0.055
-0.033 0.029 0.065
-0.029 0.033 0.039
-0.021 0.033 0.039
-0.031 0.033 0.045
-0.005 0.005 0.077
-0.013 0.019 0.089
-0.029 0.035 0.071
-0.027 0.035 0.073
-0.031 0.035 0.081
-0.027 0.033 0.083
-0.035 0.041 0.083
-0.031 0.037 0.089
-0.027 0.011 0.049
-0.027 0.013 0.057
-0.021 0.025 0.065
-0.001 0.015 0.071
-0.007 0.009 0.077
-0.005 0.007 0.077
-0.019 0.019 0.071
-0.019 0.021 0.075
-0.007 0.009 0.083
-0.013 0.015 0.087
-0.001 -0.019 0.037
0.009 -0.039 0.033
0.007 -0.039 0.035
0.005 -0.035 0.037
0.009 -0.041 0.037
0.009 -0.043 0.041
0.013 -0.041 0.043
0.017 -0.039 0.035
0.019 -0.037 0.041
0.037 -0.033 0.061
0.003 -0.025 0.039
0.001 -0.013 0.045
0.015 -0.039 0.041
0.017 -0.033 0.053
0.021 -0.031 0.061
0.021 -0.031 0.063
0.037 -0.035 0.051
0.029 -0.037 0.059
0.021 -0.027 0.071
0.011 -0.005 0.067
0.017 -0.017 0.071
0.011 -0.011 0.089
0.025 -0.039 0.083
0.015 -0.017 0.095
0.035 -0.031 0.067
0.031 -0.027 0.073
0.031 -0.019 0.079
0.029 -0.047 0.087
0.027 -0.043 0.085
0.031 -0.041 0.097
0.023 -0.037 0.097
0.021 -0.027 0.099
0.027 -0.029 0.103
0.017 -0.019 0.101
0.023 -0.025 0.105
0.029 -0.041 0.099
-0.035 0.013 0.041
-0.011 0.003 0.043
-0.003 0.009 0.041
-0.017 0.005 0.051
-0.029 0.003 0.051
-0.025 0.007 0.061
-0.023 0.005 0.061
-0.023 0.005 0.061
-0.015 0.017 0.055
-0.037 0.025 0.059
-0.031 0.013 0.043
-0.007 0.005 0.047
-0.001 -0.001 0.067
-0.009 0.011 0.079
-0.015 0.017 0.085
-0.033 0.029 0.065
-0.021 0.011 0.069
-0.031 0.039 0.075
-0.009 0.013 0.077
0.013 -0.031 0.051
0.007 -0.011 0.057
0.003 -0.007 0.059
-0.001 -0.001 0.059
0.011 0.001 0.081
-0.003 0.003 0.077
0.015 -0.019 0.091
-0.005 -0.017 0.033
-0.003 -0.019 0.035
0.017 -0.039 0.033
0.011 -0.043 0.041
0.013 -0.041 0.043
0.009 -0.039 0.045
0.031 -0.037 0.051
0.029 -0.035 0.063
0.033 -0.033 0.035
0.023 -0.031 0.033
0.013 -0.029 0.055
0.013 -0.029 0.055
0.041 -0.025 0.035
0.041 -0.027 0.037
0.027 -0.043 0.083
0.043 -0.043 0.087
0.037 -0.041 0.083
0.023 -0.031 0.065
0.007 -0.005 0.067
0.033 -0.031 0.067
0.027 -0.031 0.069
0.019 -0.021 0.075
0.021 -0.025 0.073
0.023 -0.029 0.093
0.017 -0.025 0.085
0.021 -0.029 0.089
0.025 -0.019 0.081
0.037 -0.041 0.083
0.029 -0.041 0.097
0.035 -0.035 0.099
0.027 -0.041 0.101
0.023 -0.013 0.107
0.041 -0.041 0.101
0.009 -0.041 0.037
-0.017 -0.005 0.037
-0.023 0.003 0.045
-0.001 -0.015 0.041
-0.013 0.003 0.045
-0.019 0.005 0.043
-0.021 0.003 0.045
-0.005 -0.011 0.039
-0.031 0.005 0.055
0.003 -0.007 0.057
0.003 -0.013 0.051
0.003 -0.007 0.057
-0.023 0.005 0.059
0.001 -0.003 0.069
-0.005 0.007 0.079
-0.019 0.011 0.067
-0.019 0.019 0.077
-0.007 0.017 0.069
0.005 -0.005 0.067
0.007 -0.003 0.075
-0.001 0.003 0.081
-0.003 0.007 0.087
-0.019 0.021 0.083
-0.031 0.035 0.081
-0.033 0.037 0.083
-0.025 0.033 0.083
0.035 -0.019 0.033
0.013 -0.041 0.043
0.011 -0.029 0.049
0.037 -0.035 0.041
0.013 -0.031 0.053
0.009 -0.009 0.059
0.021 -0.035 0.039
0.019 -0.037 0.041
0.039 -0.049 0.091
