0.017 0.011 0.061
0.019 0.009 0.067
0.021 0.001 0.061
0.019 0.007 0.065
0.019 0.007 0.065
0.021 0.005 0.063
0.019 0.009 0.063
0.021 -0.005 0.059
0.019 -0.003 0.061
0.041 -0.025 0.057
0.041 -0.021 0.055
0.027 -0.009 0.053
0.029 -0.007 0.051
0.029 -0.003 0.043
0.039 -0.009 0.039
0.031 0.001 0.041
0.039 -0.021 0.061
0.037 -0.019 0.067
0.037 -0.023 0.067
0.039 -0.025 0.065
0.037 -0.025 0.069
0.041 -0.021 0.055
0.041 -0.025 0.059
0.039 -0.025 0.061
0.039 -0.027 0.061
0.039 -0.023 0.065
0.039 -0.023 0.063
0.041 -0.029 0.057
0.037 -0.033 0.063
0.037 -0.029 0.067
0.035 -0.031 0.067
0.041 -0.029 0.047
0.041 -0.031 0.051
0.039 -0.033 0.055
0.039 -0.033 0.053
0.037 -0.035 0.057
0.039 -0.033 0.055
0.035 -0.015 0.063
0.035 -0.015 0.063
0.039 -0.017 0.057
0.027 -0.013 0.057
0.029 -0.011 0.053
0.029 -0.011 0.053
0.023 -0.011 0.057
0.031 -0.011 0.053
0.029 -0.013 0.055
0.031 -0.015 0.057
0.033 -0.013 0.067
0.035 -0.015 0.069
0.031 -0.009 0.069
0.031 -0.009 0.067
0.041 -0.011 0.047
0.027 -0.005 0.051
0.025 -0.003 0.053
0.025 -0.001 0.053
0.029 -0.005 0.047
0.023 0.001 0.057
0.023 0.003 0.055
0.023 0.005 0.053
0.025 0.005 0.051
0.021 -0.001 0.061
0.021 -0.009 0.057
0.019 -0.007 0.059
0.021 -0.001 0.061
0.035 -0.005 0.045
0.031 0.001 0.041
0.029 -0.005 0.045
0.035 -0.015 0.073
0.033 -0.011 0.069
0.033 -0.011 0.071
0.035 -0.021 0.071
0.035 -0.025 0.071
0.033 -0.011 0.069
0.019 -0.005 0.063
0.019 -0.007 0.061
0.019 0.005 0.067
0.017 -0.005 0.065
0.017 0.003 0.073
0.023 -0.007 0.055
0.029 -0.011 0.053
0.025 -0.005 0.053
0.023 -0.001 0.055
0.029 -0.005 0.049
0.025 -0.001 0.051
0.031 -0.009 0.067
0.029 -0.011 0.063
0.031 -0.009 0.067
0.021 -0.003 0.059
0.021 -0.001 0.061
0.045 -0.023 0.041
0.041 -0.027 0.041
0.041 -0.029 0.043
0.045 -0.029 0.035
0.047 -0.025 0.039
0.047 -0.025 0.039
0.043 -0.017 0.041
0.045 -0.019 0.039
0.045 -0.017 0.039
0.041 -0.025 0.043
0.041 -0.029 0.043
0.041 -0.025 0.045
0.043 -0.019 0.051
0.041 -0.017 0.045
0.043 -0.017 0.049
0.051 -0.019 0.037
0.043 -0.013 0.039
0.037 -0.005 0.037
0.037 -0.005 0.037
0.035 -0.005 0.041
0.035 -0.003 0.039
0.035 -0.005 0.045
0.049 -0.015 0.037
0.041 -0.029 0.049
0.041 -0.031 0.053
0.041 -0.025 0.055
0.043 -0.017 0.049
0.041 -0.023 0.055
0.041 -0.027 0.059
0.041 -0.027 0.057
0.037 -0.011 0.053
0.037 -0.009 0.051
0.041 -0.011 0.051
0.037 -0.013 0.055
0.041 -0.015 0.053
0.039 -0.041 0.091
0.039 -0.037 0.089
0.039 -0.043 0.091
0.041 -0.035 0.089
0.043 -0.031 0.099
0.041 -0.029 0.099
0.033 -0.027 0.103
0.037 -0.031 0.103
0.041 -0.041 0.089
0.039 -0.039 0.089
0.043 -0.045 0.083
0.043 -0.041 0.085
0.043 -0.043 0.087
0.039 -0.031 0.085
0.041 -0.037 0.095
0.039 -0.033 0.089
0.037 -0.019 0.083
0.035 -0.029 0.069
0.033 -0.009 0.083
0.037 -0.025 0.081
0.035 -0.013 0.085
0.037 -0.017 0.085
0.023 -0.003 0.075
0.021 -0.001 0.075
0.033 -0.005 0.089
0.033 -0.003 0.091
0.029 0.005 0.089
0.029 0.007 0.089
0.021 -0.001 0.079
0.029 0.005 0.087
0.029 0.007 0.093
0.031 -0.007 0.077
0.031 -0.007 0.081
0.029 -0.005 0.077
0.033 -0.011 0.069
0.029 -0.007 0.069
0.017 -0.003 0.065
0.029 -0.005 0.075
0.033 -0.007 0.091
0.031 -0.009 0.075
0.031 -0.009 0.079
0.031 0.003 0.089
0.029 0.003 0.087
0.031 -0.007 0.079
0.039 -0.023 0.097
0.039 -0.025 0.097
0.037 -0.013 0.099
0.035 -0.009 0.101
0.035 -0.015 0.089
0.035 -0.015 0.089
0.037 -0.013 0.093
0.037 -0.019 0.103
0.039 -0.025 0.097
0.037 -0.019 0.097
0.037 -0.015 0.097
0.037 -0.013 0.097
0.029 0.007 0.101
0.035 -0.003 0.105
0.031 -0.001 0.103
0.033 -0.005 0.107
0.033 -0.001 0.109
0.013 -0.001 0.095
0.035 -0.007 0.095
0.033 -0.001 0.089
0.031 0.003 0.099
0.031 0.003 0.101
0.037 -0.027 0.069
0.037 -0.019 0.069
0.033 -0.013 0.067
0.033 -0.015 0.077
0.039 -0.027 0.085
0.041 -0.027 0.093
0.037 -0.019 0.081
0.037 -0.023 0.085
0.037 -0.017 0.087
0.041 -0.025 0.095
0.043 -0.029 0.097
0.041 -0.023 0.093
0.037 -0.019 0.089
0.039 -0.021 0.095
0.035 -0.013 0.085
0.037 -0.013 0.097
0.037 -0.011 0.095
0.039 -0.035 0.105
0.033 -0.029 0.103
0.037 -0.035 0.107
0.039 -0.033 0.103
0.045 -0.037 0.101
0.043 -0.039 0.103
0.039 -0.037 0.105
0.031 -0.021 0.105
0.033 -0.029 0.103
0.027 -0.013 0.107
0.031 -0.025 0.105
0.025 -0.017 0.105
0.029 -0.023 0.105
0.029 -0.021 0.105
0.033 -0.003 0.109
0.023 -0.001 0.105
0.011 -0.001 0.099
0.023 -0.003 0.109
0.025 -0.005 0.115
0.027 -0.007 0.107
0.033 -0.013 0.103
0.031 0.001 0.101
0.033 -0.001 0.101
0.025 -0.011 0.111
0.025 -0.007 0.113
0.027 -0.007 0.111
0.025 -0.003 0.107
0.027 -0.007 0.109
0.033 -0.001 0.109
0.033 -0.001 0.107
0.025 -0.005 0.115
0.037 -0.029 0.101
0.037 -0.027 0.099
0.037 -0.027 0.099
0.037 -0.025 0.103
0.035 -0.025 0.103
0.037 -0.017 0.097
0.037 -0.023 0.103
0.037 -0.015 0.101
0.035 -0.005 0.103
0.035 -0.007 0.103
0.033 -0.009 0.105
0.003 0.027 0.049
-0.009 0.033 0.041
0.005 0.023 0.045
-0.003 0.035 0.041
-0.001 0.025 0.067
-0.001 0.023 0.065
-0.001 0.025 0.067
-0.003 0.021 0.069
-0.001 0.031 0.061
-0.003 0.031 0.067
-0.003 0.033 0.063
-0.003 0.033 0.071
-0.007 0.035 0.065
-0.001 0.025 0.073
0.001 0.029 0.081
-0.007 0.035 0.075
-0.005 0.033 0.083
-0.003 0.033 0.081
-0.005 0.033 0.083
0.003 0.013 0.051
0.013 0.015 0.061
0.003 0.021 0.059
0.003 0.021 0.055
0.015 0.015 0.075
0.009 0.019 0.071
0.015 0.015 0.069
0.015 0.015 0.075
0.015 0.015 0.073
0.015 0.015 0.071
-0.001 0.021 0.063
0.009 0.019 0.071
-0.001 0.019 0.063
0.017 0.013 0.063
0.017 0.011 0.061
0.017 0.011 0.055
0.017 0.011 0.059
0.005 0.021 0.049
0.017 0.013 0.065
0.017 0.013 0.065
0.017 0.013 0.069
0.015 0.013 0.065
0.013 0.015 0.061
0.003 0.027 0.055
0.003 0.025 0.055
0.005 0.023 0.053
0.003 0.027 0.055
-0.005 0.033 0.049
-0.025 0.031 0.043
-0.003 0.033 0.043
-0.007 0.033 0.047
-0.001 0.029 0.065
-0.027 0.031 0.043
-0.001 0.031 0.055
-0.023 0.031 0.041
0.005 0.025 0.049
0.007 0.029 0.043
0.007 0.029 0.045
0.001 0.027 0.061
-0.005 0.033 0.049
-0.005 0.033 0.049
-0.001 0.031 0.049
-0.001 0.031 0.047
0.013 0.015 0.081
0.011 0.019 0.081
0.011 0.017 0.085
0.013 0.015 0.079
0.015 0.015 0.075
0.013 0.017 0.079
0.009 0.021 0.079
0.009 0.021 0.083
0.009 0.021 0.079
0.011 0.015 0.085
0.011 0.017 0.083
0.009 0.021 0.085
0.015 0.015 0.071
0.015 0.015 0.069
0.001 0.017 0.059
0.013 0.015 0.063
0.013 0.015 0.063
0.013 0.017 0.069
0.001 0.017 0.059
-0.003 0.027 0.069
-0.001 0.029 0.073
-0.001 0.029 0.065
-0.001 0.031 0.077
-0.001 0.027 0.065
-0.003 0.033 0.069
-0.009 0.035 0.067
-0.003 0.031 0.075
-0.007 0.035 0.071
-0.003 0.025 0.071
-0.001 0.025 0.073
-0.003 0.033 0.077
-0.003 0.033 0.077
-0.003 0.033 0.073
-0.003 0.031 0.065
-0.001 0.031 0.057
-0.001 0.031 0.055
0.009 0.021 0.075
0.001 0.029 0.059
0.001 0.027 0.061
-0.001 0.031 0.063
-0.031 0.033 0.049
-0.029 0.035 0.055
-0.031 0.033 0.051
-0.023 0.037 0.065
-0.019 0.033 0.039
-0.001 0.033 0.041
0.001 0.035 0.039
-0.013 0.033 0.041
-0.003 0.033 0.043
-0.001 0.033 0.043
-0.031 0.033 0.049
-0.025 0.037 0.063
-0.003 0.033 0.063
0.009 0.021 0.081
0.013 0.007 0.083
0.011 0.007 0.089
0.005 0.019 0.091
0.009 0.013 0.089
0.007 0.023 0.083
0.001 0.029 0.081
0.005 0.025 0.087
-0.005 0.033 0.083
-0.009 0.035 0.083
0.005 0.025 0.087
-0.001 0.027 0.089
0.001 0.027 0.089
-0.009 0.035 0.083
0.007 0.023 0.083
0.007 0.023 0.083
-0.003 0.019 0.065
0.009 0.021 0.081
-0.003 0.031 0.071
0.007 0.023 0.087
0.005 0.023 0.089
0.003 0.021 0.091
0.007 0.023 0.081
-0.001 0.029 0.077
0.009 0.011 0.091
0.009 0.009 0.091
0.009 0.009 0.091
0.009 0.009 0.091
0.005 0.009 0.091
0.003 0.015 0.093
0.001 0.019 0.093
0.007 0.013 0.091
-0.003 0.025 0.091
-0.005 0.025 0.093
-0.007 0.029 0.091
-0.007 0.031 0.089
-0.001 0.021 0.093
-0.001 0.029 0.087
-0.001 0.021 0.095
-0.001 0.021 0.095
-0.001 0.021 0.095
-0.011 0.029 0.093
-0.007 0.029 0.091
-0.003 0.027 0.091
-0.031 0.043 0.079
-0.029 0.039 0.087
-0.029 0.039 0.087
-0.031 0.043 0.083
-0.035 0.041 0.087
-0.023 0.039 0.071
-0.017 0.035 0.077
-0.017 0.035 0.079
-0.021 0.037 0.069
-0.023 0.041 0.079
-0.023 0.039 0.083
-0.023 0.039 0.081
-0.017 0.035 0.077
-0.013 0.035 0.083
-0.029 0.043 0.079
-0.007 0.035 0.069
-0.007 0.035 0.069
-0.003 0.033 0.069
-0.009 0.035 0.075
-0.007 0.035 0.075
-0.007 0.035 0.079
-0.023 0.037 0.083
-0.023 0.037 0.085
-0.025 0.033 0.087
-0.029 0.039 0.087
-0.015 0.033 0.083
-0.029 0.037 0.089
-0.009 0.033 0.087
-0.005 0.033 0.083
0.021 0.007 0.051
0.019 0.009 0.051
0.021 0.007 0.049
0.017 0.011 0.053
0.017 0.009 0.047
0.019 0.009 0.051
0.017 0.009 0.049
0.027 0.005 0.043
0.029 0.005 0.035
0.031 0.001 0.039
0.027 0.007 0.041
0.023 0.007 0.043
0.031 0.001 0.041
0.005 0.019 0.039
0.005 0.017 0.039
0.007 0.033 0.041
0.009 0.029 0.039
0.005 0.019 0.041
0.005 0.017 0.043
0.009 0.025 0.043
0.003 0.027 0.047
0.005 0.029 0.045
0.017 0.007 0.069
0.017 0.011 0.069
0.011 0.013 0.057
0.017 0.011 0.057
0.015 0.013 0.057
0.017 0.013 0.071
0.017 0.013 0.071
0.015 0.015 0.067
0.011 0.015 0.063
0.017 0.013 0.065
0.013 0.015 0.061
0.025 0.001 0.049
0.025 0.005 0.053
0.021 0.005 0.063
0.021 0.007 0.061
0.017 0.011 0.057
0.001 0.029 0.051
0.003 0.027 0.055
0.001 0.029 0.055
0.003 0.021 0.057
0.033 0.003 0.033
0.005 0.033 0.037
0.007 0.035 0.035
0.007 0.035 0.035
0.003 0.033 0.041
0.027 0.009 0.097
0.017 0.009 0.075
0.017 0.011 0.069
0.011 0.019 0.077
0.009 0.021 0.077
0.013 0.017 0.079
0.011 0.007 0.089
0.007 0.007 0.089
0.013 0.005 0.083
0.015 0.003 0.081
0.013 0.005 0.083
0.011 0.013 0.085
0.029 0.005 0.093
0.031 0.005 0.097
0.029 0.003 0.091
0.031 0.003 0.091
0.031 0.003 0.089
0.031 0.005 0.097
0.031 0.005 0.097
0.031 0.003 0.101
0.007 0.023 0.081
0.003 0.027 0.081
0.001 0.027 0.089
0.009 0.001 0.097
0.019 0.007 0.111
0.029 0.007 0.097
0.029 0.005 0.101
0.021 0.003 0.107
