0.009 -0.037 0.045
0.021 -0.033 0.097
0.033 -0.045 0.091
0.027 -0.025 0.105
0.031 -0.037 0.105
0.013 -0.013 0.107
0.031 -0.035 0.105
-0.017 0.003 0.039
-0.005 0.005 0.043
-0.027 0.009 0.063
-0.029 0.005 0.059
-0.007 0.013 0.057
-0.015 0.017 0.059
-0.009 0.017 0.069
-0.003 0.005 0.079
-0.011 0.017 0.069
-0.003 0.017 0.093
-0.007 0.011 0.089
-0.003 0.019 0.095
-0.015 0.023 0.089
0.001 -0.001 0.077
0.001 0.017 0.095
0.015 0.007 0.113
0.021 0.007 0.057
0.039 -0.021 0.063
0.041 -0.025 0.059
0.021 0.001 0.083
0.029 0.005 0.093
0.015 0.009 0.079
0.023 -0.005 0.055
0.043 -0.023 0.039
0.037 -0.007 0.049
0.037 -0.007 0.039
0.033 -0.009 0.089
0.009 0.011 0.091
0.025 0.003 0.087
0.015 -0.003 0.091
0.013 -0.001 0.095
0.029 0.007 0.089
0.039 -0.019 0.101
0.019 -0.001 0.099
-0.033 0.033 0.049
-0.013 0.037 0.075
-0.027 0.025 0.047
-0.009 0.031 0.049
-0.015 0.031 0.089
-0.007 0.035 0.065
-0.011 0.037 0.071
-0.001 0.031 0.063
-0.029 0.037 0.063
-0.007 0.035 0.063
0.009 0.013 0.055
0.003 0.027 0.049
0.009 0.013 0.089
0.027 0.009 0.101
0.027 0.007 0.097
0.021 0.003 0.109
0.017 0.007 0.113
-0.003 -0.019 0.033
0.007 -0.037 0.045
0.027 -0.037 0.041
-0.003 -0.017 0.037
0.021 -0.029 0.067
0.027 -0.045 0.085
0.025 -0.037 0.083
0.025 -0.037 0.095
0.015 -0.015 0.077
0.015 -0.019 0.085
0.029 -0.029 0.073
0.027 -0.031 0.069
0.031 -0.029 0.105
0.023 -0.013 0.107
-0.039 0.025 0.057
-0.031 0.011 0.039
-0.031 0.009 0.051
-0.025 0.003 0.047
-0.027 0.005 0.059
-0.003 0.019 0.067
-0.025 0.031 0.073
-0.015 0.021 0.089
-0.001 -0.011 0.047
0.015 -0.011 0.057
0.009 0.001 0.081
-0.001 0.003 0.081
0.013 -0.015 0.095
0.013 -0.015 0.095
0.013 -0.015 0.095
0.017 -0.039 0.041
0.013 -0.041 0.037
0.033 -0.037 0.039
0.033 -0.037 0.049
0.023 -0.037 0.053
0.041 -0.031 0.045
0.049 -0.027 0.035
0.027 -0.029 0.073
0.035 -0.019 0.071
0.039 -0.041 0.091
0.039 -0.023 0.091
0.041 -0.039 0.099
0.043 -0.033 0.095
0.017 -0.039 0.037
0.035 -0.033 0.037
-0.023 0.003 0.049
-0.019 0.011 0.061
0.025 -0.037 0.041
0.015 -0.035 0.045
0.025 -0.037 0.039
0.031 -0.037 0.051
0.035 -0.035 0.039
0.037 -0.035 0.059
0.041 -0.029 0.053
-0.003 0.005 0.079
0.041 -0.039 0.081
0.041 -0.029 0.049
0.045 -0.027 0.035
0.049 -0.027 0.035
0.039 -0.033 0.057
0.037 -0.019 0.083
0.001 -0.023 0.039
0.023 -0.037 0.097
0.003 -0.015 0.043
0.013 -0.031 0.053
0.031 -0.015 0.105
0.037 -0.015 0.101
0.011 -0.029 0.053
0.021 -0.031 0.097
0.025 -0.029 0.103
0.033 -0.021 0.105
0.039 -0.023 0.065
0.039 -0.015 0.055
0.043 -0.041 0.103
0.027 -0.035 0.101
0.035 -0.019 0.103
0.041 -0.035 0.101
0.039 -0.031 0.101
0.041 -0.027 0.097
0.029 -0.031 0.101
0.027 -0.021 0.105
0.025 -0.009 0.113
0.019 -0.005 0.105
0.037 -0.025 0.103
-0.021 0.009 0.067
-0.019 0.009 0.055
-0.009 0.025 0.095
-0.017 0.021 0.087
-0.017 0.025 0.087
-0.005 0.025 0.093
-0.013 0.031 0.089
-0.013 0.031 0.089
0.009 -0.005 0.101
0.011 -0.001 0.103
0.023 -0.001 0.109
0.023 -0.001 0.109
-0.005 -0.013 0.035
0.011 -0.031 0.047
0.013 -0.027 0.055
0.001 -0.003 0.069
0.003 -0.007 0.057
0.019 -0.023 0.073
-0.001 -0.001 0.071
0.011 -0.007 0.089
0.021 -0.005 0.109
0.023 -0.011 0.111
-0.041 0.027 0.053
-0.041 0.019 0.043
-0.031 0.009 0.053
-0.031 0.015 0.047
-0.013 0.015 0.053
-0.035 0.035 0.059
-0.035 0.035 0.059
-0.027 0.013 0.057
-0.025 0.013 0.057
-0.015 0.017 0.053
-0.035 0.039 0.083
-0.013 0.035 0.037
-0.027 0.029 0.069
-0.037 0.031 0.061
-0.017 0.017 0.077
0.025 0.003 0.095
0.025 0.007 0.095
0.021 0.005 0.039
0.029 0.005 0.037
0.023 0.005 0.051
0.035 -0.005 0.041
0.029 -0.013 0.057
0.013 0.003 0.037
0.041 -0.019 0.045
0.039 -0.009 0.041
0.041 -0.013 0.047
0.033 -0.007 0.091
0.033 -0.011 0.077
0.039 -0.023 0.091
0.031 -0.001 0.105
-0.001 0.035 0.039
-0.015 0.027 0.045
-0.009 0.031 0.055
-0.015 0.025 0.047
-0.001 0.031 0.051
-0.027 0.025 0.047
-0.011 0.033 0.057
0.003 0.025 0.057
-0.003 0.033 0.071
-0.011 0.035 0.081
0.025 0.005 0.043
0.013 0.011 0.051
0.011 0.011 0.053
0.017 0.007 0.069
0.017 0.005 0.073
0.011 0.019 0.081
0.029 0.007 0.103
0.031 0.001 0.041
0.025 0.005 0.049
0.039 -0.023 0.065
0.031 -0.011 0.063
0.019 -0.007 0.061
0.041 -0.023 0.055
0.043 -0.035 0.095
0.035 -0.011 0.083
0.039 -0.021 0.095
0.037 -0.019 0.097
0.039 -0.025 0.083
0.037 -0.023 0.085
0.041 -0.033 0.101
0.031 0.003 0.101
0.003 0.035 0.039
-0.007 0.031 0.053
0.005 0.023 0.051
-0.003 0.033 0.043
0.001 0.029 0.051
0.005 0.033 0.037
-0.005 0.033 0.059
-0.007 0.035 0.063
-0.001 0.031 0.057
0.013 0.017 0.073
-0.003 0.019 0.067
-0.003 0.021 0.071
0.007 0.019 0.089
0.001 0.029 0.081
-0.023 0.039 0.073
0.029 0.005 0.037
0.017 0.013 0.067
0.011 0.007 0.087
0.041 -0.031 0.047
0.037 -0.019 0.061
0.031 -0.011 0.065
0.031 -0.027 0.073
0.033 -0.023 0.075
0.035 -0.007 0.095
0.039 -0.029 0.085
0.039 -0.035 0.105
0.023 -0.013 0.107
0.005 0.017 0.041
0.015 0.015 0.075
0.011 0.019 0.077
0.021 0.007 0.051
0.019 0.003 0.065
0.019 0.007 0.063
0.017 0.013 0.071
0.031 0.001 0.095
-0.001 0.027 0.089
0.001 0.029 0.085
-0.003 0.033 0.073
-0.003 0.033 0.069
0.005 0.015 0.043
0.007 0.027 0.041
0.009 0.021 0.081
0.003 0.021 0.091
0.031 0.001 0.101
0.041 -0.027 0.041
0.041 -0.025 0.043
0.033 -0.037 0.041
0.037 -0.029 0.035
0.037 -0.019 0.065
0.039 -0.031 0.063
0.041 -0.013 0.053
0.037 -0.017 0.063
0.043 -0.043 0.085
0.037 -0.031 0.065
0.037 -0.015 0.093
0.047 -0.023 0.041
0.037 -0.007 0.041
0.025 0.003 0.051
-0.001 0.029 0.061
0.031 -0.009 0.075
0.027 -0.001 0.081
0.035 -0.003 0.037
0.033 0.001 0.037
0.023 0.003 0.053
0.015 0.013 0.057
0.003 0.025 0.057
0.019 0.007 0.067
0.033 -0.007 0.089
0.031 0.003 0.089
-0.001 -0.009 0.045
0.019 -0.037 0.043
0.007 -0.021 0.049
0.009 -0.025 0.051
0.003 -0.009 0.055
0.005 0.009 0.091
0.011 -0.007 0.103
0.015 -0.019 0.091
0.003 -0.001 0.079
0.019 -0.005 0.109
0.019 -0.003 0.109
0.015 -0.009 0.109
-0.041 0.023 0.051
-0.021 0.023 0.075
-0.021 0.025 0.067
-0.017 0.021 0.085
-0.015 0.031 0.089
-0.015 0.025 0.089
-0.013 0.031 0.089
-0.007 0.021 0.093
0.001 0.003 0.053
-0.009 0.025 0.095
0.007 0.011 0.091
0.007 0.017 0.089
0.033 -0.037 0.049
0.023 -0.035 0.057
0.011 -0.037 0.045
0.015 -0.033 0.047
0.025 -0.037 0.055
0.019 -0.033 0.055
0.017 -0.031 0.057
0.027 -0.033 0.065
0.041 -0.021 0.047
0.043 -0.017 0.051
0.021 -0.027 0.103
0.019 -0.021 0.103
0.025 -0.027 0.105
-0.027 0.005 0.059
-0.015 0.003 0.043
-0.009 0.007 0.049
-0.027 0.003 0.053
0.021 -0.029 0.067
0.027 -0.033 0.067
0.041 -0.027 0.059
0.021 -0.027 0.071
0.025 -0.031 0.089
0.043 -0.039 0.103
0.007 -0.041 0.041
0.017 -0.033 0.049
0.031 -0.037 0.043
0.019 -0.017 0.065
0.015 -0.027 0.057
0.019 -0.017 0.057
0.025 -0.037 0.095
0.027 -0.031 0.089
0.023 -0.029 0.089
0.021 -0.027 0.091
0.011 -0.011 0.091
0.011 -0.007 0.093
0.025 -0.029 0.071
0.021 -0.027 0.071
0.021 -0.021 0.079
0.011 -0.009 0.101
-0.039 0.021 0.039
-0.017 0.023 0.053
-0.041 0.025 0.049
-0.017 0.021 0.087
0.001 -0.003 0.049
0.001 0.009 0.089
0.001 0.015 0.093
-0.003 -0.019 0.035
0.021 -0.033 0.057
0.025 -0.033 0.063
-0.001 -0.021 0.037
0.019 -0.019 0.059
-0.001 -0.007 0.043
0.019 -0.025 0.095
0.015 -0.013 0.103
0.019 -0.003 0.105
-0.039 0.023 0.037
-0.041 0.025 0.049
-0.037 0.029 0.041
-0.037 0.033 0.049
-0.041 0.027 0.053
-0.031 0.031 0.067
-0.015 0.021 0.089
-0.027 0.035 0.073
-0.033 0.043 0.083
-0.031 0.011 0.055
-0.027 0.011 0.061
-0.031 0.027 0.065
-0.003 0.007 0.073
-0.021 0.023 0.079
0.021 0.001 0.095
-0.019 0.027 0.083
-0.033 0.029 0.065
0.005 -0.027 0.043
0.007 -0.031 0.047
-0.003 0.033 0.073
-0.003 0.023 0.093
0.021 -0.033 0.097
0.019 -0.027 0.065
0.007 0.013 0.093
0.023 -0.025 0.105
0.025 -0.023 0.105
0.031 -0.001 0.107
0.023 -0.007 0.111
0.017 0.009 0.113
-0.037 0.025 0.037
-0.041 0.029 0.049
-0.041 0.025 0.051
-0.041 0.027 0.053
-0.041 0.027 0.053
-0.037 0.027 0.061
-0.035 0.035 0.059
-0.025 0.013 0.057
-0.011 0.029 0.049
-0.011 0.037 0.071
-0.021 0.013 0.071
-0.025 0.035 0.087
-0.037 0.041 0.087
-0.017 0.035 0.081
-0.023 0.039 0.071
-0.007 0.033 0.047
-0.011 0.037 0.069
-0.015 0.033 0.085
0.007 -0.039 0.039
0.005 -0.033 0.043
0.027 -0.035 0.037
0.025 -0.037 0.047
0.033 -0.037 0.049
0.007 -0.041 0.041
0.005 -0.033 0.037
0.015 -0.029 0.057
0.015 -0.029 0.057
0.017 -0.027 0.059
0.015 -0.007 0.063
0.033 -0.037 0.045
0.033 -0.037 0.047
0.027 -0.043 0.087
0.025 -0.037 0.087
0.033 -0.045 0.091
0.029 -0.023 0.077
0.015 -0.005 0.067
0.011 -0.011 0.093
0.029 -0.041 0.089
0.025 -0.039 0.099
0.011 -0.007 0.103
0.023 -0.013 0.107
0.031 -0.043 0.103
-0.019 0.005 0.045
-0.025 0.003 0.049
-0.029 0.005 0.045
-0.019 0.003 0.039
-0.015 0.021 0.089
0.019 -0.023 0.101
-0.001 -0.001 0.057
0.029 -0.037 0.055
0.033 -0.035 0.063
0.015 -0.041 0.035
0.013 -0.041 0.041
0.021 -0.033 0.035
0.015 -0.029 0.057
0.045 -0.027 0.035
0.037 -0.033 0.039
0.041 -0.031 0.049
0.029 -0.047 0.085
0.025 -0.009 0.113
-0.015 -0.007 0.033
-0.029 0.003 0.047
-0.029 0.003 0.047
-0.003 -0.017 0.037
-0.007 0.005 0.045
-0.013 -0.009 0.035
-0.011 -0.005 0.037
-0.017 0.003 0.045
-0.015 0.003 0.043
-0.023 0.003 0.051
0.001 -0.013 0.049
-0.011 0.015 0.057
-0.031 0.035 0.085
-0.017 0.017 0.081
0.035 -0.019 0.033
0.007 -0.013 0.055
0.005 -0.005 0.067
0.019 -0.019 0.081
-0.019 0.033 0.063
-0.017 0.035 0.067
0.027 0.007 0.041
0.011 0.015 0.063
0.035 -0.013 0.055
0.019 0.001 0.087
-0.013 0.035 0.081
0.009 0.021 0.075
0.027 -0.003 0.075
0.017 -0.005 0.097
0.009 -0.005 0.099
0.021 0.001 0.105
-0.033 0.033 0.043
-0.033 0.033 0.047
-0.021 0.021 0.047
-0.009 0.035 0.039
-0.015 0.017 0.051
-0.017 0.021 0.049
-0.013 0.037 0.071
-0.029 0.035 0.071
-0.031 0.043 0.083
-0.027 0.037 0.065
-0.023 0.039 0.073
-0.025 0.041 0.079
-0.023 0.039 0.083
-0.011 0.033 0.043
-0.009 0.033 0.043
-0.011 0.029 0.049
-0.003 0.031 0.047
-0.009 0.031 0.055
-0.003 0.031 0.049
0.011 0.017 0.071
-0.007 0.029 0.091
