0.011 -0.043 0.039
0.003 -0.025 0.037
0.005 -0.029 0.039
-0.001 -0.021 0.037
0.003 -0.033 0.033
0.009 -0.039 0.045
0.019 -0.033 0.053
0.025 -0.035 0.061
0.005 -0.031 0.045
0.003 -0.019 0.043
0.009 -0.043 0.039
-0.001 -0.011 0.047
0.005 -0.029 0.043
0.015 -0.017 0.055
0.019 -0.027 0.067
0.029 -0.039 0.047
0.017 -0.033 0.049
0.019 -0.025 0.069
0.021 -0.021 0.079
0.021 -0.029 0.089
0.021 -0.031 0.097
0.025 -0.039 0.101
0.019 -0.005 0.109
-0.027 0.011 0.041
-0.027 0.003 0.051
-0.019 0.005 0.049
-0.029 0.005 0.061
-0.029 0.007 0.047
-0.007 0.013 0.075
-0.025 0.031 0.071
-0.017 0.019 0.081
0.001 0.011 0.049
-0.005 0.011 0.053
-0.001 0.003 0.065
-0.003 0.013 0.059
0.001 0.005 0.087
0.013 -0.013 0.091
-0.003 0.013 0.091
0.017 -0.039 0.037
0.011 -0.041 0.035
0.021 -0.035 0.037
0.017 -0.039 0.041
0.029 -0.039 0.049
0.035 -0.031 0.035
0.041 -0.025 0.047
0.025 -0.037 0.053
0.041 -0.027 0.059
0.023 -0.029 0.071
0.033 -0.031 0.069
0.025 -0.019 0.081
0.043 -0.045 0.085
0.037 -0.019 0.083
0.043 -0.033 0.095
0.033 -0.003 0.091
0.035 -0.043 0.103
0.037 -0.015 0.099
0.029 -0.035 0.037
0.015 -0.039 0.043
0.019 -0.037 0.039
0.015 -0.039 0.041
-0.027 0.003 0.055
0.035 -0.037 0.053
0.037 -0.035 0.055
0.037 -0.033 0.061
0.039 -0.025 0.061
0.039 -0.033 0.043
0.041 -0.023 0.045
0.029 -0.037 0.057
0.039 -0.029 0.063
0.023 -0.027 0.073
0.035 -0.031 0.065
0.029 -0.029 0.073
0.041 -0.033 0.083
0.041 -0.039 0.089
0.033 -0.021 0.075
0.037 -0.025 0.081
0.039 -0.033 0.041
0.039 -0.025 0.035
0.041 -0.023 0.045
0.041 -0.021 0.047
0.041 -0.025 0.049
0.041 -0.025 0.055
0.039 -0.027 0.065
0.043 -0.037 0.083
0.039 -0.031 0.087
0.037 -0.019 0.087
0.025 -0.021 0.105
0.025 -0.015 0.105
0.009 -0.039 0.045
0.039 -0.041 0.105
0.037 -0.039 0.105
0.029 -0.039 0.101
0.029 -0.035 0.101
0.015 -0.017 0.095
0.041 -0.021 0.055
0.041 -0.019 0.055
0.043 -0.037 0.103
0.029 -0.017 0.105
0.035 -0.017 0.103
0.023 -0.011 0.111
0.029 -0.033 0.101
0.033 -0.029 0.103
0.019 -0.021 0.103
0.015 -0.009 0.107
0.021 -0.007 0.109
0.039 -0.031 0.101
0.035 -0.029 0.101
0.037 -0.019 0.103
0.019 -0.017 0.105
0.021 -0.015 0.105
0.019 -0.005 0.105
-0.021 0.009 0.067
-0.025 0.005 0.059
-0.021 0.007 0.061
-0.007 0.013 0.091
-0.025 0.009 0.065
-0.027 0.025 0.055
-0.031 0.023 0.059
-0.019 0.025 0.083
-0.001 0.011 0.091
0.003 0.023 0.091
-0.025 0.009 0.065
0.001 -0.001 0.077
-0.009 0.011 0.087
-0.019 0.027 0.083
-0.001 0.011 0.091
0.001 0.015 0.095
-0.017 0.023 0.087
-0.021 0.033 0.081
0.017 -0.011 0.107
0.011 0.007 0.089
0.009 0.005 0.087
0.023 -0.001 0.109
0.009 0.011 0.091
0.005 -0.023 0.047
0.001 -0.007 0.049
0.017 -0.031 0.057
0.019 -0.029 0.061
-0.001 -0.001 0.071
0.017 -0.015 0.055
0.019 -0.013 0.057
0.003 -0.005 0.067
0.001 -0.003 0.069
-0.001 0.001 0.075
0.023 -0.035 0.085
0.027 -0.037 0.089
0.031 -0.043 0.091
0.023 -0.029 0.071
0.021 -0.023 0.077
0.015 -0.017 0.083
-0.001 0.003 0.081
0.011 0.001 0.081
0.017 -0.021 0.091
0.009 -0.005 0.093
0.009 0.001 0.101
0.021 -0.003 0.101
-0.037 0.015 0.043
-0.039 0.021 0.053
-0.033 0.019 0.053
-0.039 0.021 0.051
-0.029 0.011 0.059
-0.035 0.035 0.057
-0.001 0.003 0.079
-0.013 0.015 0.077
-0.019 0.019 0.075
-0.009 0.017 0.091
-0.037 0.043 0.081
-0.029 0.037 0.069
-0.035 0.041 0.083
-0.033 0.035 0.065
-0.023 0.009 0.065
-0.019 0.019 0.069
-0.019 0.021 0.079
-0.021 0.023 0.071
-0.017 0.025 0.087
-0.013 0.029 0.091
0.017 0.003 0.111
0.025 0.001 0.049
0.027 0.001 0.043
0.037 -0.017 0.067
0.015 0.009 0.049
0.035 -0.001 0.037
0.031 0.003 0.035
0.017 0.013 0.063
0.047 -0.015 0.035
0.043 -0.017 0.041
0.037 -0.005 0.035
0.041 -0.029 0.057
0.037 -0.009 0.051
0.019 0.001 0.085
0.037 -0.025 0.087
0.037 -0.013 0.095
0.035 -0.003 0.105
-0.027 0.031 0.043
-0.033 0.033 0.049
-0.037 0.033 0.051
-0.009 0.031 0.053
-0.001 0.031 0.049
-0.001 0.031 0.055
-0.019 0.031 0.061
-0.013 0.035 0.065
-0.005 0.031 0.055
-0.011 0.035 0.063
-0.029 0.033 0.035
-0.025 0.033 0.059
0.001 0.021 0.073
0.001 0.029 0.081
-0.003 0.033 0.073
-0.035 0.045 0.081
-0.021 0.035 0.065
-0.021 0.035 0.067
-0.021 0.039 0.077
0.013 0.007 0.043
0.023 0.007 0.045
0.005 0.015 0.063
0.019 0.009 0.053
0.005 0.019 0.049
0.001 0.027 0.089
0.017 0.009 0.111
0.039 -0.007 0.037
0.041 -0.023 0.047
0.035 -0.005 0.041
0.027 -0.009 0.053
0.035 -0.003 0.039
0.031 -0.013 0.055
0.031 -0.013 0.055
0.023 0.005 0.053
0.019 -0.003 0.061
0.021 -0.009 0.057
0.041 -0.029 0.043
0.039 -0.019 0.059
0.017 0.001 0.071
0.015 0.001 0.073
0.027 -0.005 0.071
0.025 -0.001 0.079
0.037 -0.017 0.085
0.033 -0.009 0.091
0.035 -0.021 0.073
0.035 -0.017 0.073
0.037 -0.019 0.083
0.041 -0.023 0.093
0.039 -0.029 0.099
0.001 0.017 0.033
-0.001 0.031 0.055
0.003 0.027 0.047
-0.007 0.033 0.045
0.009 0.031 0.039
-0.001 0.031 0.055
-0.001 0.033 0.041
-0.003 0.023 0.069
-0.025 0.033 0.083
0.005 0.015 0.041
0.011 0.009 0.087
0.011 0.017 0.083
0.039 -0.009 0.045
0.035 -0.037 0.055
0.037 -0.033 0.063
0.045 -0.019 0.039
0.027 -0.001 0.045
0.033 -0.013 0.067
0.043 -0.041 0.087
0.043 -0.035 0.095
0.039 -0.033 0.089
0.029 -0.007 0.073
0.029 -0.005 0.079
0.037 -0.021 0.089
0.037 -0.019 0.085
0.037 -0.017 0.103
0.039 -0.027 0.085
0.043 -0.029 0.097
0.041 -0.023 0.093
0.035 -0.007 0.097
0.023 -0.021 0.105
0.035 -0.007 0.105
0.033 -0.001 0.107
0.035 -0.013 0.103
0.015 0.011 0.051
0.005 0.017 0.051
0.025 0.001 0.051
0.007 0.025 0.045
0.009 0.023 0.043
0.017 0.007 0.071
-0.003 0.025 0.071
-0.001 0.027 0.065
-0.005 0.033 0.075
-0.001 0.031 0.083
0.031 0.003 0.037
0.019 0.009 0.053
0.001 0.019 0.059
0.009 0.031 0.039
0.013 0.017 0.071
0.045 -0.029 0.035
0.031 -0.015 0.031
0.013 -0.041 0.043
0.033 -0.037 0.057
0.041 -0.031 0.047
0.035 -0.037 0.051
0.041 -0.025 0.055
0.045 -0.027 0.037
0.041 -0.033 0.085
0.037 -0.019 0.067
0.037 -0.013 0.093
0.037 -0.015 0.093
0.035 -0.019 0.073
0.037 -0.019 0.081
0.043 -0.033 0.095
0.043 -0.039 0.099
0.033 0.001 0.037
0.039 -0.021 0.063
0.007 0.029 0.043
0.003 0.025 0.057
0.005 0.023 0.089
-0.003 0.031 0.073
0.013 0.015 0.081
0.013 0.013 0.081
0.029 0.003 0.043
0.041 -0.017 0.055
0.023 0.001 0.053
0.025 0.003 0.051
0.017 0.001 0.071
0.013 0.017 0.077
0.033 -0.007 0.087
0.035 -0.003 0.107
-0.017 -0.005 0.035
0.005 -0.035 0.037
0.023 -0.037 0.051
0.007 -0.035 0.043
0.005 -0.029 0.043
-0.001 -0.007 0.041
-0.001 -0.011 0.047
0.001 -0.007 0.047
0.019 -0.017 0.057
0.017 -0.033 0.049
0.029 -0.033 0.065
0.029 -0.039 0.089
0.031 -0.043 0.091
0.031 -0.035 0.089
0.027 -0.023 0.077
0.009 -0.005 0.069
0.017 -0.015 0.071
0.019 -0.005 0.073
0.019 -0.027 0.087
0.017 -0.023 0.085
0.011 -0.009 0.089
0.023 -0.031 0.089
0.015 -0.017 0.105
0.013 -0.011 0.109
-0.013 0.003 0.043
-0.021 0.003 0.045
-0.029 0.011 0.043
-0.025 0.003 0.049
-0.003 0.005 0.073
-0.009 0.015 0.075
-0.031 0.037 0.079
-0.003 0.005 0.069
-0.009 0.013 0.089
-0.015 0.023 0.089
0.009 0.001 0.103
-0.001 -0.001 0.063
0.007 -0.039 0.037
0.005 -0.031 0.045
-0.031 0.005 0.053
0.005 -0.023 0.043
0.005 -0.023 0.045
0.003 -0.019 0.043
-0.001 -0.007 0.041
0.031 -0.049 0.087
0.027 -0.045 0.083
0.003 -0.005 0.067
0.015 -0.015 0.077
0.017 -0.001 0.083
0.019 -0.023 0.071
0.017 -0.013 0.073
0.015 -0.015 0.075
0.019 -0.027 0.087
0.009 0.001 0.095
0.023 -0.035 0.097
0.027 -0.035 0.101
0.023 -0.005 0.113
0.019 -0.025 0.099
-0.029 0.011 0.043
-0.033 0.013 0.045
-0.031 0.011 0.037
-0.039 0.023 0.037
-0.033 0.029 0.037
-0.041 0.025 0.051
-0.031 0.005 0.053
-0.031 0.007 0.053
-0.035 0.035 0.057
-0.021 0.025 0.077
-0.001 0.015 0.093
-0.029 0.035 0.071
-0.035 0.039 0.085
-0.029 0.005 0.045
-0.013 0.015 0.065
-0.027 0.009 0.063
-0.017 0.019 0.081
0.025 0.003 0.095
0.025 0.005 0.095
-0.017 0.027 0.085
0.027 0.009 0.101
0.007 -0.039 0.033
0.013 -0.041 0.035
0.031 -0.037 0.041
0.047 -0.023 0.041
0.015 -0.005 0.067
0.025 -0.031 0.069
0.027 -0.025 0.075
0.017 -0.025 0.085
0.023 -0.025 0.105
0.017 -0.019 0.101
0.029 -0.043 0.101
-0.031 0.013 0.033
-0.005 0.001 0.037
-0.001 0.011 0.049
-0.003 0.011 0.053
-0.027 0.027 0.063
-0.001 0.001 0.075
-0.007 0.009 0.077
-0.021 0.011 0.069
-0.021 0.023 0.071
-0.011 0.019 0.091
-0.011 0.021 0.091
-0.025 0.029 0.067
0.007 -0.033 0.045
0.011 -0.043 0.043
0.003 0.003 0.083
0.009 -0.003 0.087
0.021 -0.029 0.095
-0.001 -0.001 0.059
0.031 -0.027 0.031
0.029 -0.033 0.033
0.035 -0.029 0.033
0.009 -0.041 0.037
0.015 -0.033 0.047
0.031 -0.039 0.049
0.017 -0.039 0.033
0.019 -0.037 0.035
0.009 -0.027 0.049
0.013 -0.031 0.049
0.035 -0.031 0.035
0.039 -0.025 0.035
0.041 -0.031 0.047
0.027 -0.047 0.085
0.011 -0.005 0.067
0.017 -0.019 0.075
0.019 -0.025 0.071
0.019 -0.027 0.087
0.023 -0.029 0.093
0.039 -0.033 0.093
0.029 -0.041 0.097
0.013 -0.013 0.099
-0.035 0.013 0.037
-0.029 0.005 0.045
-0.035 0.015 0.047
-0.017 0.003 0.047
0.011 -0.043 0.041
-0.019 0.003 0.041
-0.009 0.005 0.043
-0.027 0.003 0.049
-0.023 0.005 0.059
0.015 -0.039 0.043
-0.023 0.009 0.063
-0.021 0.009 0.065
0.001 -0.003 0.067
-0.001 -0.001 0.071
-0.017 0.011 0.069
-0.009 0.015 0.091
-0.031 0.035 0.085
-0.003 0.003 0.073
0.023 -0.033 0.035
0.037 -0.031 0.037
0.017 -0.037 0.043
0.009 -0.005 0.071
0.007 -0.003 0.075
0.017 0.003 0.111
-0.015 0.025 0.051
-0.015 0.027 0.053
-0.019 0.031 0.059
0.027 0.007 0.037
0.025 0.005 0.045
0.035 -0.007 0.047
0.001 0.029 0.059
-0.017 0.031 0.089
0.017 0.001 0.089
-0.015 0.033 0.083
0.019 0.001 0.095
0.021 0.001 0.095
-0.001 0.029 0.087
0.009 -0.005 0.099
0.025 0.001 0.097
0.015 0.011 0.111
-0.041 0.027 0.051
-0.035 0.029 0.039
-0.037 0.029 0.041
-0.037 0.033 0.049
-0.031 0.033 0.049
-0.023 0.033 0.039
-0.021 0.035 0.035
-0.013 0.033 0.059
-0.033 0.035 0.059
-0.015 0.035 0.071
-0.027 0.039 0.087
-0.035 0.041 0.085
-0.033 0.043 0.075
-0.023 0.037 0.085
-0.011 0.029 0.049
0.027 0.007 0.035
0.027 0.007 0.041
-0.009 0.031 0.053
-0.003 0.033 0.077
0.021 0.001 0.105
