0.021 0.007 0.051
-0.007 -0.003 0.039
0.017 0.009 0.051
0.019 0.009 0.053
0.019 0.009 0.055
-0.007 -0.003 0.039
0.017 0.011 0.057
0.019 0.009 0.057
0.015 0.015 0.075
0.037 -0.009 0.051
0.037 -0.009 0.051
0.025 0.005 0.049
0.037 -0.007 0.045
0.031 -0.003 0.043
0.037 -0.007 0.041
0.023 0.007 0.047
0.023 0.007 0.045
0.029 0.003 0.043
0.025 0.005 0.041
0.023 0.007 0.039
0.033 -0.001 0.039
0.035 -0.001 0.033
0.031 -0.011 0.053
0.029 -0.011 0.053
0.027 -0.009 0.053
0.037 -0.011 0.053
0.031 -0.013 0.055
0.031 -0.013 0.059
0.039 -0.009 0.051
0.039 -0.011 0.053
0.041 -0.011 0.051
0.041 -0.013 0.047
0.043 -0.015 0.049
0.043 -0.019 0.051
0.039 -0.017 0.057
0.035 -0.015 0.061
0.037 -0.017 0.067
0.037 -0.019 0.069
0.037 -0.021 0.067
0.037 -0.023 0.069
0.041 -0.023 0.045
0.041 -0.025 0.049
0.041 -0.029 0.047
0.041 -0.031 0.053
0.041 -0.029 0.053
0.041 -0.029 0.057
0.041 -0.027 0.059
0.039 -0.031 0.059
0.023 -0.007 0.055
0.025 -0.001 0.053
0.031 -0.007 0.049
0.033 -0.007 0.049
0.031 -0.007 0.049
0.031 -0.007 0.047
0.025 0.005 0.051
0.025 0.003 0.049
0.021 0.007 0.055
0.027 -0.001 0.049
0.027 -0.005 0.051
0.029 -0.011 0.061
0.023 -0.011 0.057
0.021 0.007 0.057
0.021 -0.001 0.061
0.035 -0.007 0.049
0.029 -0.005 0.045
0.033 -0.003 0.043
0.017 0.009 0.051
0.019 0.007 0.049
0.021 0.007 0.041
0.017 0.007 0.045
0.019 0.007 0.043
0.029 0.001 0.043
0.033 -0.007 0.047
0.033 -0.011 0.069
0.031 -0.009 0.071
0.021 0.005 0.063
0.019 0.009 0.061
0.017 0.013 0.063
0.015 0.013 0.061
0.017 0.011 0.065
0.019 0.009 0.067
0.017 0.013 0.067
0.015 0.013 0.065
0.019 0.001 0.065
0.017 0.011 0.067
0.019 0.001 0.065
0.027 -0.011 0.053
0.023 -0.007 0.055
0.029 -0.007 0.051
0.025 -0.001 0.051
0.025 -0.001 0.053
0.025 -0.011 0.061
0.019 -0.009 0.059
0.019 -0.009 0.059
0.023 -0.011 0.057
0.021 -0.009 0.057
0.029 -0.013 0.057
0.029 -0.011 0.063
0.029 -0.009 0.065
0.031 -0.011 0.065
0.043 -0.019 0.041
0.043 -0.015 0.041
0.041 -0.027 0.043
0.041 -0.025 0.043
0.041 -0.013 0.045
0.049 -0.017 0.039
0.037 -0.005 0.037
0.041 -0.011 0.039
0.039 -0.009 0.045
0.041 -0.013 0.043
0.037 -0.007 0.047
0.041 -0.027 0.053
0.041 -0.021 0.055
0.039 -0.027 0.063
0.035 -0.015 0.059
0.041 -0.013 0.053
0.039 -0.011 0.053
0.043 -0.015 0.051
0.035 -0.015 0.059
0.035 -0.021 0.071
0.043 -0.029 0.095
0.037 -0.015 0.093
0.037 -0.011 0.095
0.039 -0.019 0.095
0.039 -0.019 0.095
0.039 -0.023 0.101
0.039 -0.039 0.089
0.041 -0.037 0.089
0.043 -0.039 0.087
0.041 -0.043 0.089
0.043 -0.039 0.087
0.037 -0.033 0.089
0.041 -0.037 0.087
0.041 -0.035 0.085
0.043 -0.031 0.099
0.039 -0.045 0.093
0.041 -0.027 0.097
0.043 -0.033 0.097
0.033 -0.017 0.077
0.035 -0.019 0.073
0.033 -0.023 0.075
0.029 -0.005 0.077
0.029 -0.005 0.077
0.029 -0.003 0.081
0.035 -0.011 0.083
0.031 -0.007 0.081
0.031 -0.009 0.081
0.031 0.001 0.085
0.033 -0.003 0.087
0.033 -0.007 0.085
0.033 -0.001 0.089
0.015 0.015 0.075
0.015 0.011 0.075
0.017 0.003 0.073
0.017 0.005 0.073
0.017 -0.001 0.073
0.013 0.011 0.081
0.013 0.011 0.083
0.015 0.009 0.079
0.011 0.009 0.085
0.017 0.001 0.079
0.025 -0.003 0.075
0.029 -0.009 0.067
0.031 -0.009 0.073
0.019 -0.003 0.071
0.025 -0.003 0.073
0.019 -0.003 0.071
0.029 -0.007 0.071
0.031 -0.009 0.077
0.021 -0.001 0.077
0.023 -0.001 0.077
0.021 0.001 0.081
0.021 0.001 0.083
0.029 -0.005 0.077
0.031 -0.007 0.077
0.035 -0.007 0.093
0.037 -0.011 0.095
0.037 -0.019 0.087
0.035 -0.011 0.093
0.035 -0.007 0.093
0.033 0.001 0.097
0.035 -0.013 0.089
0.035 -0.011 0.089
0.037 -0.013 0.097
0.037 -0.019 0.099
0.033 -0.005 0.101
0.037 -0.011 0.095
0.035 -0.009 0.095
0.037 -0.013 0.099
0.029 0.007 0.089
0.021 0.001 0.087
0.027 0.009 0.103
0.015 -0.003 0.097
0.027 0.009 0.101
0.013 -0.001 0.095
0.013 -0.001 0.095
0.033 -0.009 0.087
0.029 0.007 0.087
0.037 -0.027 0.069
0.039 -0.027 0.065
0.039 -0.025 0.065
0.037 -0.027 0.069
0.033 -0.021 0.075
0.033 -0.015 0.077
0.035 -0.015 0.073
0.039 -0.031 0.087
0.037 -0.021 0.089
0.037 -0.027 0.087
0.037 -0.021 0.083
0.035 -0.015 0.087
0.035 -0.013 0.087
0.039 -0.019 0.093
0.037 -0.013 0.093
0.037 -0.013 0.097
0.035 -0.011 0.085
0.033 -0.007 0.085
0.035 -0.011 0.097
0.033 -0.001 0.091
0.037 -0.031 0.103
0.039 -0.031 0.101
0.033 -0.023 0.105
0.035 -0.023 0.103
0.033 -0.029 0.103
0.039 -0.033 0.103
0.037 -0.035 0.107
0.039 -0.023 0.101
0.039 -0.029 0.099
0.041 -0.037 0.103
0.037 -0.035 0.107
0.033 -0.033 0.105
0.039 -0.035 0.105
0.025 -0.005 0.111
0.033 -0.015 0.105
0.033 -0.023 0.105
0.027 -0.017 0.105
0.027 -0.007 0.109
0.029 -0.017 0.105
0.031 -0.023 0.105
0.027 -0.007 0.111
0.027 -0.011 0.109
0.033 -0.015 0.105
0.025 -0.003 0.105
0.025 -0.003 0.105
0.015 -0.003 0.097
0.013 -0.003 0.101
0.035 -0.003 0.107
0.025 -0.003 0.105
0.031 0.003 0.099
0.031 -0.001 0.103
0.033 -0.003 0.103
0.033 -0.003 0.103
0.025 -0.003 0.107
0.031 -0.013 0.105
0.033 -0.003 0.109
0.021 0.005 0.109
0.023 0.001 0.107
0.023 -0.003 0.109
0.035 -0.003 0.107
0.039 -0.023 0.103
0.039 -0.021 0.101
0.039 -0.031 0.101
0.037 -0.029 0.101
0.035 -0.009 0.097
0.035 -0.003 0.105
-0.015 0.031 0.043
-0.003 0.031 0.047
-0.017 0.035 0.037
-0.009 0.035 0.037
0.007 0.031 0.041
0.009 0.031 0.041
0.007 0.033 0.041
0.009 0.031 0.041
-0.021 0.035 0.031
-0.023 0.025 0.043
-0.023 0.029 0.043
-0.029 0.033 0.039
-0.029 0.029 0.051
-0.031 0.033 0.051
-0.031 0.033 0.045
-0.033 0.033 0.047
-0.031 0.033 0.049
-0.015 0.033 0.061
-0.027 0.035 0.057
-0.021 0.035 0.067
-0.019 0.035 0.069
-0.017 0.035 0.069
-0.023 0.037 0.067
-0.025 0.037 0.065
-0.023 0.039 0.069
0.001 0.029 0.057
0.005 0.023 0.051
0.003 0.027 0.055
-0.003 0.031 0.049
-0.009 0.031 0.049
-0.005 0.033 0.049
-0.001 0.031 0.047
0.001 0.029 0.047
-0.001 0.031 0.063
0.001 0.029 0.059
0.001 0.027 0.059
0.001 0.021 0.061
-0.005 0.033 0.061
-0.001 0.031 0.061
-0.001 0.029 0.061
-0.003 0.003 0.035
-0.003 0.001 0.033
0.001 0.029 0.047
0.009 0.025 0.043
0.005 0.017 0.043
0.003 0.015 0.055
-0.001 0.031 0.049
-0.003 0.031 0.049
-0.021 0.031 0.039
-0.021 0.031 0.039
-0.009 0.033 0.057
-0.007 0.033 0.057
-0.005 0.031 0.055
-0.023 0.023 0.047
-0.007 0.031 0.053
-0.027 0.027 0.045
-0.025 0.027 0.043
-0.031 0.031 0.041
-0.023 0.025 0.043
-0.015 0.031 0.043
-0.003 0.035 0.041
0.003 0.031 0.041
-0.011 0.031 0.045
-0.003 0.033 0.043
-0.001 0.031 0.045
-0.001 0.027 0.067
0.001 0.025 0.063
-0.003 0.033 0.071
-0.005 0.035 0.071
-0.001 0.027 0.065
-0.001 0.027 0.067
-0.003 0.033 0.069
-0.001 0.029 0.075
-0.003 0.033 0.071
-0.003 0.033 0.073
-0.003 0.033 0.077
-0.003 0.033 0.077
-0.001 0.029 0.073
0.003 0.023 0.059
-0.001 0.027 0.065
0.003 0.015 0.055
0.003 0.021 0.059
0.001 0.017 0.059
-0.001 0.025 0.067
-0.001 0.025 0.067
-0.001 0.019 0.063
-0.009 0.035 0.061
-0.013 0.035 0.065
-0.005 0.035 0.073
-0.019 0.033 0.063
-0.017 0.033 0.063
-0.021 0.035 0.067
-0.017 0.035 0.069
-0.009 0.035 0.069
-0.011 0.035 0.065
-0.001 0.029 0.065
-0.005 0.033 0.057
-0.005 0.033 0.057
-0.007 0.031 0.051
-0.005 0.033 0.059
-0.003 0.031 0.053
-0.003 0.029 0.067
-0.001 0.023 0.065
-0.007 0.035 0.065
-0.003 0.031 0.059
0.001 0.029 0.059
-0.031 0.033 0.047
-0.025 0.033 0.039
-0.021 0.033 0.039
-0.031 0.033 0.045
-0.003 0.035 0.041
-0.001 0.033 0.041
-0.009 0.035 0.061
-0.009 0.035 0.063
-0.009 0.035 0.065
0.001 0.027 0.079
0.001 0.029 0.083
0.013 0.017 0.077
0.011 0.019 0.077
0.011 0.017 0.081
0.003 0.027 0.085
0.007 0.023 0.079
-0.007 0.035 0.075
-0.003 0.031 0.079
-0.021 0.037 0.071
-0.017 0.035 0.071
-0.021 0.039 0.075
-0.019 0.035 0.075
-0.005 0.033 0.085
-0.005 0.031 0.087
-0.021 0.037 0.077
-0.003 0.019 0.065
-0.001 0.025 0.065
-0.001 0.027 0.073
-0.001 0.029 0.087
0.001 0.027 0.077
0.001 0.025 0.075
-0.001 0.029 0.075
0.005 0.015 0.091
0.003 0.023 0.091
0.007 0.021 0.087
0.003 0.017 0.093
0.003 0.017 0.093
-0.009 0.031 0.089
-0.007 0.031 0.089
-0.005 0.027 0.091
-0.003 0.029 0.089
-0.001 0.031 0.085
-0.001 0.029 0.087
-0.003 0.023 0.095
-0.001 0.021 0.095
-0.003 0.023 0.095
-0.001 0.021 0.095
-0.011 0.029 0.091
-0.003 0.027 0.091
-0.029 0.043 0.081
-0.029 0.041 0.085
-0.033 0.041 0.087
-0.025 0.039 0.073
-0.017 0.035 0.067
-0.027 0.041 0.079
-0.019 0.035 0.075
-0.015 0.035 0.077
-0.027 0.041 0.075
-0.023 0.041 0.077
-0.005 0.035 0.071
-0.011 0.037 0.075
-0.007 0.035 0.075
-0.011 0.037 0.075
-0.025 0.039 0.085
-0.027 0.041 0.083
-0.023 0.037 0.085
-0.031 0.039 0.087
-0.023 0.033 0.081
-0.021 0.035 0.081
-0.023 0.039 0.081
-0.027 0.041 0.083
-0.031 0.043 0.083
-0.029 0.041 0.085
-0.005 0.033 0.083
0.033 0.001 0.033
0.005 0.015 0.041
0.015 0.011 0.053
0.017 0.009 0.047
0.017 0.009 0.049
0.005 0.017 0.045
0.023 0.007 0.041
0.033 0.003 0.035
0.029 0.005 0.035
0.021 0.007 0.043
0.023 0.007 0.043
0.019 0.007 0.047
0.021 0.007 0.049
0.027 0.007 0.041
0.025 0.003 0.049
0.009 0.025 0.043
0.007 0.031 0.037
0.009 0.027 0.039
0.005 0.021 0.043
0.005 0.023 0.049
0.007 0.027 0.045
0.013 0.011 0.053
0.011 0.011 0.051
0.003 0.013 0.051
0.003 0.015 0.053
0.003 0.015 0.055
0.015 0.011 0.053
0.013 0.015 0.067
0.025 0.005 0.053
0.019 0.009 0.051
0.025 0.005 0.051
0.019 0.009 0.063
0.005 0.019 0.053
0.003 0.017 0.055
0.003 0.025 0.053
0.003 0.025 0.057
0.009 0.019 0.073
0.019 0.005 0.067
0.017 0.001 0.069
0.017 0.013 0.069
0.009 0.019 0.073
0.011 0.009 0.087
0.011 0.015 0.085
0.009 0.001 0.097
0.007 0.013 0.093
0.009 0.011 0.091
0.017 0.001 0.083
0.021 0.001 0.081
0.029 0.007 0.087
0.019 0.003 0.091
0.029 0.007 0.093
0.029 0.007 0.089
0.029 0.005 0.089
0.029 0.007 0.097
0.029 0.007 0.095
0.009 0.019 0.087
0.007 0.023 0.085
0.011 0.019 0.083
0.003 0.027 0.083
0.009 0.001 0.101
0.031 0.001 0.101
0.029 0.007 0.097
0.029 0.007 0.097
0.029 0.005 0.103
0.029 0.007 0.103
0.029 0.007 0.103
0.027 0.009 0.101
0.021 0.003 0.107
