0.015 0.015 0.073
0.013 0.017 0.069
0.013 0.017 0.077
0.011 0.019 0.077
-0.001 0.017 0.061
-0.001 0.025 0.067
0.001 0.027 0.077
0.001 0.017 0.059
0.001 0.015 0.057
0.011 0.017 0.071
0.025 -0.003 0.073
0.021 -0.009 0.063
0.025 -0.005 0.071
0.021 -0.009 0.057
0.023 -0.011 0.055
0.021 0.005 0.059
0.035 -0.007 0.047
0.019 0.009 0.057
0.019 0.009 0.057
0.017 0.011 0.057
0.021 0.007 0.053
0.021 0.007 0.051
0.021 0.007 0.047
0.019 0.007 0.045
0.033 -0.005 0.045
0.029 -0.001 0.041
0.033 -0.001 0.039
0.021 -0.001 0.075
0.021 -0.001 0.075
0.021 -0.003 0.071
0.021 0.001 0.083
0.021 0.001 0.083
0.023 0.001 0.083
0.029 0.007 0.089
0.033 -0.011 0.069
0.029 -0.005 0.077
0.031 -0.007 0.079
0.033 -0.011 0.075
0.033 -0.011 0.077
0.037 -0.019 0.069
0.035 -0.011 0.083
0.033 -0.007 0.087
0.039 -0.017 0.057
0.041 -0.025 0.059
0.035 -0.023 0.073
0.017 0.009 0.075
0.019 0.001 0.067
0.017 0.011 0.073
0.019 0.009 0.067
0.019 0.001 0.079
0.021 0.001 0.083
0.015 -0.001 0.075
0.019 -0.001 0.075
0.015 0.009 0.077
0.015 0.005 0.077
0.029 -0.013 0.055
0.029 -0.011 0.053
0.029 -0.013 0.057
0.035 -0.013 0.055
0.031 -0.009 0.051
0.029 -0.005 0.049
0.019 0.009 0.063
0.015 0.013 0.059
0.015 0.013 0.059
0.013 0.015 0.061
0.013 0.017 0.071
0.031 -0.003 0.041
0.025 0.005 0.043
0.029 -0.003 0.043
0.017 0.001 0.079
0.027 0.009 0.095
0.015 0.001 0.073
0.019 -0.001 0.075
0.017 -0.001 0.071
0.027 0.007 0.087
0.021 -0.001 0.075
0.031 0.001 0.093
0.025 -0.003 0.073
0.029 0.005 0.087
0.017 -0.005 0.065
0.011 0.019 0.077
0.013 0.017 0.079
0.011 0.019 0.083
0.015 0.013 0.079
0.011 0.019 0.083
0.017 0.001 0.069
0.019 -0.003 0.063
0.025 -0.013 0.055
0.031 -0.013 0.055
0.029 -0.011 0.053
0.023 -0.005 0.055
0.023 -0.003 0.055
0.023 -0.001 0.055
0.027 -0.007 0.069
0.019 0.003 0.065
0.019 -0.001 0.065
0.041 -0.013 0.053
0.039 -0.009 0.051
0.043 -0.017 0.051
0.045 -0.023 0.041
0.043 -0.017 0.051
0.039 -0.009 0.049
0.039 -0.009 0.045
0.041 -0.013 0.041
0.043 -0.013 0.039
0.047 -0.019 0.039
0.045 -0.015 0.039
0.041 -0.021 0.053
0.041 -0.021 0.055
0.043 -0.017 0.051
0.041 -0.027 0.049
0.041 -0.027 0.051
0.039 -0.009 0.051
0.049 -0.015 0.037
0.047 -0.015 0.037
0.039 -0.009 0.043
0.039 -0.009 0.047
0.039 -0.009 0.049
0.041 -0.011 0.045
0.035 -0.005 0.043
0.033 -0.005 0.045
0.035 -0.007 0.047
0.041 -0.023 0.057
0.037 -0.017 0.059
0.033 -0.009 0.051
0.039 -0.011 0.053
0.037 -0.013 0.055
0.037 -0.023 0.103
0.035 -0.021 0.103
0.035 -0.031 0.103
0.031 -0.011 0.105
0.035 -0.015 0.105
0.033 -0.015 0.105
0.031 -0.013 0.105
0.031 -0.015 0.105
0.031 -0.025 0.105
0.033 -0.021 0.105
0.041 -0.037 0.103
0.039 -0.023 0.097
0.039 -0.019 0.095
0.041 -0.025 0.093
0.041 -0.035 0.087
0.041 -0.033 0.101
0.041 -0.035 0.101
0.031 0.003 0.101
0.035 -0.015 0.085
0.033 -0.001 0.099
0.027 0.009 0.103
0.031 0.001 0.101
0.027 0.005 0.103
0.033 -0.001 0.101
0.033 -0.001 0.095
0.011 0.015 0.085
0.017 0.005 0.075
0.021 0.001 0.089
0.011 0.009 0.087
0.007 0.013 0.093
0.019 0.003 0.091
0.025 -0.003 0.073
0.029 -0.007 0.069
0.017 0.001 0.069
0.031 -0.007 0.077
0.019 0.001 0.083
0.021 0.001 0.083
0.019 -0.001 0.075
0.021 0.001 0.087
0.019 0.001 0.085
0.021 0.001 0.089
0.021 0.001 0.081
0.029 0.007 0.087
0.029 -0.005 0.075
0.031 -0.007 0.075
0.025 -0.003 0.073
0.029 0.003 0.087
0.027 -0.009 0.107
0.031 -0.001 0.107
0.025 -0.001 0.099
0.023 -0.003 0.103
0.027 -0.005 0.103
0.033 -0.001 0.099
0.033 -0.001 0.101
0.027 -0.007 0.111
0.033 -0.015 0.105
0.025 -0.005 0.113
0.027 -0.009 0.109
0.035 -0.005 0.105
0.033 -0.001 0.109
0.029 -0.011 0.105
0.029 -0.009 0.105
0.031 -0.011 0.105
0.019 0.001 0.095
0.011 -0.001 0.089
0.015 -0.003 0.095
0.017 -0.003 0.095
0.031 0.003 0.091
0.033 -0.001 0.093
0.029 0.007 0.095
0.031 0.001 0.087
0.035 -0.017 0.073
0.035 -0.015 0.083
0.035 -0.013 0.083
0.033 -0.017 0.075
0.033 -0.011 0.073
0.035 -0.015 0.071
0.039 -0.027 0.085
0.037 -0.017 0.085
0.035 -0.015 0.087
0.037 -0.017 0.087
0.037 -0.017 0.103
0.037 -0.015 0.101
0.041 -0.027 0.097
0.039 -0.017 0.093
0.035 -0.011 0.085
0.033 -0.005 0.089
0.035 -0.007 0.099
0.035 -0.005 0.099
0.035 -0.007 0.095
0.037 -0.011 0.095
0.035 -0.007 0.099
0.033 -0.001 0.093
0.035 -0.007 0.093
0.027 -0.035 0.101
0.027 -0.035 0.101
0.033 -0.023 0.105
0.027 -0.035 0.101
0.041 -0.037 0.103
0.043 -0.039 0.103
0.017 -0.011 0.107
0.025 -0.023 0.105
0.023 -0.005 0.109
0.025 -0.007 0.115
0.023 -0.019 0.105
0.023 -0.005 0.115
0.023 -0.023 0.105
0.023 -0.021 0.105
0.019 0.001 0.111
0.015 -0.009 0.105
0.011 -0.001 0.097
0.021 -0.007 0.109
0.021 0.005 0.109
0.021 0.003 0.109
0.029 0.005 0.103
0.027 -0.007 0.111
0.023 -0.001 0.109
0.023 0.001 0.107
0.025 -0.003 0.107
0.025 -0.005 0.115
0.035 -0.021 0.103
0.033 -0.025 0.105
0.043 -0.031 0.099
0.035 -0.011 0.099
0.035 -0.007 0.103
0.035 -0.003 0.107
-0.007 0.035 0.065
-0.005 0.033 0.059
0.003 0.027 0.049
-0.015 0.031 0.043
-0.013 0.031 0.045
-0.011 0.033 0.043
-0.025 0.031 0.041
-0.011 0.033 0.043
-0.001 0.031 0.049
0.003 0.029 0.045
-0.011 0.035 0.037
-0.023 0.035 0.035
-0.019 0.035 0.069
-0.027 0.033 0.055
-0.025 0.039 0.071
-0.033 0.035 0.057
-0.035 0.035 0.059
-0.031 0.037 0.061
-0.031 0.035 0.053
-0.021 0.039 0.077
-0.027 0.041 0.079
-0.033 0.035 0.063
-0.023 0.041 0.079
-0.023 0.041 0.079
-0.025 0.041 0.081
-0.027 0.041 0.079
-0.003 0.033 0.073
-0.003 0.033 0.077
-0.005 0.035 0.073
-0.025 0.025 0.045
-0.011 0.037 0.073
-0.007 0.033 0.059
-0.007 0.035 0.075
-0.011 0.033 0.085
-0.011 0.037 0.075
-0.015 0.035 0.075
-0.009 0.035 0.073
-0.001 0.025 0.065
-0.001 0.027 0.067
0.003 0.019 0.055
0.003 0.021 0.059
0.003 0.023 0.059
-0.001 0.025 0.067
-0.001 0.019 0.063
-0.003 0.033 0.073
0.001 0.023 0.061
0.001 0.021 0.061
0.003 0.019 0.057
-0.025 0.027 0.043
-0.021 0.025 0.043
-0.023 0.029 0.043
-0.007 0.035 0.063
-0.029 0.033 0.039
-0.009 0.035 0.065
-0.009 0.035 0.067
-0.029 0.031 0.043
-0.029 0.031 0.047
-0.021 0.025 0.043
-0.005 0.033 0.059
-0.001 0.033 0.043
0.001 0.033 0.041
-0.007 0.035 0.065
-0.013 0.031 0.045
-0.009 0.033 0.045
-0.005 0.033 0.059
-0.001 0.031 0.045
-0.003 0.031 0.045
-0.011 0.033 0.087
-0.011 0.033 0.087
-0.011 0.033 0.087
-0.001 0.031 0.085
-0.005 0.033 0.085
-0.011 0.035 0.081
-0.009 0.035 0.081
-0.013 0.029 0.091
-0.011 0.031 0.089
-0.015 0.033 0.087
-0.001 0.031 0.081
0.003 0.019 0.057
0.001 0.019 0.061
0.009 0.021 0.083
0.007 0.023 0.085
-0.001 0.031 0.079
-0.001 0.031 0.079
-0.003 0.031 0.083
0.001 0.019 0.061
-0.017 0.035 0.069
-0.019 0.033 0.063
-0.027 0.035 0.057
-0.011 0.035 0.065
-0.011 0.035 0.065
-0.011 0.035 0.077
-0.021 0.039 0.077
-0.021 0.039 0.075
-0.021 0.037 0.077
-0.021 0.039 0.077
-0.011 0.037 0.071
-0.013 0.037 0.073
-0.017 0.035 0.069
-0.007 0.035 0.071
-0.007 0.035 0.073
-0.001 0.021 0.063
-0.001 0.025 0.067
-0.011 0.035 0.065
-0.001 0.031 0.063
-0.035 0.035 0.055
-0.031 0.037 0.063
-0.035 0.035 0.059
-0.003 0.035 0.041
-0.005 0.033 0.045
-0.007 0.033 0.047
-0.029 0.035 0.055
-0.025 0.039 0.069
-0.013 0.035 0.065
-0.007 0.035 0.065
-0.005 0.033 0.059
-0.025 0.041 0.079
-0.007 0.031 0.089
-0.009 0.029 0.091
0.005 0.021 0.089
0.005 0.015 0.091
-0.007 0.027 0.093
-0.005 0.027 0.091
-0.007 0.033 0.087
-0.021 0.039 0.079
-0.017 0.035 0.073
-0.017 0.035 0.079
-0.019 0.035 0.077
-0.013 0.029 0.091
-0.013 0.029 0.091
-0.013 0.031 0.089
-0.005 0.031 0.087
0.001 0.029 0.083
-0.001 0.029 0.077
-0.001 0.029 0.065
-0.001 0.029 0.075
0.003 0.015 0.095
-0.003 0.023 0.093
-0.003 0.021 0.095
-0.001 0.023 0.093
-0.003 0.019 0.095
-0.003 0.019 0.095
-0.011 0.029 0.093
-0.011 0.029 0.093
-0.015 0.031 0.089
-0.015 0.033 0.087
-0.017 0.033 0.087
-0.015 0.031 0.089
-0.005 0.033 0.085
-0.015 0.025 0.089
-0.003 0.023 0.095
-0.007 0.031 0.089
-0.007 0.029 0.091
-0.027 0.041 0.077
-0.035 0.045 0.081
-0.033 0.043 0.079
-0.037 0.041 0.087
-0.025 0.041 0.079
-0.023 0.041 0.077
-0.013 0.037 0.071
-0.029 0.043 0.079
-0.021 0.037 0.079
-0.021 0.039 0.079
-0.025 0.041 0.075
-0.025 0.041 0.079
-0.011 0.035 0.065
-0.007 0.035 0.069
-0.005 0.035 0.071
-0.009 0.035 0.075
-0.015 0.035 0.077
-0.015 0.035 0.079
-0.005 0.033 0.075
-0.007 0.035 0.075
-0.017 0.033 0.087
-0.013 0.035 0.081
-0.011 0.033 0.085
0.011 0.017 0.067
0.013 0.015 0.061
0.013 0.011 0.053
0.015 0.011 0.051
0.005 0.017 0.045
0.005 0.021 0.053
0.011 0.011 0.051
0.029 0.005 0.037
0.029 0.005 0.039
0.029 0.005 0.039
0.005 0.023 0.045
0.005 0.019 0.041
0.005 0.027 0.045
0.009 0.029 0.041
0.009 0.029 0.039
0.009 0.031 0.039
0.007 0.029 0.043
0.007 0.033 0.041
0.009 0.031 0.041
0.003 0.017 0.055
0.003 0.017 0.053
0.007 0.015 0.061
0.003 0.015 0.055
0.011 0.011 0.053
0.009 0.021 0.077
0.011 0.017 0.067
0.019 0.009 0.053
0.019 0.009 0.053
0.021 0.007 0.053
0.021 0.003 0.059
0.021 0.005 0.063
0.017 0.011 0.067
0.019 0.009 0.065
0.017 0.013 0.063
0.003 0.021 0.057
0.003 0.021 0.059
0.001 0.021 0.061
0.001 0.021 0.061
0.033 0.001 0.037
0.005 0.037 0.037
0.007 0.035 0.035
0.005 0.037 0.035
0.007 0.023 0.083
0.013 0.017 0.071
0.013 0.017 0.073
0.009 0.011 0.091
0.013 0.005 0.081
0.015 0.015 0.075
0.013 0.013 0.081
0.019 0.007 0.067
0.019 0.009 0.067
0.019 0.009 0.065
0.017 0.013 0.071
0.017 0.013 0.071
0.005 0.025 0.079
0.009 0.021 0.075
0.009 0.019 0.071
0.007 0.023 0.079
0.011 0.019 0.075
0.003 0.027 0.081
0.013 0.005 0.085
0.013 0.009 0.083
0.013 0.015 0.081
0.011 0.013 0.087
0.007 0.013 0.093
0.003 0.017 0.093
0.007 0.017 0.089
0.025 0.003 0.087
0.029 0.007 0.089
0.019 0.003 0.091
0.029 0.007 0.095
0.027 0.009 0.095
0.029 0.007 0.089
0.029 0.005 0.095
0.031 0.005 0.097
0.003 0.027 0.081
0.003 0.027 0.085
0.003 0.021 0.091
0.005 0.019 0.091
0.001 0.019 0.095
0.019 0.001 0.097
0.019 0.003 0.111
0.019 0.007 0.111
