-0.005 -0.011 0.035
-0.015 -0.003 0.037
-0.001 -0.001 0.071
0.011 -0.039 0.033
0.005 -0.031 0.039
0.007 -0.027 0.037
-0.005 -0.013 0.035
-0.001 -0.019 0.037
-0.001 -0.013 0.045
0.007 -0.039 0.035
0.007 -0.039 0.039
0.007 -0.037 0.045
0.007 -0.037 0.043
0.009 -0.039 0.045
0.027 -0.037 0.045
0.021 -0.035 0.053
0.029 -0.037 0.055
0.023 -0.037 0.047
0.029 -0.039 0.047
0.035 -0.037 0.049
0.029 -0.035 0.063
0.001 -0.021 0.039
0.005 -0.027 0.045
0.009 -0.027 0.047
0.001 -0.017 0.041
0.003 -0.019 0.043
0.007 -0.033 0.045
0.003 -0.023 0.041
0.001 -0.017 0.041
0.001 -0.009 0.047
0.015 -0.031 0.055
0.011 -0.027 0.053
0.009 -0.025 0.051
0.015 -0.031 0.055
0.019 -0.027 0.063
0.017 -0.021 0.057
0.001 -0.013 0.049
0.011 -0.015 0.055
0.007 -0.011 0.057
0.009 -0.009 0.061
0.015 -0.015 0.055
0.011 -0.011 0.057
0.011 -0.007 0.065
0.013 -0.033 0.047
0.011 -0.031 0.047
0.013 -0.031 0.049
0.011 -0.029 0.049
0.017 -0.033 0.051
0.005 -0.023 0.047
0.009 -0.017 0.051
0.023 -0.035 0.057
0.025 -0.033 0.063
0.027 -0.047 0.083
0.027 -0.045 0.085
0.023 -0.035 0.083
0.025 -0.033 0.089
0.029 -0.035 0.089
0.031 -0.047 0.089
0.029 -0.043 0.089
0.029 -0.045 0.089
0.033 -0.045 0.091
0.035 -0.043 0.091
0.029 -0.031 0.069
0.021 -0.025 0.073
0.019 -0.021 0.075
0.019 -0.019 0.079
0.017 -0.017 0.079
0.009 -0.007 0.067
0.009 -0.007 0.067
0.007 -0.005 0.071
0.009 -0.005 0.071
0.009 -0.003 0.073
0.017 -0.007 0.075
0.015 -0.009 0.081
0.017 -0.003 0.081
0.015 -0.009 0.077
0.015 -0.009 0.081
0.015 -0.019 0.085
0.017 -0.021 0.085
0.021 -0.029 0.097
0.019 -0.027 0.097
0.021 -0.031 0.097
0.019 -0.021 0.093
0.017 -0.023 0.097
0.019 -0.023 0.095
0.015 -0.015 0.083
0.011 -0.011 0.091
0.009 -0.003 0.097
0.015 -0.005 0.085
0.011 -0.007 0.089
0.011 -0.009 0.095
0.009 -0.005 0.099
0.033 -0.031 0.069
0.019 -0.021 0.075
0.021 -0.029 0.089
0.027 -0.027 0.091
0.015 -0.017 0.089
0.013 -0.013 0.091
0.027 -0.041 0.099
0.027 -0.041 0.101
0.027 -0.035 0.101
0.029 -0.033 0.101
0.023 -0.035 0.099
0.021 -0.029 0.097
0.023 -0.031 0.099
0.025 -0.027 0.105
0.025 -0.027 0.105
0.029 -0.027 0.105
0.015 -0.015 0.099
0.013 -0.013 0.101
0.013 -0.011 0.103
0.009 -0.005 0.099
0.009 -0.001 0.103
0.015 -0.015 0.105
0.015 -0.015 0.105
0.013 -0.009 0.103
0.021 -0.009 0.109
0.023 -0.011 0.109
0.021 -0.005 0.109
0.019 -0.005 0.109
0.025 -0.009 0.113
0.023 -0.007 0.115
0.027 -0.029 0.103
0.029 -0.033 0.101
0.031 -0.027 0.105
0.017 -0.015 0.107
-0.025 0.005 0.041
-0.037 0.019 0.035
-0.033 0.013 0.045
-0.041 0.023 0.043
-0.041 0.019 0.043
-0.041 0.021 0.045
-0.041 0.029 0.049
-0.039 0.029 0.055
-0.035 0.023 0.059
-0.037 0.025 0.059
-0.035 0.025 0.061
-0.037 0.027 0.061
-0.035 0.029 0.063
-0.021 0.001 0.035
-0.025 0.005 0.039
-0.031 0.011 0.039
-0.029 0.003 0.047
-0.027 0.013 0.045
-0.029 0.007 0.047
-0.021 0.003 0.041
-0.019 0.003 0.041
-0.011 -0.003 0.039
-0.025 0.003 0.041
-0.029 0.005 0.047
-0.029 0.003 0.051
-0.015 0.003 0.047
-0.015 0.003 0.047
-0.031 0.007 0.055
-0.039 0.019 0.049
-0.023 0.015 0.045
-0.019 0.017 0.047
-0.039 0.025 0.053
-0.037 0.019 0.051
-0.041 0.023 0.049
-0.033 0.013 0.043
-0.031 0.007 0.049
-0.031 0.015 0.047
-0.019 0.017 0.047
-0.021 0.019 0.047
-0.033 0.019 0.053
-0.037 0.019 0.051
-0.033 0.021 0.055
-0.017 0.023 0.053
-0.029 0.005 0.061
-0.025 0.011 0.063
-0.031 0.005 0.055
-0.029 0.005 0.057
-0.003 0.013 0.055
-0.021 0.009 0.067
-0.037 0.021 0.053
-0.039 0.027 0.055
-0.039 0.025 0.057
-0.023 0.013 0.065
-0.017 0.017 0.063
-0.033 0.025 0.061
-0.031 0.027 0.065
-0.025 0.013 0.063
-0.027 0.027 0.063
-0.021 0.023 0.067
-0.039 0.029 0.053
-0.039 0.031 0.055
-0.039 0.031 0.057
-0.037 0.033 0.055
-0.041 0.025 0.049
-0.041 0.023 0.047
-0.041 0.021 0.049
-0.041 0.023 0.051
-0.035 0.031 0.063
-0.033 0.029 0.065
-0.019 0.011 0.069
-0.019 0.013 0.073
-0.017 0.017 0.071
-0.029 0.031 0.069
-0.021 0.023 0.075
-0.013 0.017 0.075
-0.003 0.009 0.089
-0.017 0.019 0.085
-0.017 0.021 0.087
-0.017 0.029 0.087
-0.013 0.019 0.089
-0.013 0.027 0.091
-0.011 0.029 0.093
-0.013 0.027 0.091
-0.037 0.039 0.087
-0.029 0.035 0.071
-0.027 0.033 0.073
-0.029 0.037 0.077
-0.023 0.033 0.077
-0.023 0.033 0.079
-0.031 0.037 0.079
-0.031 0.035 0.081
-0.033 0.037 0.083
-0.017 0.031 0.089
-0.029 0.003 0.051
-0.029 0.003 0.055
0.003 0.003 0.047
0.005 0.005 0.047
-0.023 0.003 0.051
0.001 -0.003 0.057
-0.031 0.007 0.051
-0.029 0.011 0.051
-0.021 0.021 0.047
-0.031 0.011 0.055
-0.029 0.005 0.061
-0.029 0.009 0.061
-0.027 0.013 0.061
0.001 0.003 0.051
-0.027 0.005 0.061
0.001 0.009 0.063
0.001 0.009 0.063
0.001 0.011 0.065
0.001 -0.005 0.061
-0.001 -0.001 0.063
0.003 -0.005 0.065
-0.027 0.013 0.061
-0.017 0.017 0.063
-0.017 0.017 0.067
-0.033 0.019 0.053
-0.001 0.011 0.069
-0.001 0.009 0.067
-0.003 0.011 0.071
-0.003 0.005 0.079
0.001 0.003 0.083
-0.005 0.007 0.083
-0.003 0.003 0.077
-0.013 0.015 0.087
-0.017 0.019 0.085
0.005 0.003 0.083
0.003 0.005 0.085
0.005 0.005 0.085
0.001 0.005 0.087
-0.001 0.005 0.085
0.005 0.009 0.091
0.027 0.007 0.087
0.009 -0.005 0.097
0.025 0.007 0.095
-0.007 0.013 0.091
0.019 -0.003 0.105
0.017 0.005 0.107
0.017 0.001 0.107
0.029 -0.037 0.055
0.031 -0.037 0.059
0.033 -0.037 0.057
0.031 -0.033 0.067
0.031 -0.035 0.063
0.035 -0.031 0.067
0.037 -0.035 0.045
0.039 -0.029 0.039
0.041 -0.027 0.041
0.039 -0.033 0.053
0.041 -0.031 0.055
0.041 -0.029 0.053
0.015 -0.041 0.035
0.031 -0.039 0.049
0.029 -0.039 0.051
0.025 -0.033 0.063
0.037 -0.035 0.041
0.039 -0.033 0.045
0.019 -0.037 0.041
0.013 -0.035 0.045
0.035 -0.037 0.053
0.039 -0.033 0.057
0.039 -0.033 0.057
0.039 -0.031 0.063
0.037 -0.029 0.067
0.037 -0.011 0.053
0.017 -0.033 0.053
0.027 -0.037 0.059
0.029 -0.035 0.063
0.033 -0.033 0.065
0.029 -0.035 0.063
0.025 -0.033 0.065
0.037 -0.023 0.067
0.039 -0.023 0.061
0.037 -0.027 0.069
0.037 -0.021 0.069
0.037 -0.017 0.067
0.039 -0.031 0.039
0.043 -0.027 0.037
0.041 -0.029 0.045
0.041 -0.017 0.043
0.041 -0.023 0.047
0.051 -0.021 0.037
0.045 -0.021 0.041
0.039 -0.033 0.049
0.039 -0.019 0.057
0.041 -0.013 0.053
0.039 -0.019 0.059
0.033 -0.049 0.085
0.039 -0.047 0.093
0.039 -0.047 0.087
0.039 -0.047 0.087
0.043 -0.041 0.087
0.043 -0.037 0.085
0.039 -0.049 0.091
0.037 -0.047 0.093
0.039 -0.041 0.091
0.037 -0.035 0.089
0.033 -0.029 0.071
0.043 -0.037 0.083
0.043 -0.039 0.085
0.041 -0.035 0.089
0.043 -0.031 0.095
0.039 -0.025 0.085
0.037 -0.021 0.085
0.043 -0.029 0.095
0.041 -0.027 0.097
0.041 -0.033 0.085
0.041 -0.025 0.093
0.041 -0.039 0.105
0.041 -0.037 0.103
0.039 -0.033 0.103
0.039 -0.033 0.103
0.039 -0.023 0.103
0.037 -0.023 0.103
0.035 -0.021 0.103
0.033 -0.005 0.087
0.035 -0.015 0.105
0.035 -0.009 0.101
0.033 -0.031 0.069
0.035 -0.029 0.069
0.037 -0.027 0.069
0.037 -0.017 0.067
0.033 -0.013 0.069
0.033 -0.017 0.075
0.041 -0.033 0.083
0.037 -0.021 0.085
0.037 -0.017 0.087
0.035 -0.011 0.087
0.033 -0.007 0.087
0.037 -0.041 0.105
0.043 -0.041 0.103
0.043 -0.041 0.103
0.033 -0.043 0.105
0.037 -0.039 0.105
0.035 -0.037 0.107
0.035 -0.035 0.107
0.031 -0.029 0.105
0.031 -0.025 0.105
0.023 -0.021 0.105
0.025 -0.017 0.105
0.027 -0.015 0.105
0.025 -0.019 0.105
0.027 -0.013 0.107
0.035 -0.009 0.103
0.035 -0.007 0.105
0.021 -0.017 0.105
0.027 -0.013 0.107
0.023 -0.003 0.109
0.033 -0.007 0.105
0.027 -0.007 0.111
0.039 -0.035 0.105
0.037 -0.029 0.101
0.043 -0.033 0.099
0.039 -0.023 0.097
0.033 -0.021 0.105
0.035 -0.007 0.103
0.035 -0.005 0.103
0.035 -0.007 0.105
0.035 -0.027 0.071
0.035 -0.023 0.073
0.033 -0.013 0.067
0.021 -0.001 0.059
0.025 -0.001 0.053
0.041 -0.033 0.083
0.041 -0.031 0.083
0.033 -0.021 0.075
0.039 -0.033 0.089
0.037 -0.025 0.087
0.037 -0.023 0.087
0.037 -0.019 0.085
0.041 -0.023 0.093
0.043 -0.033 0.095
0.043 -0.031 0.099
0.043 -0.031 0.097
0.043 -0.031 0.097
0.029 -0.031 0.069
0.033 -0.031 0.069
0.035 -0.027 0.071
0.039 -0.029 0.081
0.039 -0.029 0.083
0.037 -0.027 0.067
0.037 -0.019 0.065
0.041 -0.035 0.083
0.033 -0.025 0.073
0.035 -0.017 0.071
0.035 -0.017 0.073
0.033 -0.015 0.075
0.033 -0.015 0.077
0.023 0.003 0.053
0.027 -0.005 0.071
0.019 0.009 0.063
0.005 0.025 0.049
0.041 -0.039 0.089
0.037 -0.037 0.089
0.039 -0.037 0.095
0.045 -0.039 0.101
0.043 -0.033 0.097
0.033 -0.023 0.075
0.037 -0.023 0.081
0.039 -0.023 0.083
0.037 -0.021 0.087
0.037 -0.019 0.087
0.037 -0.019 0.089
0.031 -0.009 0.079
0.043 -0.029 0.095
0.033 -0.007 0.089
0.037 -0.021 0.083
0.019 0.005 0.069
0.017 0.011 0.067
0.001 0.027 0.059
0.015 0.015 0.071
0.033 -0.011 0.073
0.019 0.003 0.063
0.021 0.005 0.059
0.021 0.005 0.063
0.005 0.021 0.049
0.033 -0.003 0.091
0.017 0.013 0.071
0.043 -0.033 0.099
0.037 -0.025 0.101
0.039 -0.023 0.101
0.039 -0.019 0.101
0.039 -0.021 0.095
0.037 -0.017 0.097
0.035 -0.011 0.101
0.035 -0.017 0.103
0.035 -0.015 0.105
0.035 -0.011 0.091
0.037 -0.013 0.095
0.037 -0.023 0.103
0.037 -0.021 0.103
0.027 -0.013 0.107
0.033 -0.017 0.105
0.027 -0.013 0.107
0.027 -0.007 0.105
0.031 -0.007 0.105
0.029 -0.013 0.105
0.029 0.003 0.103
0.023 0.001 0.107
-0.001 0.023 0.093
0.035 -0.007 0.101
0.035 -0.011 0.103
0.035 -0.007 0.099
0.033 -0.009 0.105
0.035 -0.005 0.103
0.035 -0.003 0.107
0.029 0.007 0.089
-0.003 0.033 0.073
0.027 -0.007 0.111
0.025 -0.005 0.113
0.039 -0.007 0.037
0.027 -0.007 0.051
0.025 -0.001 0.051
0.025 -0.001 0.053
0.023 -0.001 0.057
0.041 -0.017 0.053
0.031 0.003 0.037
0.025 0.005 0.045
0.039 -0.009 0.051
0.029 0.001 0.043
0.025 0.003 0.051
0.025 0.005 0.053
0.005 0.023 0.049
0.039 -0.023 0.083
0.031 -0.007 0.077
0.025 0.001 0.049
0.021 -0.001 0.061
0.019 0.003 0.063
0.017 0.011 0.063
0.021 0.007 0.061
0.019 0.007 0.065
0.017 0.013 0.067
0.035 -0.011 0.087
0.035 -0.013 0.089
0.035 -0.015 0.089
0.035 -0.015 0.087
0.035 -0.011 0.087
0.039 -0.019 0.095
0.035 -0.015 0.089
0.017 0.009 0.075
0.031 0.003 0.091
0.031 0.003 0.093
0.033 -0.001 0.093
0.029 0.007 0.097
0.025 -0.005 0.115
