0.013 0.017 0.077
0.013 0.017 0.079
0.011 0.017 0.067
0.011 0.019 0.077
0.003 0.027 0.081
-0.001 0.023 0.065
0.013 0.017 0.079
0.023 -0.011 0.057
0.015 0.015 0.071
0.027 0.009 0.097
0.029 0.007 0.093
0.029 0.007 0.089
0.029 -0.005 0.077
0.031 -0.001 0.085
0.033 -0.001 0.089
0.033 -0.001 0.093
0.037 -0.017 0.081
0.037 -0.017 0.083
0.037 -0.017 0.081
0.039 -0.025 0.065
0.021 0.007 0.061
0.019 -0.001 0.075
0.037 -0.011 0.053
0.017 0.011 0.055
0.015 0.013 0.077
0.033 -0.003 0.043
0.029 -0.005 0.049
0.023 0.001 0.085
0.027 0.007 0.089
0.027 0.009 0.095
0.021 0.001 0.081
0.029 0.007 0.095
0.029 0.007 0.093
0.017 -0.005 0.065
0.011 0.019 0.083
0.023 -0.011 0.061
0.047 -0.023 0.041
0.045 -0.019 0.039
0.049 -0.021 0.039
0.049 -0.017 0.039
0.037 -0.007 0.041
0.039 -0.009 0.047
0.041 -0.011 0.051
0.035 -0.015 0.065
0.033 -0.009 0.051
0.035 -0.007 0.093
0.035 -0.021 0.103
0.031 -0.013 0.105
0.035 -0.019 0.103
0.037 -0.019 0.103
0.043 -0.041 0.087
0.039 -0.023 0.097
0.035 -0.007 0.093
0.031 0.001 0.099
0.031 0.001 0.101
0.033 -0.001 0.099
0.035 -0.007 0.095
0.011 0.009 0.087
0.015 0.001 0.075
0.013 0.005 0.085
0.033 -0.005 0.089
0.031 0.001 0.085
0.027 -0.003 0.075
0.023 -0.001 0.099
0.027 -0.007 0.109
0.009 -0.001 0.089
0.013 -0.003 0.091
0.037 -0.025 0.069
0.039 -0.023 0.065
0.037 -0.017 0.083
0.035 -0.015 0.073
0.039 -0.017 0.093
0.037 -0.013 0.093
0.037 -0.017 0.087
0.035 -0.013 0.087
0.035 -0.011 0.087
0.035 -0.011 0.083
0.035 -0.009 0.095
0.033 -0.027 0.105
0.033 -0.033 0.105
0.035 -0.035 0.107
0.037 -0.035 0.107
0.039 -0.035 0.105
0.025 -0.005 0.115
0.015 0.011 0.113
0.029 -0.001 0.103
0.031 -0.013 0.105
0.021 0.003 0.107
0.027 -0.007 0.111
0.037 -0.025 0.103
0.035 -0.019 0.103
0.033 -0.009 0.105
0.033 -0.001 0.109
-0.003 0.031 0.057
-0.023 0.029 0.041
-0.017 0.035 0.073
-0.025 0.037 0.063
-0.027 0.041 0.079
-0.027 0.041 0.075
-0.025 0.041 0.081
-0.003 0.033 0.073
-0.009 0.035 0.081
-0.009 0.035 0.075
-0.001 0.025 0.065
0.003 0.019 0.055
-0.023 0.025 0.043
-0.007 0.031 0.053
-0.009 0.031 0.053
-0.003 0.033 0.043
-0.011 0.031 0.047
-0.015 0.031 0.043
-0.013 0.031 0.087
-0.007 0.033 0.087
-0.003 0.031 0.085
-0.003 0.031 0.085
-0.007 0.033 0.085
-0.013 0.031 0.089
-0.009 0.031 0.089
-0.009 0.033 0.087
0.001 0.029 0.081
-0.021 0.037 0.071
-0.021 0.035 0.067
-0.011 0.035 0.077
-0.009 0.035 0.067
-0.001 0.031 0.061
-0.033 0.033 0.045
-0.025 0.035 0.035
-0.009 0.033 0.041
-0.005 0.033 0.045
-0.029 0.037 0.063
-0.007 0.033 0.059
-0.005 0.033 0.061
-0.001 0.023 0.093
-0.011 0.035 0.081
-0.013 0.029 0.091
-0.005 0.031 0.087
0.003 0.027 0.085
0.003 0.027 0.081
0.003 0.015 0.095
-0.005 0.023 0.095
-0.013 0.029 0.091
-0.007 0.025 0.095
-0.009 0.025 0.095
-0.005 0.023 0.095
-0.009 0.029 0.091
-0.015 0.031 0.089
-0.031 0.043 0.079
-0.033 0.041 0.087
-0.033 0.041 0.087
-0.013 0.037 0.071
-0.021 0.039 0.073
-0.029 0.043 0.079
-0.009 0.035 0.069
-0.031 0.039 0.087
-0.013 0.035 0.083
-0.007 0.033 0.087
0.005 0.023 0.053
0.005 0.017 0.049
0.019 0.007 0.043
0.003 0.031 0.041
0.007 0.033 0.041
0.001 0.031 0.043
0.003 0.017 0.055
0.017 0.011 0.055
0.005 0.019 0.053
0.001 0.021 0.061
0.005 0.025 0.083
0.013 0.005 0.085
0.017 0.009 0.075
0.009 0.009 0.091
0.019 0.001 0.085
0.027 0.007 0.087
0.003 0.017 0.093
0.029 0.007 0.097
0.029 0.007 0.101
-0.005 -0.017 0.033
-0.017 -0.005 0.035
-0.013 -0.007 0.037
-0.017 -0.005 0.035
-0.013 -0.007 0.037
-0.003 -0.015 0.041
0.007 -0.041 0.043
0.001 -0.023 0.035
0.003 -0.025 0.041
0.005 -0.029 0.043
0.005 -0.031 0.045
0.015 -0.041 0.035
0.029 -0.039 0.045
0.031 -0.037 0.053
0.033 -0.037 0.047
0.035 -0.037 0.053
0.035 -0.037 0.055
0.037 -0.035 0.059
0.001 -0.023 0.035
0.005 -0.021 0.047
-0.003 -0.013 0.043
0.003 -0.015 0.043
0.001 -0.005 0.047
0.003 -0.021 0.043
0.005 -0.023 0.045
0.011 -0.025 0.053
0.007 -0.013 0.053
0.017 -0.021 0.057
0.027 -0.037 0.043
0.033 -0.037 0.043
0.025 -0.037 0.049
0.017 -0.033 0.047
0.011 -0.029 0.049
0.021 -0.033 0.055
0.033 -0.037 0.053
0.033 -0.037 0.055
0.033 -0.037 0.057
0.025 -0.035 0.057
0.021 -0.031 0.063
0.031 -0.047 0.089
0.027 -0.037 0.089
0.031 -0.049 0.085
0.031 -0.049 0.087
0.033 -0.049 0.087
0.039 -0.047 0.087
0.027 -0.047 0.085
0.029 -0.043 0.089
0.029 -0.031 0.069
0.017 -0.021 0.071
0.029 -0.021 0.077
0.015 -0.005 0.067
0.001 -0.001 0.073
0.021 -0.025 0.073
0.015 -0.013 0.077
0.019 -0.029 0.083
0.015 -0.019 0.087
0.023 -0.035 0.085
0.017 -0.025 0.085
0.023 -0.031 0.089
0.017 -0.021 0.091
0.021 -0.027 0.093
0.019 -0.027 0.095
0.011 -0.011 0.089
0.013 -0.013 0.095
0.019 -0.027 0.087
0.017 -0.021 0.091
0.033 -0.031 0.069
0.025 -0.023 0.077
0.027 -0.039 0.087
0.025 -0.037 0.087
0.031 -0.033 0.089
0.025 -0.039 0.097
0.019 -0.021 0.093
0.021 -0.031 0.097
0.033 -0.043 0.103
0.023 -0.037 0.099
0.017 -0.019 0.101
0.019 -0.021 0.103
0.029 -0.027 0.105
0.025 -0.019 0.105
0.009 -0.005 0.099
0.009 -0.005 0.101
0.015 -0.017 0.105
0.023 -0.013 0.107
0.031 -0.029 0.103
0.025 -0.025 0.105
-0.027 0.011 0.033
-0.037 0.015 0.039
-0.039 0.017 0.039
-0.041 0.021 0.043
-0.037 0.015 0.045
-0.039 0.019 0.047
-0.041 0.027 0.047
-0.035 0.025 0.061
-0.023 0.003 0.037
-0.021 0.001 0.035
-0.019 0.001 0.037
-0.015 0.003 0.043
-0.011 0.003 0.045
-0.003 0.009 0.049
-0.037 0.015 0.039
-0.029 0.003 0.049
-0.029 0.003 0.053
-0.025 0.003 0.041
-0.027 0.003 0.045
-0.029 0.003 0.055
-0.027 0.003 0.055
-0.025 0.003 0.055
-0.023 0.005 0.057
-0.029 0.009 0.059
-0.029 0.023 0.055
-0.025 0.011 0.065
-0.011 0.013 0.055
-0.041 0.027 0.053
-0.035 0.029 0.063
-0.029 0.003 0.053
-0.029 0.003 0.055
-0.027 0.027 0.063
-0.025 0.029 0.065
-0.019 0.011 0.069
-0.025 0.009 0.065
-0.001 0.001 0.073
-0.005 0.011 0.073
-0.007 0.013 0.075
-0.021 0.029 0.069
-0.019 0.021 0.073
-0.019 0.019 0.075
-0.011 0.015 0.077
-0.007 0.009 0.077
-0.011 0.013 0.081
-0.007 0.009 0.081
-0.003 0.007 0.087
-0.019 0.025 0.083
-0.011 0.023 0.091
-0.035 0.039 0.083
-0.031 0.033 0.069
-0.029 0.031 0.069
-0.015 0.017 0.083
-0.017 0.031 0.087
-0.019 0.025 0.083
-0.015 0.017 0.085
-0.001 -0.015 0.043
0.001 -0.003 0.049
0.003 -0.011 0.051
0.001 0.011 0.043
-0.013 0.005 0.049
0.001 -0.005 0.061
-0.001 0.001 0.065
0.007 -0.011 0.057
0.009 -0.009 0.061
0.009 -0.007 0.067
-0.009 0.013 0.057
-0.013 0.007 0.051
0.015 0.001 0.079
0.003 0.007 0.089
0.005 0.009 0.091
0.011 -0.009 0.089
0.011 -0.011 0.093
0.013 -0.013 0.099
-0.007 0.009 0.087
0.013 -0.013 0.107
-0.003 0.031 0.047
0.007 0.011 0.053
0.025 0.005 0.043
0.025 0.005 0.043
0.013 0.005 0.039
0.011 0.001 0.035
0.017 0.009 0.047
0.019 0.007 0.045
0.021 0.007 0.053
0.025 -0.013 0.055
0.019 0.007 0.045
0.013 0.011 0.051
0.017 0.011 0.057
0.025 0.005 0.041
0.017 0.011 0.057
0.019 0.009 0.059
0.023 -0.011 0.061
0.023 0.001 0.057
0.039 -0.009 0.039
0.047 -0.015 0.039
0.049 -0.015 0.037
0.043 -0.015 0.049
0.039 -0.009 0.035
0.043 -0.015 0.035
0.037 -0.007 0.039
0.039 -0.009 0.047
0.033 -0.003 0.043
0.041 -0.023 0.053
0.039 -0.023 0.059
0.035 -0.011 0.089
0.035 -0.011 0.087
0.035 -0.011 0.087
0.035 -0.011 0.089
0.033 -0.007 0.091
0.037 -0.015 0.093
0.037 -0.013 0.093
0.031 0.001 0.099
0.033 -0.001 0.095
0.035 -0.005 0.099
0.043 -0.041 0.085
0.041 -0.023 0.093
0.039 -0.023 0.091
0.041 -0.023 0.095
0.043 -0.029 0.095
0.027 -0.005 0.073
0.035 -0.015 0.073
0.031 -0.009 0.075
0.021 -0.003 0.071
0.029 -0.003 0.079
0.013 0.017 0.075
0.017 0.011 0.073
0.019 -0.001 0.075
0.023 -0.001 0.077
0.023 0.001 0.087
0.031 0.001 0.085
0.029 0.005 0.095
0.027 0.005 0.099
0.019 0.001 0.083
0.019 0.001 0.083
0.019 0.001 0.095
0.023 0.001 0.085
0.031 -0.003 0.083
0.021 0.001 0.095
0.037 -0.019 0.069
0.033 -0.021 0.075
0.035 -0.015 0.069
0.039 -0.023 0.083
0.037 -0.015 0.095
0.039 -0.019 0.095
0.035 -0.007 0.095
0.037 -0.015 0.101
0.043 -0.033 0.097
0.027 0.009 0.103
0.023 -0.003 0.103
0.023 0.001 0.107
0.031 -0.001 0.107
0.011 -0.001 0.101
0.025 -0.003 0.105
0.019 -0.005 0.101
0.023 -0.003 0.103
0.035 -0.003 0.105
0.021 -0.001 0.097
0.023 -0.001 0.099
0.021 0.003 0.107
0.043 -0.031 0.099
0.035 -0.009 0.099
-0.007 0.025 0.031
-0.033 0.031 0.041
-0.033 0.029 0.037
-0.033 0.033 0.047
-0.031 0.033 0.051
-0.037 0.031 0.045
-0.027 0.037 0.061
-0.031 0.037 0.059
-0.027 0.037 0.065
-0.011 0.029 0.051
-0.003 0.033 0.043
0.005 0.033 0.039
-0.025 0.035 0.035
-0.023 0.029 0.043
-0.031 0.033 0.045
-0.003 0.035 0.039
-0.009 0.035 0.037
0.001 0.035 0.039
-0.011 0.031 0.055
-0.011 0.035 0.061
-0.017 0.035 0.067
-0.015 0.035 0.069
-0.015 0.035 0.069
-0.009 0.035 0.067
-0.001 0.031 0.059
-0.003 0.031 0.059
0.001 0.021 0.061
-0.027 0.023 0.051
-0.009 0.035 0.067
-0.017 0.029 0.057
-0.033 0.033 0.049
-0.023 0.033 0.037
-0.015 0.035 0.037
-0.019 0.035 0.037
-0.011 0.033 0.041
-0.025 0.037 0.063
0.005 0.025 0.079
0.007 0.023 0.081
-0.003 0.033 0.081
-0.017 0.035 0.071
-0.015 0.035 0.081
-0.001 0.025 0.065
-0.001 0.027 0.067
-0.001 0.029 0.077
-0.005 0.029 0.089
-0.003 0.027 0.091
-0.007 0.033 0.085
-0.007 0.029 0.091
-0.029 0.043 0.081
-0.021 0.037 0.071
-0.023 0.039 0.075
-0.017 0.035 0.075
-0.031 0.039 0.087
0.007 0.029 0.043
0.017 0.007 0.043
0.029 0.005 0.035
0.025 0.005 0.047
0.007 0.029 0.043
0.005 0.011 0.055
0.005 0.023 0.051
0.007 0.011 0.053
0.015 0.011 0.051
0.011 0.011 0.055
0.005 0.015 0.063
0.003 0.015 0.065
0.009 0.015 0.063
0.005 0.023 0.053
0.005 0.019 0.049
0.005 0.019 0.053
0.003 0.027 0.053
0.003 0.023 0.059
0.033 0.001 0.037
0.003 0.015 0.067
0.017 0.009 0.075
0.013 0.009 0.081
0.015 0.011 0.077
0.019 0.003 0.065
0.019 0.005 0.065
0.019 0.009 0.067
0.017 0.007 0.069
0.011 0.013 0.085
0.011 0.007 0.089
0.007 0.013 0.093
0.029 0.007 0.089
0.029 0.007 0.093
0.029 0.007 0.095
0.009 0.021 0.085
0.009 0.001 0.101
0.019 0.007 0.109
0.021 0.005 0.109
