-0.003 -0.019 0.035
-0.017 -0.005 0.035
-0.017 -0.003 0.037
-0.011 -0.009 0.035
-0.005 -0.013 0.037
-0.005 -0.011 0.039
-0.003 -0.011 0.041
-0.017 -0.005 0.037
0.007 -0.039 0.033
0.001 -0.023 0.037
-0.001 -0.021 0.037
0.005 -0.031 0.039
-0.005 -0.017 0.035
-0.005 -0.013 0.035
-0.003 -0.017 0.037
-0.001 -0.015 0.043
0.009 -0.043 0.043
0.007 -0.037 0.035
0.005 -0.033 0.037
0.005 -0.033 0.039
0.007 -0.039 0.035
0.007 -0.041 0.043
0.007 -0.039 0.043
0.007 -0.041 0.041
0.007 -0.037 0.043
0.019 -0.035 0.047
0.023 -0.037 0.051
0.021 -0.035 0.051
0.023 -0.037 0.053
0.029 -0.039 0.049
0.029 -0.037 0.053
0.029 -0.037 0.057
0.025 -0.037 0.055
0.025 -0.035 0.057
0.021 -0.037 0.045
0.033 -0.037 0.051
0.025 -0.037 0.055
0.005 -0.033 0.037
0.003 -0.031 0.037
0.005 -0.031 0.039
0.003 -0.027 0.041
0.003 -0.027 0.041
0.003 -0.027 0.041
0.001 -0.023 0.035
0.001 -0.023 0.039
0.003 -0.025 0.041
0.003 -0.027 0.041
0.005 -0.029 0.043
0.009 -0.031 0.047
0.003 -0.021 0.043
0.005 -0.019 0.045
0.007 -0.025 0.045
-0.005 -0.011 0.039
-0.003 -0.009 0.041
0.003 -0.015 0.043
0.001 -0.013 0.045
0.003 -0.013 0.047
0.001 -0.009 0.047
0.005 -0.019 0.045
0.003 -0.017 0.043
-0.001 -0.011 0.045
0.005 -0.015 0.045
0.007 -0.025 0.049
0.015 -0.031 0.055
0.013 -0.027 0.055
0.007 -0.025 0.049
0.011 -0.023 0.053
0.013 -0.023 0.053
0.011 -0.019 0.053
0.011 -0.019 0.053
0.021 -0.031 0.061
0.025 -0.033 0.063
0.019 -0.019 0.063
0.003 -0.009 0.053
0.005 -0.011 0.053
0.003 -0.009 0.055
0.007 -0.015 0.051
0.001 -0.009 0.051
0.001 -0.007 0.053
0.003 -0.009 0.055
0.001 -0.005 0.053
0.005 -0.009 0.059
0.009 -0.011 0.057
0.007 -0.009 0.059
0.013 -0.011 0.057
0.011 -0.009 0.061
0.005 -0.007 0.063
0.013 -0.009 0.061
0.017 -0.015 0.055
0.015 -0.013 0.055
0.015 -0.013 0.055
0.019 -0.013 0.057
0.013 -0.009 0.059
0.003 -0.007 0.061
0.009 -0.013 0.055
0.005 -0.009 0.059
0.019 -0.017 0.063
0.021 -0.013 0.063
0.019 -0.013 0.067
0.009 -0.007 0.067
0.005 -0.029 0.045
0.009 -0.029 0.047
0.007 -0.025 0.049
0.011 -0.029 0.049
0.011 -0.029 0.051
0.013 -0.031 0.051
0.021 -0.035 0.053
0.015 -0.031 0.055
0.011 -0.025 0.053
0.015 -0.031 0.055
0.015 -0.029 0.057
0.017 -0.033 0.051
0.011 -0.023 0.053
0.011 -0.017 0.053
0.011 -0.025 0.053
0.019 -0.031 0.059
0.019 -0.029 0.061
0.017 -0.023 0.061
0.021 -0.029 0.067
0.025 -0.031 0.067
0.019 -0.027 0.067
0.017 -0.021 0.067
0.017 -0.021 0.069
0.021 -0.017 0.059
0.019 -0.019 0.065
0.017 -0.019 0.067
0.029 -0.047 0.083
0.027 -0.047 0.085
0.023 -0.035 0.083
0.025 -0.041 0.085
0.023 -0.035 0.085
0.025 -0.037 0.087
0.029 -0.043 0.089
0.025 -0.037 0.095
0.027 -0.043 0.085
0.029 -0.045 0.087
0.025 -0.037 0.085
0.027 -0.039 0.087
0.031 -0.041 0.089
0.035 -0.047 0.089
0.035 -0.045 0.093
0.023 -0.037 0.097
0.023 -0.037 0.099
0.019 -0.025 0.069
0.025 -0.031 0.069
0.029 -0.031 0.069
0.017 -0.019 0.067
0.027 -0.029 0.073
0.025 -0.027 0.073
0.017 -0.021 0.073
0.019 -0.021 0.077
0.023 -0.021 0.079
0.023 -0.023 0.077
0.007 -0.007 0.065
0.007 -0.005 0.071
0.011 -0.003 0.071
0.015 -0.013 0.079
0.001 -0.001 0.077
0.017 -0.013 0.071
0.017 -0.011 0.071
0.017 -0.013 0.071
0.015 -0.013 0.075
0.015 -0.013 0.077
0.015 -0.011 0.075
0.017 -0.013 0.073
0.015 -0.011 0.075
0.015 -0.009 0.079
0.015 -0.013 0.081
0.021 -0.033 0.085
0.021 -0.031 0.085
0.021 -0.033 0.085
0.021 -0.029 0.087
0.015 -0.019 0.085
0.017 -0.023 0.087
0.015 -0.019 0.085
0.015 -0.019 0.087
0.017 -0.021 0.087
0.023 -0.027 0.091
0.019 -0.025 0.095
0.025 -0.033 0.089
0.021 -0.027 0.091
0.023 -0.029 0.093
0.027 -0.029 0.089
0.021 -0.033 0.097
0.017 -0.019 0.093
0.019 -0.021 0.093
0.017 -0.021 0.099
0.015 -0.011 0.081
0.013 -0.013 0.087
0.013 -0.013 0.091
0.013 -0.013 0.093
0.013 -0.015 0.095
0.013 -0.015 0.095
0.011 -0.007 0.095
0.009 -0.005 0.095
0.015 -0.017 0.083
0.015 -0.017 0.087
0.017 -0.001 0.081
0.009 -0.005 0.097
0.027 -0.029 0.073
0.021 -0.023 0.075
0.021 -0.021 0.079
0.023 -0.035 0.085
0.023 -0.033 0.087
0.017 -0.023 0.087
0.017 -0.023 0.087
0.019 -0.023 0.091
0.017 -0.021 0.091
0.031 -0.031 0.089
0.023 -0.035 0.099
0.021 -0.031 0.097
0.023 -0.033 0.099
0.017 -0.023 0.097
0.021 -0.025 0.101
0.015 -0.017 0.089
0.013 -0.013 0.095
0.011 -0.009 0.095
0.023 -0.037 0.097
0.023 -0.037 0.099
0.025 -0.037 0.101
0.031 -0.033 0.103
0.027 -0.035 0.101
0.029 -0.041 0.103
0.031 -0.043 0.105
0.031 -0.043 0.105
0.031 -0.037 0.105
0.021 -0.033 0.097
0.019 -0.027 0.097
0.017 -0.019 0.101
0.025 -0.027 0.105
0.025 -0.023 0.105
0.013 -0.009 0.097
0.013 -0.011 0.103
0.009 -0.003 0.103
0.015 -0.015 0.105
0.011 -0.009 0.101
0.015 -0.009 0.105
0.011 -0.007 0.101
0.019 -0.005 0.105
0.015 -0.015 0.107
0.015 -0.015 0.107
0.023 -0.017 0.105
0.023 -0.011 0.107
0.023 -0.011 0.111
0.021 -0.005 0.109
0.023 -0.009 0.111
0.023 -0.007 0.113
0.029 -0.031 0.101
0.029 -0.031 0.101
0.021 -0.027 0.103
0.027 -0.023 0.105
0.025 -0.023 0.105
0.015 -0.015 0.103
0.017 -0.017 0.105
0.017 -0.017 0.105
0.015 -0.011 0.105
0.015 -0.009 0.105
0.013 -0.013 0.107
0.033 -0.017 0.105
-0.029 0.005 0.045
-0.037 0.015 0.039
-0.037 0.015 0.041
-0.039 0.019 0.039
-0.041 0.019 0.043
-0.035 0.013 0.043
-0.035 0.013 0.037
-0.035 0.013 0.037
-0.035 0.013 0.039
-0.035 0.015 0.035
-0.037 0.019 0.035
-0.039 0.021 0.037
-0.041 0.021 0.041
-0.041 0.021 0.047
-0.039 0.019 0.047
-0.039 0.027 0.043
-0.041 0.023 0.049
-0.035 0.019 0.051
-0.039 0.029 0.053
-0.039 0.025 0.055
-0.039 0.029 0.057
-0.027 0.003 0.033
-0.019 0.001 0.037
-0.025 0.005 0.039
-0.027 0.011 0.035
-0.027 0.009 0.037
-0.027 0.009 0.037
-0.027 0.003 0.043
-0.027 0.005 0.043
-0.023 0.003 0.043
-0.029 0.003 0.047
-0.019 0.003 0.047
-0.017 0.003 0.047
-0.027 0.007 0.043
-0.031 0.007 0.049
-0.031 0.009 0.051
-0.031 0.009 0.053
-0.015 -0.003 0.037
-0.013 0.003 0.043
-0.029 0.005 0.045
-0.025 0.003 0.047
-0.015 0.003 0.043
-0.013 0.003 0.043
-0.031 0.009 0.055
-0.001 0.009 0.047
-0.023 0.005 0.055
-0.029 0.011 0.043
-0.035 0.015 0.047
-0.039 0.023 0.039
-0.041 0.023 0.041
-0.031 0.015 0.047
-0.037 0.017 0.049
-0.041 0.021 0.049
-0.039 0.021 0.053
-0.039 0.025 0.053
-0.039 0.019 0.049
-0.041 0.023 0.049
-0.033 0.013 0.045
-0.029 0.011 0.043
-0.029 0.007 0.045
-0.029 0.009 0.047
-0.037 0.015 0.045
-0.039 0.019 0.045
-0.037 0.017 0.049
-0.039 0.019 0.049
-0.037 0.019 0.051
-0.017 0.025 0.051
-0.029 0.003 0.055
-0.029 0.003 0.055
-0.031 0.007 0.051
-0.031 0.007 0.057
-0.029 0.005 0.057
-0.031 0.007 0.057
-0.029 0.005 0.061
-0.031 0.009 0.057
-0.031 0.005 0.055
-0.027 0.003 0.055
-0.001 0.003 0.061
-0.021 0.009 0.065
-0.017 0.021 0.055
-0.033 0.023 0.057
-0.037 0.025 0.059
-0.017 0.023 0.055
-0.019 0.027 0.055
-0.019 0.019 0.065
-0.029 0.025 0.061
-0.031 0.027 0.065
-0.019 0.027 0.057
-0.019 0.027 0.057
-0.017 0.021 0.049
-0.027 0.011 0.061
-0.027 0.011 0.061
-0.017 0.023 0.057
-0.019 0.023 0.061
-0.025 0.011 0.065
-0.021 0.011 0.071
-0.037 0.033 0.057
-0.041 0.023 0.049
-0.035 0.019 0.051
-0.033 0.021 0.055
-0.039 0.029 0.055
-0.039 0.031 0.057
-0.037 0.031 0.061
-0.033 0.031 0.065
-0.029 0.029 0.067
-0.029 0.029 0.069
-0.025 0.009 0.065
-0.021 0.009 0.067
-0.017 0.011 0.071
-0.019 0.013 0.073
-0.001 0.001 0.069
-0.001 0.001 0.073
-0.001 0.001 0.075
-0.003 0.003 0.077
-0.013 0.015 0.079
-0.007 0.011 0.077
-0.007 0.009 0.079
-0.009 0.011 0.079
-0.019 0.019 0.065
-0.017 0.017 0.071
-0.021 0.023 0.069
-0.019 0.019 0.069
-0.027 0.029 0.065
-0.021 0.027 0.065
-0.019 0.019 0.075
-0.025 0.031 0.073
-0.019 0.013 0.073
-0.015 0.017 0.071
-0.017 0.017 0.071
-0.015 0.017 0.073
-0.015 0.017 0.077
-0.017 0.017 0.079
-0.017 0.019 0.081
-0.019 0.021 0.079
-0.003 0.005 0.083
-0.011 0.013 0.083
-0.007 0.009 0.081
-0.003 0.009 0.089
-0.003 0.011 0.091
-0.017 0.017 0.081
-0.017 0.019 0.085
-0.017 0.031 0.087
-0.015 0.017 0.083
-0.015 0.029 0.089
-0.013 0.027 0.091
-0.033 0.041 0.077
-0.033 0.037 0.081
-0.037 0.039 0.087
-0.033 0.033 0.067
-0.029 0.033 0.071
-0.027 0.033 0.073
-0.027 0.035 0.075
-0.029 0.035 0.077
-0.023 0.033 0.077
-0.027 0.033 0.081
-0.031 0.035 0.083
-0.035 0.041 0.081
-0.033 0.037 0.083
-0.025 0.031 0.073
-0.021 0.025 0.071
-0.019 0.031 0.083
-0.029 0.035 0.081
-0.031 0.035 0.085
-0.029 0.035 0.087
-0.021 0.033 0.081
-0.017 0.031 0.085
-0.019 0.033 0.085
-0.017 0.031 0.089
0.003 -0.003 0.039
0.003 -0.001 0.041
-0.025 0.003 0.049
-0.029 0.003 0.055
0.003 0.003 0.045
0.003 0.005 0.049
0.001 -0.003 0.045
0.001 -0.003 0.047
0.001 -0.007 0.047
0.001 -0.001 0.051
-0.015 0.019 0.049
-0.017 0.021 0.049
-0.031 0.011 0.057
-0.017 0.021 0.055
-0.029 0.011 0.059
0.001 0.005 0.053
0.001 0.003 0.055
0.001 0.007 0.057
-0.005 0.011 0.055
0.001 0.009 0.059
-0.001 0.003 0.063
0.001 0.009 0.063
-0.001 0.009 0.067
-0.001 0.001 0.059
0.003 -0.005 0.063
0.001 -0.005 0.061
-0.001 0.003 0.059
-0.001 0.003 0.063
0.003 -0.005 0.067
-0.001 -0.001 0.067
-0.001 -0.001 0.069
-0.003 0.005 0.069
-0.017 0.017 0.067
0.001 -0.007 0.049
0.001 -0.009 0.051
-0.033 0.019 0.053
0.005 -0.003 0.075
-0.001 0.009 0.067
-0.001 0.013 0.069
-0.003 0.011 0.071
-0.005 0.007 0.075
0.001 -0.001 0.075
0.003 -0.001 0.079
0.007 -0.001 0.079
0.001 0.003 0.083
-0.001 0.005 0.083
0.003 -0.003 0.071
-0.001 0.001 0.075
0.001 -0.001 0.075
0.003 0.001 0.081
-0.009 0.015 0.075
-0.011 0.013 0.079
-0.011 0.013 0.081
-0.011 0.013 0.085
-0.011 0.013 0.083
-0.009 0.011 0.085
-0.011 0.013 0.085
-0.001 0.005 0.085
0.007 0.001 0.081
0.005 0.005 0.085
0.011 0.003 0.085
-0.001 0.005 0.085
0.007 0.007 0.089
0.009 0.007 0.089
-0.001 0.009 0.089
0.003 0.011 0.091
0.005 0.011 0.093
0.009 -0.003 0.087
0.009 -0.003 0.091
0.009 -0.003 0.093
0.009 -0.003 0.099
0.009 -0.005 0.097
0.009 -0.005 0.097
0.009 -0.003 0.101
0.009 -0.001 0.097
0.025 0.005 0.095
-0.009 0.011 0.087
-0.007 0.011 0.089
-0.003 0.017 0.093
-0.001 0.017 0.095
0.009 -0.001 0.103
0.027 0.001 0.101
0.019 0.001 0.105
0.017 0.001 0.107
0.017 -0.001 0.109
