0.005 0.005 0.043
-0.001 0.031 0.045
0.001 0.029 0.045
0.001 0.029 0.045
-0.001 0.031 0.045
-0.001 0.031 0.049
0.001 0.029 0.047
0.007 0.021 0.075
0.027 0.005 0.043
0.015 0.003 0.037
0.027 0.005 0.043
0.025 0.007 0.039
0.033 0.001 0.037
0.007 -0.005 0.033
0.017 0.001 0.035
0.027 0.005 0.033
0.021 0.007 0.055
0.025 0.005 0.053
0.027 -0.009 0.053
0.037 -0.011 0.053
0.035 -0.015 0.059
0.031 -0.009 0.067
0.041 -0.011 0.051
0.041 -0.013 0.053
0.021 0.007 0.047
0.021 0.007 0.047
0.019 0.007 0.043
0.015 0.011 0.053
0.005 -0.001 0.037
0.007 0.005 0.043
0.025 0.007 0.039
0.033 -0.005 0.045
0.019 0.009 0.057
0.017 0.011 0.059
0.021 -0.009 0.063
0.011 0.011 0.055
0.015 0.013 0.061
0.007 0.011 0.055
0.015 0.015 0.067
0.021 0.001 0.059
0.023 -0.005 0.055
0.031 -0.007 0.049
0.027 -0.013 0.057
0.019 -0.003 0.063
0.049 -0.015 0.037
0.049 -0.019 0.039
0.039 -0.009 0.035
0.047 -0.015 0.035
0.043 -0.015 0.037
0.041 -0.013 0.043
0.039 -0.009 0.041
0.041 -0.015 0.043
0.035 -0.005 0.045
0.041 -0.025 0.059
0.039 -0.029 0.063
0.039 -0.021 0.061
0.033 -0.009 0.051
0.041 -0.013 0.049
0.041 -0.011 0.049
0.035 -0.015 0.087
0.033 -0.009 0.087
0.033 -0.003 0.091
0.037 -0.013 0.093
0.035 -0.009 0.099
0.035 -0.005 0.099
0.039 -0.031 0.085
0.039 -0.033 0.089
0.043 -0.039 0.083
0.043 -0.039 0.087
0.041 -0.023 0.093
0.021 -0.003 0.071
0.033 -0.011 0.077
0.031 -0.007 0.079
0.011 0.017 0.069
0.021 -0.007 0.067
0.023 -0.007 0.067
0.031 -0.011 0.065
0.031 -0.009 0.067
0.029 -0.007 0.069
0.031 -0.009 0.079
0.029 -0.005 0.079
0.021 0.001 0.089
0.021 0.001 0.087
0.033 -0.007 0.085
0.033 -0.007 0.089
0.023 0.001 0.087
0.027 -0.001 0.085
0.035 -0.011 0.087
0.033 -0.003 0.087
0.029 0.005 0.095
0.035 -0.007 0.097
0.033 0.001 0.097
0.035 -0.005 0.097
0.015 -0.003 0.091
0.019 0.001 0.097
0.013 -0.001 0.095
0.017 -0.003 0.093
0.015 -0.003 0.095
0.025 -0.001 0.083
0.029 0.007 0.089
0.035 -0.015 0.073
0.033 -0.015 0.077
0.033 -0.011 0.073
0.041 -0.031 0.083
0.037 -0.017 0.085
0.037 -0.017 0.083
0.035 -0.011 0.085
0.037 -0.017 0.083
0.037 -0.017 0.087
0.037 -0.017 0.091
0.037 -0.015 0.097
0.039 -0.017 0.093
0.037 -0.015 0.093
0.033 -0.009 0.089
0.037 -0.013 0.093
0.033 -0.003 0.101
0.041 -0.029 0.099
0.025 -0.003 0.105
0.013 -0.003 0.097
0.015 -0.005 0.099
0.015 -0.005 0.101
0.019 0.001 0.105
0.023 -0.001 0.099
0.023 0.001 0.107
0.025 -0.003 0.105
0.025 -0.005 0.109
0.021 0.005 0.109
0.025 -0.003 0.107
0.039 -0.021 0.101
0.033 -0.005 0.101
-0.023 0.035 0.035
-0.007 0.025 0.031
-0.011 0.035 0.033
-0.025 0.031 0.041
-0.027 0.027 0.045
-0.031 0.033 0.047
-0.031 0.033 0.051
-0.037 0.031 0.045
-0.033 0.033 0.047
-0.027 0.033 0.055
-0.029 0.035 0.059
-0.035 0.035 0.057
-0.011 0.031 0.045
-0.015 0.033 0.041
-0.009 0.035 0.039
-0.011 0.029 0.051
-0.009 0.031 0.053
-0.011 0.029 0.049
-0.001 0.031 0.045
0.001 0.031 0.043
0.005 0.029 0.043
0.003 0.029 0.043
0.003 0.027 0.049
-0.025 0.033 0.039
-0.025 0.025 0.045
-0.019 0.025 0.043
-0.015 0.027 0.045
-0.023 0.029 0.043
-0.007 0.035 0.037
-0.007 0.035 0.037
0.001 0.031 0.043
-0.015 0.033 0.063
-0.007 0.033 0.057
-0.019 0.029 0.057
-0.017 0.027 0.053
-0.015 0.029 0.055
-0.015 0.035 0.069
-0.001 0.031 0.055
-0.001 0.031 0.059
0.003 0.025 0.057
-0.005 0.033 0.065
-0.027 0.027 0.051
-0.029 0.031 0.051
-0.011 0.035 0.061
-0.025 0.037 0.065
-0.009 0.033 0.057
-0.001 0.023 0.065
-0.017 0.035 0.035
-0.007 0.035 0.039
-0.007 0.035 0.039
-0.027 0.035 0.057
-0.029 0.037 0.063
0.005 0.019 0.071
0.005 0.019 0.071
0.005 0.021 0.073
0.003 0.021 0.073
0.003 0.027 0.079
0.005 0.025 0.079
-0.027 0.037 0.067
-0.009 0.035 0.079
-0.013 0.037 0.075
-0.017 0.035 0.079
-0.015 0.035 0.081
-0.001 0.027 0.067
-0.001 0.027 0.067
-0.003 0.033 0.077
-0.007 0.033 0.081
-0.003 0.031 0.075
-0.001 0.029 0.087
-0.003 0.027 0.091
0.001 0.025 0.091
-0.009 0.033 0.087
0.001 0.029 0.081
-0.001 0.029 0.087
-0.003 0.031 0.087
-0.001 0.025 0.091
-0.003 0.023 0.093
-0.001 0.021 0.095
-0.011 0.029 0.091
-0.031 0.037 0.065
-0.031 0.041 0.085
-0.019 0.035 0.073
-0.009 0.035 0.069
-0.005 0.033 0.067
-0.007 0.035 0.067
-0.023 0.037 0.085
-0.015 0.033 0.087
-0.007 0.033 0.087
-0.005 0.033 0.083
0.029 0.003 0.031
0.007 0.007 0.045
0.007 0.027 0.043
0.001 0.029 0.047
0.017 0.009 0.049
0.005 0.015 0.063
0.017 0.011 0.057
0.015 0.013 0.061
0.021 0.007 0.051
0.021 0.005 0.055
0.017 0.009 0.049
0.019 0.009 0.053
0.017 0.011 0.057
0.017 0.011 0.059
0.001 0.029 0.051
0.003 0.025 0.053
0.017 0.007 0.073
0.005 0.019 0.071
0.011 0.015 0.065
0.015 0.011 0.075
0.015 0.013 0.079
0.019 0.003 0.065
0.019 0.009 0.067
0.005 0.023 0.077
0.011 0.019 0.075
0.013 0.017 0.075
0.011 0.019 0.077
0.011 0.017 0.083
0.011 0.013 0.087
0.001 0.017 0.095
0.029 0.007 0.087
0.027 0.007 0.087
0.029 0.007 0.093
0.027 0.009 0.095
0.007 0.023 0.081
0.007 0.019 0.089
0.005 0.023 0.089
0.031 0.003 0.099
0.027 0.009 0.097
0.029 0.007 0.101
0.029 0.007 0.103
0.023 0.001 0.107
-0.003 -0.017 0.037
-0.017 -0.005 0.037
-0.001 -0.013 0.045
0.003 -0.033 0.035
0.007 -0.039 0.039
0.023 -0.035 0.037
0.013 -0.041 0.033
0.011 -0.043 0.039
0.007 -0.037 0.045
0.009 -0.039 0.045
0.025 -0.037 0.039
0.029 -0.037 0.041
0.029 -0.039 0.051
0.025 -0.037 0.053
0.035 -0.037 0.047
0.037 -0.037 0.049
0.035 -0.035 0.061
0.007 -0.039 0.037
0.001 -0.023 0.035
0.007 -0.041 0.043
0.005 -0.027 0.045
0.003 -0.027 0.041
0.001 -0.013 0.047
0.011 -0.043 0.043
0.017 -0.033 0.047
0.015 -0.031 0.049
0.015 -0.031 0.051
0.013 -0.027 0.055
0.015 -0.023 0.055
0.015 -0.029 0.057
0.019 -0.027 0.063
0.007 -0.019 0.049
0.015 -0.011 0.057
0.013 -0.011 0.057
0.013 -0.009 0.061
0.019 -0.031 0.057
0.021 -0.031 0.061
0.017 -0.009 0.059
0.017 -0.009 0.059
0.029 -0.035 0.035
0.039 -0.035 0.049
0.043 -0.027 0.039
0.027 -0.037 0.039
0.023 -0.037 0.041
0.027 -0.037 0.045
0.023 -0.035 0.043
0.033 -0.037 0.047
0.025 -0.037 0.049
0.039 -0.033 0.055
0.035 -0.037 0.055
0.035 -0.035 0.059
0.033 -0.033 0.065
0.041 -0.045 0.085
0.035 -0.047 0.089
0.033 -0.045 0.091
0.033 -0.047 0.089
0.039 -0.045 0.089
0.021 -0.027 0.069
0.025 -0.041 0.081
0.013 -0.005 0.067
0.005 -0.003 0.075
0.021 -0.025 0.073
0.017 -0.019 0.075
0.015 -0.015 0.077
0.027 -0.021 0.079
0.015 -0.015 0.077
0.019 -0.021 0.077
0.015 -0.017 0.095
0.019 -0.029 0.083
0.021 -0.033 0.085
0.019 -0.027 0.087
0.023 -0.035 0.085
0.027 -0.027 0.091
0.023 -0.033 0.095
0.027 -0.027 0.091
0.015 -0.019 0.085
0.009 -0.005 0.089
0.021 -0.033 0.083
0.031 -0.031 0.069
0.027 -0.047 0.085
0.031 -0.047 0.089
0.027 -0.047 0.083
0.035 -0.021 0.091
0.027 -0.039 0.089
0.035 -0.019 0.091
0.023 -0.033 0.095
0.023 -0.037 0.099
0.023 -0.037 0.099
0.025 -0.039 0.101
0.031 -0.043 0.101
0.033 -0.043 0.101
0.043 -0.037 0.097
0.031 -0.043 0.105
0.023 -0.027 0.101
0.021 -0.027 0.103
0.019 -0.023 0.101
0.019 -0.021 0.103
0.031 -0.029 0.105
0.011 -0.007 0.099
0.015 -0.011 0.109
0.017 -0.023 0.097
0.017 -0.019 0.103
0.017 -0.015 0.107
0.021 -0.009 0.109
0.025 -0.013 0.107
0.023 -0.025 0.105
0.021 -0.009 0.107
0.021 -0.021 0.105
0.037 -0.039 0.099
0.039 -0.039 0.097
0.041 -0.039 0.099
0.031 -0.029 0.103
0.025 -0.039 0.101
0.025 -0.029 0.101
0.025 -0.029 0.103
-0.029 0.011 0.033
-0.023 0.003 0.035
-0.041 0.019 0.043
-0.041 0.021 0.045
-0.037 0.017 0.049
-0.041 0.023 0.051
-0.039 0.025 0.057
-0.033 0.023 0.059
-0.035 0.025 0.061
-0.021 0.001 0.035
-0.019 -0.001 0.035
-0.025 0.009 0.035
-0.029 0.003 0.049
-0.029 0.005 0.045
-0.027 0.003 0.043
-0.031 0.013 0.043
-0.017 0.005 0.049
-0.013 -0.005 0.039
-0.015 -0.007 0.037
-0.015 -0.001 0.037
-0.005 0.005 0.043
-0.001 0.009 0.041
-0.027 0.003 0.051
-0.021 0.003 0.043
-0.019 0.005 0.043
-0.023 0.003 0.051
-0.023 0.003 0.049
-0.031 0.013 0.045
-0.015 -0.007 0.037
-0.009 0.011 0.051
-0.027 0.003 0.051
-0.029 0.003 0.051
-0.029 0.003 0.055
-0.025 0.005 0.059
-0.025 0.007 0.061
-0.013 0.015 0.059
-0.009 0.015 0.063
-0.029 0.003 0.053
-0.031 0.005 0.053
-0.031 0.005 0.055
-0.019 0.009 0.065
-0.027 0.027 0.063
-0.023 0.005 0.059
-0.023 0.005 0.061
-0.021 0.007 0.061
-0.021 0.009 0.063
-0.017 0.005 0.051
-0.015 0.017 0.055
-0.013 0.015 0.055
-0.013 0.015 0.055
-0.003 0.017 0.063
-0.039 0.021 0.051
-0.009 0.005 0.043
-0.031 0.023 0.057
-0.033 0.025 0.061
-0.029 0.027 0.065
-0.029 0.027 0.063
-0.013 0.015 0.061
-0.019 0.009 0.065
-0.001 -0.001 0.071
-0.003 0.003 0.075
-0.005 0.007 0.079
-0.019 0.011 0.071
-0.029 0.027 0.065
-0.021 0.023 0.067
-0.021 0.023 0.069
-0.017 0.017 0.079
-0.027 0.031 0.073
-0.021 0.023 0.073
-0.013 0.017 0.069
-0.007 0.017 0.069
-0.005 0.019 0.069
-0.005 0.009 0.073
-0.005 0.007 0.075
-0.011 0.013 0.087
-0.003 0.011 0.091
-0.015 0.017 0.085
-0.005 0.011 0.089
-0.011 0.015 0.089
-0.001 0.015 0.093
-0.013 0.019 0.089
-0.033 0.037 0.085
-0.031 0.031 0.067
-0.027 0.031 0.073
-0.021 0.025 0.069
-0.021 0.009 0.067
-0.021 0.011 0.069
-0.013 0.017 0.069
-0.007 0.017 0.069
-0.005 0.019 0.067
-0.013 0.017 0.075
-0.029 0.035 0.085
-0.027 0.033 0.085
-0.031 0.035 0.087
-0.011 0.015 0.089
0.013 -0.041 0.039
0.007 -0.025 0.049
-0.001 -0.013 0.045
0.019 -0.037 0.043
0.007 -0.031 0.047
0.011 -0.031 0.047
0.009 -0.021 0.051
-0.003 0.009 0.043
-0.001 0.009 0.043
-0.001 0.009 0.045
0.001 -0.007 0.053
0.001 -0.005 0.057
0.001 0.011 0.051
0.007 -0.011 0.057
0.001 -0.003 0.065
0.009 -0.009 0.061
0.011 -0.021 0.053
0.013 -0.017 0.055
0.017 -0.023 0.061
0.019 -0.005 0.063
0.019 -0.001 0.065
0.015 -0.005 0.065
-0.001 -0.001 0.057
-0.003 0.011 0.051
-0.001 0.019 0.063
-0.003 0.009 0.039
-0.005 0.005 0.043
-0.005 0.007 0.045
-0.001 -0.001 0.071
0.007 -0.005 0.069
0.009 -0.007 0.067
0.009 -0.005 0.069
0.009 0.003 0.083
0.003 0.007 0.089
0.023 -0.031 0.089
0.019 -0.025 0.091
0.021 -0.027 0.093
0.021 -0.033 0.097
-0.001 0.007 0.089
0.001 0.007 0.089
0.005 0.009 0.091
