0.007 0.021 0.075
0.031 0.003 0.037
0.023 0.005 0.049
0.027 -0.003 0.049
0.017 0.009 0.047
0.019 0.009 0.055
0.013 0.011 0.051
0.009 0.005 0.043
0.021 0.007 0.061
0.021 -0.007 0.057
0.025 -0.001 0.053
0.021 -0.001 0.059
0.019 0.003 0.065
0.043 -0.015 0.041
0.043 -0.015 0.041
0.049 -0.017 0.039
0.051 -0.017 0.037
0.037 -0.005 0.035
0.037 -0.005 0.037
0.039 -0.021 0.061
0.035 -0.011 0.087
0.033 -0.001 0.093
0.041 -0.031 0.083
0.029 -0.005 0.077
0.029 -0.003 0.081
0.019 0.009 0.067
0.027 -0.009 0.065
0.029 -0.009 0.065
0.031 -0.009 0.069
0.031 -0.007 0.079
0.021 -0.001 0.077
0.021 0.001 0.081
0.035 -0.011 0.087
0.029 0.005 0.099
0.033 -0.003 0.097
0.019 0.001 0.097
0.011 -0.001 0.089
0.019 0.001 0.081
0.021 0.001 0.091
0.037 -0.027 0.067
0.033 -0.019 0.075
0.037 -0.011 0.095
0.033 -0.003 0.089
0.035 -0.011 0.101
0.033 -0.003 0.103
0.035 -0.033 0.105
0.033 -0.003 0.105
0.033 -0.001 0.107
0.027 0.009 0.103
0.033 -0.003 0.103
0.023 -0.001 0.105
0.025 -0.003 0.105
0.025 -0.005 0.113
0.037 -0.017 0.099
-0.011 0.035 0.037
-0.007 0.035 0.039
-0.023 0.035 0.031
-0.029 0.033 0.035
-0.035 0.033 0.049
-0.035 0.035 0.053
-0.035 0.035 0.059
-0.035 0.035 0.059
-0.015 0.027 0.045
0.003 0.027 0.049
0.005 0.029 0.045
-0.015 0.025 0.047
-0.017 0.025 0.045
-0.017 0.031 0.041
-0.009 0.033 0.043
0.005 0.037 0.037
0.003 0.035 0.039
-0.029 0.011 0.051
-0.017 0.027 0.053
-0.003 0.031 0.059
0.001 0.027 0.061
-0.001 0.027 0.063
-0.013 0.029 0.053
-0.011 0.029 0.051
-0.011 0.031 0.055
-0.005 0.033 0.049
-0.001 0.031 0.055
-0.011 0.033 0.057
-0.035 0.035 0.057
-0.023 0.033 0.061
-0.007 0.033 0.057
-0.025 0.037 0.067
-0.015 0.035 0.075
-0.013 0.035 0.081
-0.003 0.029 0.071
-0.005 0.033 0.079
-0.007 0.033 0.081
0.005 0.025 0.087
0.003 0.025 0.089
-0.013 0.035 0.083
-0.001 0.031 0.081
-0.011 0.029 0.091
-0.003 0.023 0.095
-0.007 0.027 0.093
-0.029 0.041 0.075
-0.025 0.039 0.073
-0.007 0.035 0.077
-0.027 0.039 0.087
-0.011 0.033 0.083
-0.009 0.035 0.083
0.031 0.003 0.031
0.011 0.005 0.039
0.005 0.017 0.047
0.023 0.007 0.041
0.029 0.003 0.043
0.007 0.029 0.045
0.007 0.011 0.055
0.007 0.015 0.061
0.013 0.015 0.061
0.015 0.013 0.063
0.025 0.005 0.049
0.005 0.025 0.049
0.001 0.025 0.063
0.007 0.015 0.065
0.015 0.011 0.075
0.019 0.007 0.067
0.005 0.025 0.079
0.007 0.023 0.079
0.011 0.017 0.085
0.007 0.013 0.091
0.005 0.017 0.091
0.023 0.001 0.087
0.029 0.007 0.087
0.009 0.021 0.083
0.021 0.001 0.109
-0.003 -0.019 0.031
-0.017 -0.005 0.033
-0.017 -0.005 0.033
0.005 -0.033 0.043
0.003 -0.021 0.043
0.003 -0.021 0.043
-0.003 -0.011 0.041
0.007 -0.039 0.037
0.009 -0.043 0.043
0.009 -0.039 0.045
0.025 -0.037 0.055
0.029 -0.039 0.047
0.023 -0.037 0.047
0.023 -0.037 0.051
0.001 -0.021 0.039
0.005 -0.023 0.045
-0.003 -0.009 0.041
-0.001 -0.009 0.045
0.003 -0.011 0.051
0.011 -0.015 0.055
0.019 -0.013 0.057
0.021 -0.015 0.059
0.019 -0.015 0.067
0.017 -0.033 0.049
0.007 -0.031 0.047
0.011 -0.029 0.053
0.013 -0.031 0.053
0.009 -0.023 0.051
0.009 -0.023 0.051
0.011 -0.023 0.053
0.013 -0.017 0.055
0.017 -0.021 0.057
0.023 -0.035 0.055
0.019 -0.025 0.061
0.021 -0.015 0.059
0.025 -0.037 0.083
0.035 -0.043 0.091
0.019 -0.009 0.071
0.009 -0.005 0.071
0.019 -0.023 0.089
0.027 -0.031 0.089
0.025 -0.029 0.089
0.017 -0.023 0.097
0.013 -0.015 0.095
0.009 -0.005 0.091
0.009 -0.005 0.093
0.021 -0.029 0.097
0.019 -0.023 0.101
0.023 -0.033 0.099
0.025 -0.039 0.101
0.031 -0.037 0.105
0.021 -0.025 0.103
0.017 -0.019 0.103
0.029 -0.027 0.105
0.015 -0.017 0.105
0.019 -0.005 0.105
0.015 -0.011 0.109
0.023 -0.007 0.113
-0.037 0.017 0.035
-0.029 0.011 0.033
-0.023 0.009 0.033
-0.031 0.011 0.041
-0.027 0.005 0.043
-0.025 0.003 0.041
-0.013 0.003 0.039
-0.029 0.011 0.043
-0.039 0.025 0.039
-0.039 0.019 0.049
-0.031 0.013 0.043
-0.033 0.013 0.043
-0.033 0.013 0.045
-0.037 0.017 0.049
-0.017 0.017 0.047
-0.031 0.009 0.051
-0.029 0.005 0.057
-0.029 0.005 0.057
-0.029 0.009 0.059
-0.015 0.005 0.051
-0.029 0.027 0.065
-0.019 0.027 0.061
-0.035 0.033 0.063
-0.037 0.029 0.059
-0.035 0.031 0.063
-0.025 0.029 0.065
-0.021 0.023 0.075
-0.017 0.017 0.077
-0.021 0.011 0.071
-0.017 0.017 0.071
-0.015 0.017 0.085
-0.013 0.015 0.087
-0.013 0.027 0.091
-0.033 0.035 0.065
-0.023 0.033 0.077
-0.023 0.031 0.073
-0.021 0.031 0.075
-0.019 0.029 0.083
-0.031 0.035 0.081
-0.031 0.037 0.087
-0.029 0.035 0.087
0.001 -0.001 0.049
0.001 0.007 0.061
-0.001 -0.001 0.059
0.001 -0.003 0.061
0.003 -0.005 0.067
-0.001 0.001 0.069
0.001 -0.003 0.069
0.001 0.003 0.083
0.001 -0.001 0.075
0.003 -0.001 0.077
-0.009 0.015 0.075
-0.001 0.013 0.091
0.007 0.009 0.091
0.007 -0.001 0.095
-0.011 0.021 0.091
-0.007 0.019 0.093
0.019 -0.001 0.105
0.017 0.001 0.109
-0.001 -0.021 0.033
-0.011 -0.009 0.035
-0.001 -0.001 0.071
0.019 -0.027 0.031
0.025 -0.029 0.031
0.021 -0.031 0.033
0.009 -0.043 0.039
0.007 -0.039 0.033
0.009 -0.043 0.039
0.011 -0.037 0.045
0.017 -0.039 0.037
0.019 -0.037 0.043
0.029 -0.035 0.063
0.037 -0.037 0.049
0.017 -0.039 0.035
0.021 -0.033 0.035
0.025 -0.035 0.035
0.025 -0.035 0.035
0.035 -0.031 0.035
0.035 -0.037 0.043
0.037 -0.035 0.045
0.017 -0.031 0.057
0.019 -0.031 0.057
0.011 -0.009 0.059
0.019 -0.027 0.063
0.035 -0.029 0.033
0.043 -0.021 0.041
0.041 -0.025 0.035
0.041 -0.031 0.045
0.041 -0.025 0.045
0.039 -0.031 0.061
0.039 -0.035 0.051
0.025 -0.043 0.083
0.033 -0.049 0.087
0.041 -0.045 0.087
0.039 -0.045 0.089
0.035 -0.047 0.093
0.025 -0.031 0.067
0.011 -0.007 0.065
0.017 -0.021 0.071
0.003 -0.001 0.075
0.009 -0.003 0.075
0.023 -0.029 0.069
0.033 -0.031 0.067
0.019 -0.023 0.073
0.027 -0.025 0.075
0.021 -0.029 0.089
0.031 -0.047 0.089
0.009 -0.005 0.093
0.035 -0.041 0.083
0.029 -0.019 0.079
0.025 -0.021 0.093
0.039 -0.035 0.081
0.037 -0.031 0.081
0.041 -0.043 0.083
0.041 -0.043 0.089
0.037 -0.033 0.081
0.029 -0.043 0.103
0.033 -0.043 0.101
0.033 -0.043 0.105
0.035 -0.043 0.105
0.033 -0.043 0.103
0.015 -0.017 0.097
0.013 -0.013 0.097
0.023 -0.011 0.109
0.023 -0.011 0.111
0.023 -0.013 0.107
0.041 -0.041 0.101
0.039 -0.037 0.095
-0.017 -0.005 0.033
-0.033 0.013 0.043
-0.027 0.003 0.055
-0.015 -0.007 0.033
-0.015 -0.007 0.037
-0.027 0.003 0.033
0.011 -0.043 0.039
0.009 -0.039 0.045
0.009 -0.031 0.047
-0.021 0.003 0.037
-0.017 0.003 0.047
-0.015 0.003 0.045
0.013 -0.031 0.049
-0.029 0.003 0.049
-0.027 0.003 0.055
-0.021 0.007 0.061
-0.005 0.011 0.055
-0.017 0.019 0.057
0.007 -0.013 0.055
-0.009 0.013 0.059
-0.027 0.003 0.055
-0.017 0.005 0.041
0.003 -0.027 0.041
0.005 -0.027 0.045
-0.025 0.009 0.065
-0.019 0.011 0.067
-0.017 0.011 0.069
-0.003 0.003 0.075
-0.021 0.023 0.075
-0.001 -0.001 0.065
0.005 -0.003 0.071
0.005 -0.003 0.073
-0.009 0.015 0.091
-0.003 0.009 0.089
-0.007 0.011 0.089
-0.001 0.007 0.089
-0.037 0.043 0.081
-0.029 0.035 0.077
-0.013 0.017 0.075
-0.003 0.003 0.071
-0.003 0.003 0.075
-0.031 0.035 0.081
-0.031 0.035 0.085
0.013 -0.041 0.043
0.023 -0.037 0.045
0.035 -0.031 0.035
0.037 -0.035 0.043
0.017 -0.039 0.041
0.021 -0.037 0.043
0.017 -0.033 0.047
0.003 -0.009 0.055
0.003 -0.007 0.059
0.019 -0.029 0.061
0.027 -0.037 0.057
0.005 -0.005 0.069
0.023 -0.031 0.067
0.023 -0.029 0.071
0.019 -0.019 0.079
0.017 -0.023 0.087
0.033 -0.049 0.085
0.001 0.015 0.095
0.037 -0.049 0.093
0.021 -0.009 0.109
0.017 0.011 0.063
0.019 0.007 0.063
0.039 -0.017 0.057
0.041 -0.019 0.045
0.041 -0.017 0.045
0.035 -0.005 0.039
0.029 0.003 0.041
0.031 0.001 0.041
0.037 -0.017 0.067
0.037 -0.025 0.069
0.037 -0.021 0.067
0.039 -0.025 0.063
0.037 -0.033 0.063
0.039 -0.031 0.063
0.037 -0.017 0.061
0.031 -0.011 0.063
0.025 -0.003 0.053
0.021 0.001 0.061
0.033 -0.013 0.071
0.035 -0.015 0.069
0.033 -0.011 0.071
0.035 -0.021 0.071
0.019 -0.003 0.063
0.019 -0.001 0.065
0.019 -0.005 0.063
0.031 -0.009 0.069
0.023 -0.001 0.057
0.045 -0.021 0.041
0.041 -0.025 0.043
0.041 -0.025 0.043
0.051 -0.021 0.037
0.043 -0.013 0.039
0.039 -0.009 0.045
0.043 -0.017 0.049
0.037 -0.019 0.063
0.043 -0.031 0.095
0.043 -0.029 0.097
0.043 -0.031 0.099
0.041 -0.037 0.089
0.041 -0.035 0.085
0.041 -0.035 0.083
0.041 -0.035 0.087
0.043 -0.033 0.095
0.041 -0.037 0.089
0.035 -0.013 0.089
0.029 -0.005 0.077
0.021 -0.003 0.071
0.041 -0.023 0.095
0.039 -0.021 0.101
0.039 -0.019 0.101
0.039 -0.023 0.097
0.035 -0.007 0.103
0.033 -0.001 0.101
0.029 -0.009 0.105
0.035 -0.011 0.089
0.031 0.003 0.101
0.033 -0.013 0.067
0.037 -0.017 0.087
0.039 -0.023 0.097
0.037 -0.033 0.105
0.039 -0.035 0.105
0.041 -0.039 0.105
0.045 -0.037 0.101
0.021 0.001 0.105
0.023 -0.003 0.109
0.025 -0.007 0.115
0.027 -0.011 0.109
0.035 -0.007 0.105
0.027 -0.007 0.111
0.033 -0.003 0.109
0.025 -0.005 0.109
0.037 -0.017 0.099
0.001 0.029 0.055
0.009 0.023 0.043
0.001 0.029 0.059
-0.011 0.035 0.061
-0.001 0.031 0.081
0.003 0.023 0.059
0.015 0.015 0.071
0.017 0.011 0.061
0.005 0.015 0.043
0.001 0.011 0.047
-0.009 0.031 0.049
-0.029 0.031 0.045
0.009 0.025 0.043
-0.001 0.031 0.055
0.009 0.019 0.085
0.011 0.017 0.085
0.013 0.015 0.065
0.011 0.017 0.071
-0.001 0.027 0.067
-0.003 0.033 0.067
-0.001 0.031 0.059
-0.009 0.035 0.035
-0.003 0.035 0.041
-0.005 0.033 0.061
-0.009 0.035 0.081
0.011 0.017 0.085
-0.001 0.031 0.083
0.009 0.021 0.081
0.001 0.017 0.095
-0.003 0.025 0.091
-0.007 0.025 0.095
-0.009 0.033 0.087
-0.001 0.031 0.085
-0.001 0.021 0.095
-0.001 0.021 0.095
0.001 0.019 0.095
-0.003 0.023 0.095
-0.009 0.027 0.093
-0.029 0.043 0.081
-0.029 0.043 0.081
-0.011 0.037 0.075
-0.021 0.037 0.073
-0.025 0.033 0.087
-0.023 0.035 0.085
-0.011 0.033 0.085
-0.005 0.033 0.083
0.005 0.015 0.045
0.027 0.005 0.043
0.031 0.003 0.037
0.011 0.013 0.057
0.017 0.011 0.057
0.001 0.015 0.057
0.005 0.021 0.051
0.003 0.025 0.051
0.029 0.007 0.087
0.017 0.011 0.073
0.011 0.019 0.079
0.003 0.015 0.093
0.009 0.011 0.091
0.029 0.005 0.099
0.033 0.001 0.097
0.019 0.003 0.111
