-0.005 -0.015 0.035
-0.005 -0.013 0.037
-0.001 -0.013 0.045
-0.011 -0.005 0.037
-0.009 -0.003 0.039
-0.013 -0.007 0.037
-0.013 -0.005 0.039
-0.011 -0.003 0.039
-0.011 -0.001 0.039
-0.007 -0.003 0.039
-0.003 -0.013 0.043
-0.003 -0.011 0.043
-0.001 -0.013 0.045
0.017 -0.035 0.045
0.023 -0.037 0.053
0.027 -0.037 0.059
0.027 -0.033 0.063
0.019 -0.027 0.065
0.021 -0.031 0.063
0.015 -0.019 0.055
0.019 -0.027 0.067
0.017 -0.015 0.055
0.025 -0.035 0.087
0.007 -0.037 0.045
0.009 -0.043 0.043
0.009 -0.041 0.043
0.009 -0.039 0.045
0.015 -0.035 0.045
0.017 -0.039 0.039
0.027 -0.037 0.047
0.031 -0.039 0.049
0.019 -0.033 0.053
0.023 -0.035 0.055
0.029 -0.037 0.059
0.035 -0.037 0.051
0.033 -0.037 0.051
0.035 -0.037 0.055
0.033 -0.049 0.087
0.029 -0.047 0.083
0.007 -0.025 0.049
0.003 -0.027 0.041
0.005 -0.023 0.045
0.005 -0.023 0.047
0.007 -0.025 0.049
0.003 -0.013 0.047
0.003 -0.013 0.051
0.009 -0.015 0.053
0.009 -0.011 0.057
0.001 -0.011 0.049
0.003 -0.011 0.053
0.003 -0.009 0.055
0.003 -0.007 0.057
0.023 -0.029 0.069
0.025 -0.031 0.069
0.023 -0.037 0.097
0.021 -0.033 0.097
0.011 -0.029 0.051
0.015 -0.031 0.053
0.011 -0.029 0.053
0.013 -0.029 0.055
0.009 -0.025 0.051
0.015 -0.023 0.055
0.015 -0.029 0.057
0.019 -0.029 0.061
0.019 -0.027 0.065
0.019 -0.025 0.069
0.005 -0.009 0.057
0.013 -0.005 0.065
0.017 -0.021 0.067
0.017 -0.021 0.071
0.019 -0.027 0.085
0.023 -0.033 0.087
0.021 -0.031 0.087
0.025 -0.039 0.099
0.023 -0.037 0.099
0.017 -0.021 0.073
0.021 -0.031 0.087
0.023 -0.037 0.099
0.023 -0.037 0.099
0.025 -0.037 0.101
0.023 -0.033 0.099
0.023 -0.035 0.099
0.017 -0.019 0.089
0.019 -0.027 0.097
0.017 -0.021 0.089
0.033 -0.037 0.049
0.029 -0.037 0.059
0.047 -0.025 0.039
0.033 -0.047 0.089
0.037 -0.047 0.093
0.037 -0.035 0.051
0.037 -0.035 0.057
0.039 -0.033 0.055
0.035 -0.047 0.087
0.035 -0.047 0.089
0.039 -0.049 0.091
0.033 -0.045 0.091
0.047 -0.023 0.041
0.043 -0.045 0.083
0.049 -0.023 0.039
0.039 -0.047 0.093
0.025 -0.041 0.085
0.027 -0.043 0.087
0.027 -0.041 0.087
0.025 -0.037 0.087
0.025 -0.039 0.099
0.025 -0.039 0.101
0.033 -0.043 0.091
0.025 -0.039 0.101
0.027 -0.039 0.101
0.035 -0.047 0.085
0.037 -0.041 0.091
0.035 -0.045 0.093
0.033 -0.045 0.091
0.031 -0.043 0.105
0.027 -0.041 0.101
0.029 -0.041 0.103
0.031 -0.047 0.089
0.023 -0.033 0.087
0.025 -0.039 0.085
0.025 -0.039 0.085
0.027 -0.039 0.089
0.031 -0.045 0.089
0.031 -0.043 0.091
0.027 -0.041 0.101
0.031 -0.045 0.089
0.035 -0.047 0.091
0.039 -0.049 0.093
0.039 -0.039 0.089
0.033 -0.043 0.103
0.033 -0.043 0.105
0.041 -0.039 0.089
0.037 -0.045 0.093
0.037 -0.041 0.091
0.035 -0.043 0.105
0.021 -0.025 0.073
0.019 -0.025 0.071
0.019 -0.025 0.071
0.019 -0.029 0.085
0.025 -0.039 0.101
0.027 -0.035 0.101
0.027 -0.031 0.099
0.005 -0.005 0.067
0.007 -0.005 0.071
0.013 -0.005 0.069
0.013 -0.013 0.089
0.007 -0.003 0.075
0.011 -0.009 0.089
0.017 -0.023 0.087
0.025 -0.035 0.099
0.023 -0.033 0.099
0.023 -0.029 0.099
0.015 -0.019 0.091
0.021 -0.027 0.103
0.015 -0.019 0.091
0.017 -0.021 0.089
0.027 -0.029 0.103
0.027 -0.029 0.103
0.027 -0.029 0.103
0.015 -0.017 0.095
0.021 -0.023 0.103
0.025 -0.023 0.105
0.021 -0.021 0.105
0.023 -0.021 0.105
0.015 -0.019 0.087
0.019 -0.029 0.085
0.019 -0.027 0.089
0.021 -0.029 0.089
0.029 -0.041 0.103
0.027 -0.037 0.101
0.025 -0.039 0.101
0.017 -0.021 0.091
0.021 -0.029 0.095
0.023 -0.031 0.099
0.027 -0.029 0.103
0.023 -0.033 0.099
0.019 -0.027 0.097
0.023 -0.029 0.099
0.025 -0.031 0.099
0.027 -0.035 0.101
0.025 -0.029 0.103
0.021 -0.027 0.103
0.021 -0.027 0.103
0.023 -0.029 0.103
0.025 -0.027 0.105
0.029 -0.027 0.105
0.027 -0.027 0.105
0.013 -0.015 0.095
0.013 -0.015 0.095
0.011 -0.011 0.093
0.011 -0.009 0.095
0.015 -0.013 0.103
0.009 -0.005 0.095
0.017 -0.019 0.093
0.029 -0.019 0.105
0.029 -0.025 0.105
0.029 -0.039 0.089
0.031 -0.043 0.105
0.029 -0.041 0.103
0.029 -0.033 0.101
0.027 -0.035 0.101
0.029 -0.031 0.101
0.033 -0.043 0.105
0.033 -0.039 0.105
0.031 -0.027 0.105
0.031 -0.029 0.105
0.037 -0.023 0.103
0.035 -0.023 0.103
0.031 -0.025 0.105
0.033 -0.023 0.105
0.031 -0.013 0.105
0.029 -0.043 0.103
0.029 -0.033 0.101
0.031 -0.043 0.105
0.033 -0.043 0.105
0.035 -0.041 0.105
0.041 -0.039 0.105
0.039 -0.039 0.105
0.015 -0.017 0.099
0.023 -0.031 0.099
0.023 -0.029 0.099
0.023 -0.027 0.103
0.029 -0.033 0.101
0.019 -0.023 0.101
0.023 -0.025 0.105
0.019 -0.021 0.103
0.011 -0.009 0.101
0.011 -0.003 0.103
0.013 -0.011 0.109
0.011 -0.001 0.103
0.017 -0.011 0.107
0.021 -0.009 0.107
0.017 -0.011 0.107
0.025 -0.009 0.113
0.017 -0.013 0.107
0.025 -0.013 0.107
0.029 -0.011 0.105
0.027 -0.011 0.109
0.025 -0.009 0.113
0.027 -0.009 0.111
0.023 -0.007 0.115
0.023 -0.005 0.115
0.035 -0.037 0.107
0.039 -0.035 0.105
0.043 -0.031 0.099
0.041 -0.029 0.099
0.035 -0.019 0.103
0.035 -0.015 0.105
0.033 -0.011 0.103
0.035 -0.009 0.103
0.033 -0.007 0.105
0.033 -0.007 0.105
-0.025 0.003 0.045
-0.029 0.003 0.053
-0.023 0.003 0.051
-0.025 0.003 0.055
-0.025 0.007 0.063
-0.023 0.009 0.063
-0.013 0.009 0.051
-0.005 0.011 0.051
-0.015 0.017 0.051
-0.015 0.017 0.053
-0.023 0.009 0.065
-0.017 0.011 0.067
-0.037 0.015 0.043
-0.037 0.017 0.047
-0.035 0.015 0.045
-0.039 0.019 0.047
-0.039 0.019 0.047
-0.033 0.023 0.057
-0.037 0.025 0.059
-0.035 0.023 0.059
-0.037 0.019 0.051
-0.033 0.023 0.057
-0.039 0.025 0.055
-0.035 0.029 0.063
-0.025 0.003 0.035
-0.027 0.003 0.049
-0.027 0.003 0.051
-0.021 0.003 0.045
-0.021 0.005 0.051
-0.021 0.005 0.051
-0.025 0.003 0.045
-0.027 0.003 0.049
-0.025 0.003 0.049
-0.021 0.005 0.049
-0.025 0.003 0.053
-0.025 0.003 0.055
-0.025 0.003 0.055
-0.031 0.009 0.057
-0.025 0.005 0.059
-0.027 0.005 0.061
-0.021 0.005 0.057
-0.021 0.005 0.057
-0.011 0.001 0.037
-0.007 0.003 0.039
-0.005 0.003 0.039
-0.011 0.003 0.045
-0.015 0.003 0.047
-0.013 0.005 0.049
-0.007 0.005 0.045
-0.003 0.009 0.043
-0.015 0.003 0.047
-0.007 0.005 0.047
-0.007 0.009 0.049
-0.005 0.009 0.049
-0.017 0.015 0.047
-0.031 0.019 0.051
-0.027 0.005 0.061
-0.025 0.007 0.063
-0.027 0.009 0.063
-0.023 0.009 0.063
-0.019 0.009 0.065
-0.017 0.011 0.067
-0.025 0.011 0.065
-0.013 0.007 0.051
-0.015 0.017 0.051
-0.009 0.015 0.061
-0.013 0.015 0.063
-0.015 0.017 0.061
-0.007 0.015 0.063
-0.007 0.009 0.081
-0.025 0.003 0.053
-0.029 0.003 0.055
-0.031 0.005 0.055
-0.029 0.003 0.055
-0.025 0.003 0.055
-0.029 0.005 0.057
-0.027 0.007 0.061
-0.025 0.007 0.063
-0.023 0.005 0.061
-0.023 0.005 0.059
-0.027 0.011 0.061
-0.021 0.009 0.067
-0.009 0.009 0.049
-0.013 0.015 0.055
-0.005 0.009 0.049
-0.001 -0.001 0.067
-0.011 0.015 0.065
-0.031 0.019 0.051
-0.031 0.021 0.053
-0.017 0.011 0.069
-0.027 0.025 0.055
-0.027 0.027 0.057
-0.029 0.025 0.061
-0.029 0.027 0.063
-0.017 0.011 0.071
-0.027 0.027 0.063
-0.019 0.019 0.073
-0.019 0.019 0.071
-0.013 0.015 0.065
-0.011 0.017 0.067
-0.011 0.017 0.067
-0.013 0.017 0.071
-0.015 0.017 0.065
-0.003 0.007 0.085
-0.013 0.015 0.083
-0.005 0.009 0.087
-0.029 0.021 0.051
-0.011 0.015 0.063
-0.013 0.015 0.065
-0.003 0.003 0.077
-0.029 0.027 0.063
-0.027 0.029 0.067
-0.013 0.015 0.085
-0.007 0.011 0.089
-0.005 0.011 0.089
-0.007 0.013 0.091
-0.005 0.013 0.091
-0.023 0.011 0.067
-0.021 0.011 0.069
-0.023 0.013 0.067
-0.001 0.001 0.077
-0.009 0.011 0.081
-0.005 0.007 0.081
-0.005 0.007 0.085
-0.005 0.007 0.083
-0.005 0.007 0.085
-0.021 0.023 0.067
-0.019 0.019 0.075
-0.031 0.029 0.067
-0.023 0.029 0.065
-0.021 0.023 0.077
-0.021 0.023 0.079
-0.021 0.023 0.077
-0.017 0.017 0.081
-0.017 0.017 0.081
-0.003 0.007 0.087
-0.003 0.009 0.089
-0.003 0.011 0.091
-0.009 0.011 0.083
-0.001 0.011 0.091
-0.001 0.017 0.095
-0.003 0.005 0.083
-0.013 0.015 0.083
-0.011 0.013 0.087
-0.013 0.015 0.087
-0.011 0.013 0.087
-0.001 0.007 0.089
-0.011 0.015 0.089
-0.007 0.011 0.089
-0.007 0.013 0.091
-0.017 0.025 0.087
-0.015 0.023 0.089
-0.003 0.021 0.095
-0.003 0.023 0.095
-0.009 0.015 0.091
-0.011 0.025 0.093
-0.029 0.033 0.071
-0.029 0.033 0.071
-0.029 0.033 0.071
-0.029 0.035 0.071
-0.025 0.033 0.079
-0.027 0.033 0.079
-0.017 0.021 0.087
-0.023 0.033 0.077
-0.029 0.035 0.079
-0.031 0.035 0.083
-0.025 0.033 0.085
-0.029 0.035 0.079
-0.021 0.029 0.079
-0.019 0.033 0.085
-0.021 0.033 0.081
-0.031 0.037 0.089
-0.011 0.017 0.089
-0.009 0.017 0.091
-0.013 0.025 0.089
-0.005 0.021 0.095
-0.031 0.035 0.085
-0.031 0.035 0.087
-0.013 0.027 0.091
-0.011 0.025 0.093
0.003 -0.007 0.061
0.003 -0.005 0.063
0.009 -0.007 0.067
0.007 -0.007 0.065
0.009 -0.007 0.067
0.001 -0.003 0.069
0.011 -0.005 0.069
0.017 -0.013 0.055
0.017 -0.009 0.059
0.017 -0.023 0.087
0.021 -0.033 0.097
0.021 -0.031 0.095
0.017 -0.023 0.087
0.019 -0.021 0.093
0.021 -0.033 0.097
0.021 -0.033 0.097
-0.001 0.003 0.079
0.003 -0.001 0.079
0.003 -0.001 0.079
0.001 0.001 0.081
0.005 0.001 0.081
0.007 0.001 0.081
0.001 -0.005 0.061
0.005 -0.003 0.075
-0.001 0.001 0.077
0.001 -0.001 0.075
0.001 -0.001 0.075
0.005 -0.003 0.075
0.019 -0.025 0.097
0.015 -0.019 0.091
0.015 -0.017 0.093
0.017 -0.021 0.099
0.019 -0.027 0.097
0.017 -0.023 0.097
0.017 -0.021 0.099
0.013 -0.013 0.099
0.013 -0.013 0.101
0.013 -0.013 0.101
0.003 0.003 0.083
-0.001 0.005 0.085
0.001 0.003 0.083
0.023 -0.037 0.099
0.003 0.001 0.081
0.003 0.003 0.083
0.003 0.005 0.085
0.003 0.003 0.083
0.001 -0.001 0.077
0.013 -0.015 0.095
0.011 -0.011 0.093
0.011 -0.007 0.103
0.011 -0.005 0.101
0.013 -0.005 0.103
0.001 0.007 0.089
0.003 0.007 0.089
0.005 0.005 0.087
0.005 0.011 0.093
0.009 -0.003 0.103
0.001 0.005 0.085
0.003 0.005 0.087
0.011 -0.007 0.095
0.011 -0.009 0.101
0.009 -0.005 0.099
0.009 -0.001 0.103
0.009 -0.003 0.103
0.005 0.011 0.093
0.009 0.001 0.103
0.019 -0.015 0.105
0.027 -0.011 0.109
0.025 -0.009 0.113
0.023 -0.011 0.111
0.023 -0.009 0.113
0.005 0.019 0.091
0.005 0.021 0.089
0.001 0.019 0.095
0.025 -0.009 0.113
0.019 0.001 0.111
0.021 0.001 0.109
0.021 0.003 0.109
0.019 0.005 0.111
0.017 0.011 0.113
