0.005 0.015 0.045
0.003 0.027 0.047
0.005 0.015 0.047
0.007 0.009 0.051
0.029 0.003 0.043
0.035 -0.001 0.037
0.037 -0.005 0.037
0.013 -0.001 0.033
0.017 0.001 0.033
0.027 -0.001 0.049
0.029 -0.007 0.051
0.031 -0.009 0.051
0.035 -0.015 0.061
0.039 -0.009 0.045
0.041 -0.013 0.043
0.041 -0.015 0.055
0.039 -0.021 0.063
0.037 -0.017 0.065
0.017 0.009 0.049
0.017 0.009 0.051
0.023 0.007 0.045
0.019 0.007 0.047
0.023 0.007 0.045
0.017 0.011 0.057
0.011 0.009 0.049
0.033 -0.003 0.041
0.013 0.003 0.037
0.011 0.003 0.037
0.007 0.005 0.043
0.011 -0.001 0.033
0.009 0.011 0.053
0.013 0.011 0.053
0.009 0.011 0.051
0.009 0.011 0.053
0.009 0.009 0.049
0.023 0.007 0.041
0.019 0.001 0.033
0.025 0.007 0.037
0.021 0.003 0.059
0.017 0.011 0.057
0.021 -0.011 0.061
0.029 -0.007 0.069
0.029 -0.007 0.069
0.021 -0.005 0.059
0.025 -0.007 0.053
0.031 -0.009 0.051
0.027 -0.013 0.055
0.027 -0.011 0.061
0.029 -0.011 0.061
0.037 -0.005 0.037
0.039 -0.007 0.037
0.043 -0.015 0.037
0.041 -0.031 0.045
0.045 -0.021 0.041
0.037 -0.007 0.039
0.037 -0.007 0.043
0.043 -0.015 0.051
0.041 -0.017 0.053
0.039 -0.023 0.065
0.039 -0.009 0.049
0.035 -0.015 0.069
0.037 -0.017 0.091
0.037 -0.017 0.091
0.039 -0.033 0.089
0.043 -0.043 0.083
0.041 -0.041 0.089
0.033 -0.011 0.071
0.035 -0.015 0.071
0.025 -0.003 0.075
0.025 -0.003 0.077
0.031 -0.007 0.081
0.013 0.017 0.079
0.015 0.013 0.075
0.023 -0.007 0.067
0.021 -0.003 0.073
0.031 -0.011 0.065
0.031 -0.007 0.077
0.021 -0.001 0.077
0.027 -0.005 0.073
0.027 -0.003 0.075
0.025 -0.001 0.079
0.031 -0.001 0.087
0.033 -0.001 0.099
0.025 0.007 0.095
0.023 -0.001 0.097
0.033 -0.001 0.093
0.017 0.001 0.087
0.017 0.001 0.089
0.017 0.001 0.085
0.011 0.007 0.089
0.023 0.001 0.085
0.019 0.001 0.085
0.025 -0.001 0.083
0.033 -0.001 0.089
0.035 -0.015 0.067
0.035 -0.021 0.071
0.037 -0.017 0.085
0.037 -0.019 0.081
0.037 -0.017 0.085
0.037 -0.017 0.091
0.037 -0.019 0.091
0.037 -0.021 0.091
0.035 -0.011 0.091
0.037 -0.013 0.093
0.037 -0.017 0.103
0.035 -0.015 0.105
0.037 -0.015 0.101
0.045 -0.037 0.101
0.037 -0.033 0.105
0.037 -0.035 0.107
0.033 -0.003 0.103
0.035 -0.005 0.105
0.025 -0.005 0.105
0.013 -0.003 0.099
0.015 -0.003 0.097
0.013 -0.003 0.099
0.015 -0.005 0.101
0.019 -0.005 0.101
0.021 -0.001 0.099
0.027 0.009 0.101
0.027 0.009 0.103
0.029 0.007 0.097
0.029 0.005 0.103
0.033 -0.001 0.101
0.021 0.001 0.105
0.025 -0.005 0.113
0.035 -0.015 0.103
0.037 -0.021 0.103
0.037 -0.015 0.099
0.035 -0.003 0.105
-0.007 0.035 0.039
-0.021 0.035 0.035
-0.003 0.035 0.037
0.005 0.037 0.037
-0.019 0.035 0.031
-0.015 0.033 0.031
-0.029 0.033 0.037
-0.029 0.033 0.037
-0.035 0.033 0.049
-0.033 0.033 0.043
-0.033 0.033 0.043
-0.029 0.033 0.053
-0.031 0.035 0.057
-0.005 0.033 0.043
-0.005 0.033 0.043
-0.007 0.033 0.047
-0.013 0.027 0.051
-0.003 0.031 0.047
-0.001 0.031 0.045
-0.003 0.033 0.043
0.001 0.029 0.051
0.005 0.025 0.049
-0.019 0.035 0.037
-0.023 0.033 0.039
-0.023 0.029 0.043
-0.025 0.031 0.043
-0.013 0.027 0.047
-0.011 0.035 0.061
-0.017 0.031 0.059
-0.021 0.031 0.063
-0.021 0.031 0.063
-0.005 0.033 0.057
-0.005 0.033 0.057
0.003 0.023 0.059
0.001 0.027 0.061
-0.025 0.023 0.049
-0.029 0.027 0.049
-0.029 0.031 0.049
-0.021 0.031 0.063
-0.023 0.033 0.063
-0.007 0.031 0.055
-0.005 0.033 0.057
-0.009 0.033 0.059
-0.003 0.031 0.057
-0.001 0.031 0.061
-0.033 0.033 0.045
-0.035 0.035 0.057
-0.019 0.035 0.035
-0.023 0.033 0.037
-0.031 0.033 0.047
-0.011 0.035 0.037
-0.027 0.037 0.061
-0.007 0.035 0.063
-0.011 0.037 0.073
-0.009 0.035 0.077
0.001 0.017 0.069
0.001 0.027 0.077
0.001 0.027 0.077
-0.015 0.035 0.069
-0.017 0.035 0.079
-0.003 0.027 0.069
-0.001 0.029 0.073
-0.013 0.035 0.083
-0.003 0.031 0.087
-0.007 0.031 0.089
0.003 0.023 0.091
-0.003 0.023 0.095
-0.005 0.023 0.095
-0.009 0.031 0.089
-0.007 0.025 0.095
-0.003 0.029 0.089
-0.031 0.043 0.081
-0.033 0.041 0.087
-0.029 0.037 0.067
-0.023 0.037 0.065
-0.021 0.039 0.075
-0.021 0.039 0.077
-0.021 0.037 0.073
-0.021 0.039 0.077
-0.021 0.039 0.079
-0.011 0.035 0.065
-0.005 0.035 0.073
-0.027 0.041 0.081
-0.027 0.039 0.087
-0.031 0.037 0.089
-0.013 0.035 0.083
0.011 0.005 0.039
0.005 0.005 0.043
0.011 0.005 0.041
0.011 0.005 0.041
0.027 0.005 0.033
0.031 0.003 0.037
0.029 0.003 0.043
0.009 0.029 0.039
0.007 0.029 0.043
0.007 0.025 0.045
0.003 0.029 0.045
0.005 0.029 0.045
0.005 0.011 0.057
0.005 0.023 0.053
0.003 0.021 0.057
0.015 0.011 0.051
0.007 0.013 0.057
0.021 0.007 0.049
0.023 0.005 0.051
0.021 0.003 0.059
0.005 0.023 0.051
0.001 0.023 0.061
0.001 0.027 0.059
0.003 0.035 0.035
0.005 0.035 0.037
0.003 0.033 0.041
0.005 0.033 0.041
0.017 0.005 0.071
0.005 0.023 0.075
0.003 0.027 0.079
0.011 0.017 0.085
0.011 0.015 0.085
0.031 0.001 0.087
0.027 0.007 0.087
0.021 0.001 0.095
0.029 0.005 0.095
0.009 0.019 0.087
0.007 0.023 0.085
0.011 0.019 0.083
0.009 0.019 0.085
0.017 0.009 0.111
0.029 0.007 0.101
0.029 0.007 0.101
0.019 0.007 0.109
0.021 0.005 0.109
0.019 0.007 0.111
-0.011 -0.007 0.035
0.015 -0.039 0.043
0.019 -0.037 0.037
0.027 -0.035 0.061
0.031 -0.037 0.051
0.035 -0.037 0.051
0.039 -0.033 0.055
0.041 -0.039 0.089
0.013 -0.041 0.039
0.013 -0.041 0.041
0.011 -0.041 0.043
0.011 -0.037 0.045
0.013 -0.035 0.045
0.031 -0.039 0.049
0.023 -0.037 0.041
0.029 -0.039 0.051
0.031 -0.039 0.049
0.025 -0.037 0.051
0.035 -0.037 0.045
0.037 -0.037 0.049
0.035 -0.035 0.061
0.017 -0.033 0.049
0.021 -0.035 0.053
0.005 -0.023 0.047
0.035 -0.037 0.055
0.041 -0.031 0.055
0.035 -0.047 0.093
0.037 -0.039 0.089
0.041 -0.037 0.089
0.001 -0.013 0.049
0.027 -0.047 0.085
0.017 -0.033 0.055
0.027 -0.043 0.087
0.029 -0.047 0.087
0.033 -0.041 0.091
0.027 -0.035 0.101
0.033 -0.043 0.105
0.031 -0.037 0.105
0.041 -0.039 0.105
0.041 -0.039 0.105
0.045 -0.037 0.099
0.041 -0.029 0.043
0.041 -0.021 0.049
0.051 -0.021 0.035
0.043 -0.015 0.041
0.043 -0.017 0.051
0.041 -0.013 0.053
0.037 -0.015 0.055
0.039 -0.015 0.055
0.041 -0.027 0.053
0.041 -0.027 0.055
0.041 -0.025 0.059
0.039 -0.023 0.059
0.039 -0.023 0.065
0.037 -0.013 0.055
0.031 -0.049 0.087
0.029 -0.047 0.087
0.031 -0.047 0.089
0.029 -0.045 0.089
0.029 -0.041 0.089
0.033 -0.043 0.105
0.041 -0.043 0.089
0.041 -0.041 0.089
0.033 -0.047 0.089
0.039 -0.047 0.091
0.031 -0.043 0.091
0.033 -0.041 0.091
0.035 -0.043 0.105
0.035 -0.041 0.105
0.037 -0.041 0.105
0.043 -0.039 0.103
0.023 -0.029 0.103
0.029 -0.031 0.101
0.027 -0.029 0.103
0.021 -0.021 0.105
0.037 -0.029 0.101
0.039 -0.025 0.097
0.035 -0.037 0.107
0.035 -0.031 0.103
0.033 -0.025 0.105
0.031 -0.023 0.105
0.037 -0.021 0.103
0.039 -0.023 0.103
0.039 -0.021 0.095
0.025 -0.037 0.101
0.035 -0.043 0.105
0.033 -0.037 0.107
0.031 -0.037 0.105
0.033 -0.031 0.103
0.035 -0.025 0.103
0.035 -0.027 0.101
0.033 -0.027 0.105
0.027 -0.027 0.105
0.023 -0.025 0.105
0.019 -0.019 0.103
0.015 -0.011 0.109
0.021 -0.013 0.105
0.039 -0.023 0.101
0.027 -0.011 0.109
0.043 -0.043 0.087
0.043 -0.043 0.087
0.037 -0.019 0.069
0.037 -0.019 0.067
0.045 -0.037 0.101
0.043 -0.033 0.097
0.043 -0.033 0.099
0.039 -0.019 0.095
0.039 -0.021 0.101
0.043 -0.041 0.103
0.039 -0.041 0.105
0.039 -0.037 0.105
0.043 -0.039 0.103
0.019 -0.027 0.097
0.023 -0.027 0.103
0.021 -0.021 0.105
0.017 -0.011 0.107
0.019 -0.013 0.105
0.021 -0.011 0.105
0.023 -0.011 0.111
0.027 -0.011 0.107
0.025 -0.007 0.113
0.023 -0.009 0.113
0.023 -0.009 0.113
0.031 -0.003 0.107
0.027 -0.009 0.111
0.035 -0.035 0.107
0.037 -0.025 0.103
0.035 -0.009 0.101
-0.015 0.003 0.047
0.027 -0.027 0.105
-0.027 0.005 0.059
-0.021 0.005 0.055
-0.021 0.007 0.059
-0.037 0.017 0.049
-0.035 0.023 0.059
-0.037 0.025 0.059
-0.033 0.029 0.065
-0.017 -0.001 0.037
-0.017 0.005 0.049
-0.015 0.003 0.047
-0.023 0.005 0.057
-0.013 0.007 0.051
-0.015 0.011 0.051
0.033 -0.043 0.105
0.025 -0.039 0.101
0.027 -0.035 0.101
-0.011 0.003 0.045
0.033 -0.033 0.105
0.027 -0.029 0.103
-0.023 0.019 0.047
-0.015 0.017 0.053
0.001 -0.001 0.077
0.017 -0.019 0.103
0.033 -0.025 0.105
0.031 -0.021 0.105
-0.025 0.003 0.053
-0.029 0.005 0.057
-0.021 0.007 0.059
-0.023 0.005 0.061
-0.021 0.007 0.059
-0.023 0.009 0.065
-0.019 0.009 0.065
0.017 -0.019 0.101
0.021 -0.019 0.105
-0.021 0.009 0.065
0.013 -0.013 0.107
-0.003 0.005 0.083
-0.017 0.017 0.077
0.001 -0.001 0.077
0.027 -0.011 0.109
0.013 -0.003 0.101
0.015 -0.017 0.105
0.021 -0.017 0.105
-0.007 0.011 0.089
0.005 0.011 0.093
0.025 -0.011 0.111
-0.017 0.011 0.071
-0.017 0.013 0.073
0.021 -0.025 0.103
0.019 -0.021 0.103
0.017 -0.015 0.107
-0.001 0.005 0.085
-0.007 0.011 0.089
-0.009 0.013 0.089
-0.013 0.017 0.089
-0.013 0.017 0.089
-0.011 0.017 0.089
-0.007 0.009 0.077
0.023 -0.011 0.111
0.025 -0.011 0.111
0.015 -0.011 0.109
-0.003 0.007 0.087
-0.001 0.007 0.089
-0.001 0.013 0.091
-0.009 0.015 0.091
-0.009 0.025 0.095
-0.005 0.023 0.095
-0.029 0.037 0.089
-0.027 0.031 0.073
-0.011 0.021 0.091
-0.007 0.017 0.091
-0.017 0.023 0.087
-0.007 0.023 0.095
0.003 0.015 0.095
0.001 0.017 0.095
-0.013 0.027 0.091
-0.005 0.023 0.095
-0.007 0.031 0.089
0.035 -0.033 0.105
0.039 -0.039 0.105
0.037 -0.037 0.107
0.039 -0.035 0.105
0.037 -0.009 0.051
0.035 -0.015 0.073
0.029 0.003 0.043
0.027 0.005 0.043
0.027 0.005 0.043
0.029 0.003 0.043
0.035 -0.021 0.103
0.033 -0.019 0.105
0.037 -0.019 0.103
0.037 -0.017 0.103
0.035 -0.021 0.103
0.029 -0.023 0.105
0.031 -0.023 0.105
0.025 -0.023 0.105
0.033 -0.021 0.105
0.041 -0.025 0.095
0.041 -0.027 0.097
0.029 -0.013 0.105
0.033 -0.017 0.105
0.035 -0.011 0.101
0.027 -0.015 0.105
0.029 -0.019 0.105
0.029 -0.011 0.105
0.029 -0.009 0.105
0.015 -0.011 0.109
0.027 -0.009 0.111
0.011 -0.001 0.103
0.007 0.009 0.091
0.023 -0.007 0.115
0.035 -0.009 0.103
0.035 -0.007 0.105
0.031 -0.005 0.107
0.017 0.005 0.111
0.017 0.003 0.111
0.035 -0.003 0.107
0.017 0.003 0.111
0.015 0.007 0.113
0.017 0.007 0.113
