0.001 0.031 0.043
0.027 0.005 0.043
0.023 0.007 0.039
0.035 -0.003 0.039
0.023 0.003 0.055
0.019 0.009 0.053
0.041 -0.025 0.059
0.015 0.009 0.049
0.023 0.007 0.045
0.015 0.011 0.051
0.009 0.005 0.043
0.027 0.007 0.037
0.033 0.001 0.037
0.021 0.007 0.059
0.017 0.013 0.065
0.031 -0.015 0.057
0.031 -0.013 0.061
0.041 -0.013 0.041
0.039 -0.009 0.039
0.035 -0.003 0.037
0.041 -0.029 0.053
0.035 -0.011 0.087
0.041 -0.035 0.089
0.041 -0.035 0.087
0.025 -0.007 0.067
0.011 0.019 0.079
0.021 -0.001 0.077
0.019 -0.001 0.075
0.031 0.003 0.093
0.033 -0.001 0.089
0.031 0.003 0.089
0.033 -0.001 0.099
0.035 -0.007 0.093
0.021 0.001 0.089
0.031 -0.007 0.083
0.035 -0.015 0.071
0.033 -0.011 0.071
0.035 -0.011 0.087
0.035 -0.015 0.089
0.033 -0.003 0.103
0.039 -0.033 0.103
0.027 -0.005 0.103
0.017 -0.005 0.099
0.025 -0.003 0.107
0.025 -0.005 0.111
0.023 -0.001 0.109
0.025 -0.005 0.115
0.037 -0.021 0.099
-0.019 0.035 0.037
-0.015 0.035 0.033
-0.029 0.031 0.045
-0.031 0.033 0.045
-0.031 0.035 0.053
-0.035 0.033 0.049
-0.013 0.031 0.045
-0.007 0.031 0.055
-0.017 0.023 0.047
-0.001 0.031 0.051
-0.021 0.023 0.045
-0.013 0.033 0.061
-0.017 0.033 0.063
-0.029 0.011 0.051
-0.007 0.033 0.057
-0.017 0.033 0.063
-0.001 0.033 0.041
0.007 0.023 0.083
-0.019 0.035 0.069
-0.017 0.035 0.079
-0.001 0.027 0.067
-0.001 0.023 0.065
-0.007 0.033 0.083
-0.001 0.029 0.073
-0.003 0.031 0.087
-0.007 0.027 0.093
-0.005 0.025 0.093
-0.017 0.035 0.075
-0.027 0.037 0.087
0.005 0.021 0.045
0.025 0.007 0.037
0.021 0.007 0.043
0.009 0.029 0.039
0.005 0.019 0.045
0.007 0.025 0.045
0.005 0.015 0.065
0.013 0.015 0.061
0.025 0.005 0.051
0.005 0.019 0.049
0.003 0.025 0.053
0.005 0.033 0.037
0.005 0.037 0.037
0.003 0.017 0.069
0.015 0.015 0.073
0.009 0.019 0.071
0.013 0.017 0.077
0.013 0.017 0.079
0.011 0.013 0.087
0.007 0.019 0.089
0.009 0.019 0.087
0.017 0.009 0.109
0.015 0.005 0.041
0.033 0.001 0.037
0.031 0.003 0.037
0.035 -0.005 0.033
0.039 -0.021 0.043
0.039 -0.009 0.047
0.037 -0.007 0.049
0.029 -0.005 0.047
0.037 -0.007 0.041
0.031 -0.015 0.057
0.031 -0.013 0.061
0.021 -0.001 0.061
0.039 -0.007 0.035
0.037 -0.007 0.045
0.041 -0.025 0.055
0.039 -0.025 0.061
0.037 -0.017 0.059
0.039 -0.017 0.057
0.041 -0.031 0.083
0.041 -0.035 0.089
0.031 -0.017 0.079
0.031 -0.007 0.077
0.019 -0.001 0.065
0.029 -0.003 0.079
0.035 -0.007 0.097
0.035 -0.009 0.095
0.035 -0.011 0.083
0.039 -0.029 0.081
0.033 -0.023 0.105
0.033 -0.023 0.105
0.033 -0.019 0.105
0.033 -0.001 0.101
0.035 -0.005 0.105
0.035 -0.003 0.105
0.033 -0.001 0.109
0.043 -0.029 0.097
0.039 -0.023 0.103
0.037 -0.017 0.103
0.035 -0.011 0.103
0.035 -0.007 0.099
0.035 -0.015 0.105
0.009 0.027 0.039
0.001 0.021 0.035
0.003 0.027 0.055
-0.005 0.033 0.049
-0.029 0.031 0.047
-0.005 0.033 0.059
0.001 0.013 0.053
0.005 0.021 0.053
-0.003 0.003 0.035
0.003 0.013 0.041
-0.005 0.007 0.041
0.003 0.017 0.037
-0.001 0.009 0.047
-0.003 0.035 0.039
-0.003 0.035 0.041
-0.029 0.031 0.045
0.009 0.029 0.039
-0.005 0.033 0.045
-0.001 0.031 0.051
0.001 0.015 0.057
-0.021 0.007 0.059
-0.001 0.019 0.063
-0.003 0.019 0.065
-0.027 0.029 0.055
-0.001 0.023 0.065
0.003 0.023 0.059
0.001 0.023 0.061
-0.029 0.033 0.053
-0.025 0.033 0.059
-0.007 0.035 0.065
0.011 0.019 0.075
-0.007 0.035 0.069
-0.009 0.035 0.071
0.013 0.015 0.083
0.007 0.013 0.091
0.003 0.027 0.085
0.001 0.027 0.089
0.001 0.025 0.091
-0.011 0.037 0.071
-0.021 0.039 0.079
-0.029 0.043 0.077
0.023 0.007 0.043
0.001 0.011 0.041
0.023 0.007 0.045
0.001 0.021 0.035
0.011 0.011 0.053
0.017 0.013 0.063
0.017 0.011 0.061
0.021 0.007 0.049
0.021 0.007 0.053
0.019 0.009 0.053
0.019 0.005 0.065
0.011 0.017 0.067
0.011 0.009 0.087
0.009 0.011 0.091
0.029 0.003 0.091
0.029 0.005 0.095
0.009 0.021 0.081
0.005 0.025 0.081
0.021 0.003 0.107
0.021 0.001 0.109
0.019 0.007 0.111
-0.017 -0.005 0.035
-0.019 -0.001 0.035
-0.017 -0.003 0.037
0.005 -0.025 0.043
0.003 -0.021 0.041
0.005 -0.033 0.039
0.005 -0.033 0.041
0.007 -0.037 0.043
0.029 -0.039 0.047
0.021 -0.035 0.049
0.005 -0.029 0.041
0.001 -0.021 0.039
0.007 -0.035 0.043
-0.003 -0.015 0.039
-0.003 -0.009 0.041
0.001 -0.003 0.045
0.017 -0.023 0.061
0.007 -0.013 0.053
0.007 -0.007 0.061
0.011 -0.007 0.063
0.017 -0.033 0.049
0.009 -0.027 0.049
0.007 -0.025 0.049
0.011 -0.029 0.053
0.011 -0.027 0.053
0.011 -0.027 0.053
0.007 -0.015 0.051
0.011 -0.019 0.053
0.015 -0.013 0.055
0.025 -0.041 0.081
0.025 -0.043 0.083
0.027 -0.041 0.087
0.029 -0.047 0.087
0.035 -0.047 0.093
0.029 -0.031 0.069
0.007 -0.007 0.065
0.007 -0.005 0.071
0.003 -0.003 0.073
0.011 -0.003 0.073
0.019 -0.007 0.073
0.015 -0.011 0.075
0.021 -0.033 0.085
0.021 -0.033 0.085
0.017 -0.017 0.081
0.019 -0.023 0.089
0.021 -0.027 0.093
0.011 -0.011 0.093
0.015 -0.017 0.089
0.009 -0.005 0.089
0.017 -0.021 0.089
0.021 -0.029 0.097
0.015 -0.015 0.089
0.011 -0.009 0.095
0.027 -0.035 0.101
0.025 -0.037 0.101
0.037 -0.039 0.105
0.015 -0.017 0.105
0.019 -0.027 0.097
0.027 -0.027 0.105
0.027 -0.025 0.105
0.011 -0.007 0.101
0.025 -0.027 0.105
0.017 -0.017 0.103
-0.035 0.017 0.033
-0.025 0.011 0.031
-0.025 0.005 0.035
-0.039 0.019 0.037
-0.035 0.013 0.043
-0.035 0.015 0.047
-0.033 0.027 0.063
-0.029 0.011 0.041
-0.029 0.007 0.045
-0.029 0.005 0.047
-0.025 0.003 0.047
-0.037 0.015 0.037
-0.037 0.019 0.051
-0.029 0.007 0.045
-0.029 0.003 0.055
-0.031 0.007 0.057
-0.029 0.005 0.057
-0.023 0.005 0.061
-0.015 0.005 0.051
-0.027 0.009 0.063
-0.035 0.023 0.059
-0.023 0.029 0.065
-0.023 0.013 0.067
-0.041 0.025 0.047
-0.031 0.023 0.059
-0.003 0.005 0.073
-0.027 0.029 0.067
-0.019 0.019 0.073
-0.003 0.005 0.081
-0.001 0.005 0.085
-0.003 0.007 0.087
-0.015 0.017 0.085
-0.007 0.021 0.093
-0.009 0.023 0.093
-0.027 0.037 0.071
-0.027 0.035 0.073
-0.031 0.035 0.081
-0.029 0.035 0.087
0.003 0.001 0.043
-0.027 0.005 0.057
0.001 0.001 0.051
-0.023 0.005 0.061
0.001 0.009 0.061
-0.021 0.021 0.047
0.001 0.001 0.081
-0.013 0.015 0.083
-0.007 0.009 0.081
-0.009 0.011 0.087
-0.015 0.021 0.089
-0.005 0.015 0.091
0.013 0.011 0.111
0.017 0.001 0.109
-0.001 -0.021 0.033
-0.013 -0.009 0.033
-0.005 -0.017 0.033
0.033 -0.031 0.033
0.029 -0.033 0.033
0.029 -0.033 0.033
0.011 -0.041 0.037
0.011 -0.043 0.039
0.009 -0.043 0.039
0.017 -0.039 0.041
0.021 -0.037 0.043
0.031 -0.037 0.057
0.035 -0.037 0.045
0.009 -0.039 0.033
0.009 -0.041 0.037
0.013 -0.041 0.039
0.017 -0.033 0.053
0.021 -0.031 0.061
0.023 -0.035 0.057
0.001 -0.009 0.051
0.005 -0.009 0.057
0.031 -0.037 0.053
0.025 -0.033 0.063
0.043 -0.027 0.039
0.047 -0.025 0.037
0.041 -0.031 0.053
0.039 -0.033 0.057
0.039 -0.031 0.061
0.031 -0.049 0.085
0.025 -0.025 0.075
0.021 -0.029 0.089
0.035 -0.029 0.069
0.037 -0.033 0.081
0.041 -0.043 0.083
0.039 -0.035 0.081
0.039 -0.033 0.093
0.029 -0.041 0.097
0.029 -0.041 0.099
0.041 -0.041 0.103
0.025 -0.039 0.101
0.031 -0.041 0.099
0.029 -0.043 0.103
0.033 -0.033 0.097
0.025 -0.011 0.111
0.023 -0.007 0.115
0.041 -0.037 0.097
0.037 -0.035 0.097
0.039 -0.037 0.095
-0.029 0.013 0.031
-0.029 0.011 0.035
-0.037 0.025 0.059
-0.021 0.003 0.037
-0.021 0.003 0.045
-0.023 0.003 0.045
0.001 -0.013 0.049
0.013 -0.031 0.049
-0.023 0.005 0.053
-0.009 0.011 0.051
-0.009 0.013 0.055
0.001 -0.005 0.061
0.001 -0.005 0.061
-0.011 0.005 0.049
-0.011 0.015 0.059
0.005 -0.007 0.063
-0.003 -0.015 0.041
0.015 -0.039 0.043
-0.001 -0.001 0.071
-0.017 0.011 0.065
-0.017 0.011 0.071
-0.017 0.017 0.079
-0.019 0.019 0.077
-0.001 0.007 0.089
-0.017 0.011 0.071
0.005 -0.005 0.067
-0.031 0.035 0.085
-0.025 0.033 0.085
-0.029 0.035 0.081
0.023 -0.035 0.037
0.033 -0.037 0.039
0.029 -0.037 0.043
0.011 -0.007 0.063
0.027 -0.037 0.059
0.023 -0.031 0.067
0.025 -0.033 0.065
0.011 -0.003 0.073
0.015 -0.015 0.075
0.003 0.001 0.081
0.003 0.007 0.089
0.017 -0.025 0.085
0.003 0.007 0.089
0.015 -0.019 0.087
0.017 -0.001 0.109
0.021 0.007 0.051
0.029 0.003 0.043
0.041 -0.011 0.039
0.027 -0.005 0.051
0.033 -0.015 0.057
0.039 -0.009 0.051
0.035 -0.015 0.057
0.041 -0.027 0.049
0.023 -0.009 0.053
0.023 -0.011 0.057
0.023 -0.001 0.057
0.021 -0.005 0.059
0.017 0.009 0.047
0.017 0.009 0.047
0.021 0.007 0.059
0.029 -0.011 0.061
0.025 -0.011 0.061
0.019 0.009 0.063
0.019 -0.005 0.061
0.019 -0.005 0.061
0.043 -0.017 0.041
0.043 -0.019 0.049
0.039 -0.007 0.037
0.043 -0.017 0.051
0.035 -0.023 0.071
0.041 -0.023 0.095
0.037 -0.017 0.091
0.039 -0.039 0.089
0.043 -0.037 0.085
0.033 -0.019 0.077
0.033 -0.009 0.085
0.035 -0.011 0.085
0.021 -0.001 0.079
0.035 -0.007 0.095
0.015 -0.003 0.095
0.035 -0.015 0.073
0.037 -0.019 0.087
0.041 -0.027 0.097
0.039 -0.017 0.093
0.035 -0.035 0.107
0.041 -0.037 0.103
0.037 -0.035 0.107
0.033 -0.023 0.105
0.033 -0.025 0.105
0.021 0.005 0.109
0.025 -0.005 0.111
0.025 -0.009 0.113
0.033 -0.009 0.105
0.033 -0.001 0.107
0.041 -0.029 0.099
0.035 -0.015 0.105
-0.009 0.033 0.041
-0.013 0.035 0.035
-0.001 0.033 0.041
-0.031 0.033 0.045
-0.021 0.035 0.065
-0.021 0.037 0.069
0.003 0.023 0.059
-0.001 0.029 0.061
0.003 0.017 0.053
-0.003 0.031 0.047
-0.025 0.033 0.039
-0.021 0.031 0.039
-0.007 0.033 0.057
-0.023 0.029 0.043
-0.013 0.031 0.045
-0.003 0.027 0.069
-0.001 0.027 0.067
-0.003 0.029 0.067
-0.019 0.031 0.059
-0.017 0.035 0.037
-0.001 0.031 0.079
-0.001 0.031 0.081
-0.001 0.031 0.083
0.013 0.015 0.083
0.011 0.019 0.083
-0.003 0.031 0.087
-0.001 0.029 0.077
0.001 0.029 0.081
-0.003 0.029 0.067
-0.005 0.031 0.087
-0.003 0.023 0.095
-0.005 0.025 0.093
-0.001 0.021 0.095
-0.031 0.041 0.085
-0.035 0.039 0.087
-0.027 0.041 0.081
-0.027 0.039 0.087
0.019 0.005 0.039
0.013 0.013 0.057
0.025 0.007 0.039
0.011 0.015 0.061
0.011 0.013 0.059
0.021 0.007 0.061
0.003 0.027 0.051
0.001 0.029 0.053
0.033 0.003 0.035
0.003 0.033 0.041
0.015 0.015 0.069
0.019 0.003 0.067
0.011 0.007 0.089
0.029 0.005 0.089
0.029 0.007 0.097
