-0.001 -0.015 0.043
-0.017 -0.003 0.037
-0.011 -0.009 0.035
-0.001 -0.015 0.043
-0.005 -0.013 0.037
-0.015 -0.007 0.037
-0.007 -0.003 0.039
0.001 -0.013 0.049
0.013 -0.035 0.045
0.011 -0.033 0.045
0.023 -0.037 0.099
0.035 -0.037 0.107
0.031 -0.033 0.103
0.007 -0.015 0.051
0.035 -0.019 0.103
0.037 -0.017 0.095
0.035 -0.009 0.051
0.009 -0.035 0.045
0.009 -0.037 0.045
0.009 -0.035 0.045
0.011 -0.037 0.045
0.013 -0.041 0.043
0.009 -0.039 0.045
0.007 -0.035 0.045
0.013 -0.035 0.045
0.035 -0.041 0.105
0.035 -0.043 0.105
0.017 -0.037 0.043
0.031 -0.043 0.105
0.029 -0.041 0.103
0.029 -0.041 0.103
0.035 -0.043 0.105
0.029 -0.041 0.103
0.029 -0.037 0.101
0.037 -0.041 0.105
0.037 -0.041 0.105
0.031 -0.039 0.105
0.039 -0.041 0.091
0.043 -0.041 0.103
0.041 -0.041 0.103
0.043 -0.039 0.103
0.041 -0.039 0.105
0.007 -0.033 0.045
0.005 -0.033 0.043
0.013 -0.031 0.053
0.023 -0.035 0.099
0.011 -0.027 0.053
0.021 -0.031 0.097
0.005 -0.031 0.045
0.007 -0.031 0.047
0.009 -0.029 0.047
0.003 -0.023 0.041
0.007 -0.025 0.049
0.003 -0.021 0.043
0.009 -0.019 0.051
0.031 -0.039 0.105
0.033 -0.039 0.105
0.031 -0.033 0.103
0.017 -0.021 0.099
0.025 -0.021 0.105
0.015 -0.017 0.101
0.023 -0.015 0.105
0.001 -0.013 0.047
0.015 -0.013 0.107
0.015 -0.013 0.107
0.027 -0.025 0.105
0.037 -0.023 0.103
0.039 -0.021 0.101
0.029 -0.013 0.105
0.031 -0.015 0.105
0.037 -0.013 0.099
0.033 -0.011 0.103
0.011 -0.029 0.053
0.013 -0.031 0.053
0.023 -0.031 0.099
0.009 -0.021 0.051
0.011 -0.023 0.053
0.025 -0.037 0.101
0.023 -0.033 0.099
0.025 -0.027 0.105
0.025 -0.029 0.103
0.027 -0.025 0.105
0.005 -0.013 0.051
0.003 -0.011 0.053
0.021 -0.023 0.103
0.003 -0.007 0.061
0.005 -0.009 0.059
0.005 -0.009 0.059
0.013 -0.013 0.107
0.029 -0.019 0.105
0.031 -0.019 0.105
0.035 -0.015 0.105
0.027 -0.021 0.105
0.027 -0.021 0.105
0.027 -0.013 0.107
0.023 -0.015 0.105
0.041 -0.033 0.101
0.041 -0.031 0.099
0.041 -0.031 0.099
0.041 -0.029 0.099
0.043 -0.029 0.097
0.041 -0.025 0.059
0.041 -0.029 0.099
0.041 -0.027 0.097
0.039 -0.021 0.063
0.041 -0.021 0.055
0.045 -0.019 0.039
0.041 -0.027 0.059
0.041 -0.031 0.055
0.041 -0.027 0.095
0.043 -0.019 0.051
0.041 -0.021 0.055
0.049 -0.021 0.039
0.051 -0.017 0.037
0.039 -0.021 0.101
0.041 -0.023 0.095
0.041 -0.015 0.055
0.047 -0.015 0.039
0.039 -0.019 0.101
0.035 -0.007 0.049
0.039 -0.011 0.053
0.035 -0.009 0.051
0.039 -0.009 0.051
0.043 -0.037 0.103
0.043 -0.035 0.101
0.039 -0.021 0.101
0.037 -0.017 0.065
0.039 -0.019 0.101
0.039 -0.023 0.103
0.031 -0.049 0.087
0.031 -0.047 0.089
0.029 -0.047 0.087
0.027 -0.043 0.087
0.031 -0.043 0.091
0.027 -0.035 0.101
0.033 -0.049 0.087
0.037 -0.049 0.093
0.041 -0.039 0.105
0.043 -0.039 0.103
0.045 -0.039 0.101
0.035 -0.045 0.093
0.037 -0.047 0.093
0.037 -0.047 0.093
0.039 -0.045 0.093
0.037 -0.043 0.093
0.035 -0.041 0.105
0.037 -0.039 0.105
0.039 -0.037 0.105
0.041 -0.039 0.105
0.025 -0.029 0.103
0.029 -0.029 0.103
0.025 -0.025 0.105
0.031 -0.023 0.105
0.033 -0.023 0.105
0.017 -0.013 0.107
0.019 -0.009 0.103
0.021 -0.009 0.109
0.021 -0.009 0.109
0.025 -0.019 0.105
0.025 -0.017 0.105
0.033 -0.019 0.105
0.027 -0.013 0.107
0.021 -0.017 0.105
0.023 -0.009 0.113
0.031 -0.009 0.103
0.025 -0.033 0.099
0.023 -0.029 0.103
0.027 -0.031 0.099
0.021 -0.027 0.103
0.025 -0.027 0.105
0.021 -0.023 0.103
0.029 -0.025 0.105
0.029 -0.021 0.105
0.031 -0.021 0.105
0.033 -0.021 0.105
0.021 -0.029 0.097
0.023 -0.033 0.099
0.021 -0.023 0.103
0.031 -0.023 0.105
0.029 -0.021 0.105
0.031 -0.021 0.105
0.033 -0.021 0.105
0.017 -0.017 0.105
0.015 -0.013 0.107
0.011 -0.005 0.101
0.013 -0.013 0.101
0.011 -0.009 0.101
0.013 -0.007 0.103
0.013 -0.007 0.103
0.013 -0.007 0.103
0.011 -0.003 0.103
0.021 -0.011 0.105
0.021 -0.005 0.109
0.025 -0.005 0.115
0.039 -0.033 0.103
0.041 -0.033 0.101
0.039 -0.029 0.099
0.041 -0.023 0.095
0.039 -0.023 0.097
0.039 -0.025 0.097
0.037 -0.027 0.099
0.035 -0.035 0.107
0.037 -0.027 0.099
0.043 -0.033 0.099
0.035 -0.027 0.101
0.037 -0.023 0.103
0.035 -0.021 0.103
0.037 -0.021 0.103
0.039 -0.023 0.103
0.039 -0.029 0.099
0.039 -0.025 0.097
0.037 -0.021 0.103
0.037 -0.019 0.103
0.035 -0.015 0.105
0.037 -0.015 0.101
0.035 -0.013 0.103
0.037 -0.015 0.101
0.035 -0.009 0.103
0.035 -0.007 0.105
0.031 -0.043 0.105
0.023 -0.037 0.099
0.027 -0.035 0.101
0.031 -0.037 0.105
0.031 -0.041 0.103
0.027 -0.035 0.101
0.031 -0.035 0.105
0.041 -0.041 0.103
0.033 -0.039 0.105
0.039 -0.037 0.105
0.039 -0.039 0.105
0.041 -0.037 0.103
0.033 -0.037 0.107
0.035 -0.037 0.107
0.021 -0.027 0.103
0.023 -0.027 0.103
0.017 -0.019 0.103
0.017 -0.019 0.103
0.025 -0.023 0.105
0.027 -0.025 0.105
0.027 -0.021 0.105
0.017 -0.015 0.107
0.015 -0.017 0.105
0.015 -0.011 0.109
0.009 -0.005 0.101
0.011 -0.007 0.103
0.011 -0.001 0.103
0.015 -0.011 0.109
0.021 -0.009 0.109
0.021 -0.005 0.109
0.025 -0.005 0.115
0.029 -0.005 0.103
0.025 -0.005 0.107
0.019 -0.013 0.105
0.025 -0.011 0.111
0.031 -0.003 0.107
0.025 -0.005 0.115
0.041 -0.029 0.099
0.041 -0.027 0.097
0.037 -0.023 0.103
0.039 -0.023 0.103
0.037 -0.015 0.101
0.033 -0.017 0.105
0.035 -0.007 0.105
-0.009 0.013 0.089
-0.029 0.009 0.061
-0.027 0.009 0.063
-0.029 0.011 0.059
-0.039 0.021 0.051
-0.039 0.021 0.053
-0.037 0.017 0.049
-0.039 0.023 0.053
-0.031 0.025 0.061
-0.033 0.019 0.053
-0.035 0.023 0.057
-0.033 0.025 0.061
-0.031 0.029 0.067
-0.023 0.003 0.033
-0.023 0.003 0.039
-0.021 0.005 0.057
-0.021 0.007 0.055
-0.021 0.007 0.061
-0.017 0.005 0.051
-0.027 0.005 0.057
-0.025 0.003 0.055
-0.019 0.009 0.065
-0.021 0.007 0.055
-0.019 0.009 0.065
-0.015 0.011 0.051
-0.013 0.003 0.039
-0.009 -0.001 0.039
-0.011 0.003 0.043
-0.011 0.005 0.049
0.009 -0.003 0.103
0.011 -0.001 0.103
-0.015 0.003 0.045
-0.015 0.011 0.051
0.011 -0.003 0.103
-0.023 0.009 0.065
-0.025 0.023 0.049
-0.019 0.013 0.073
-0.009 0.013 0.089
-0.027 0.025 0.055
0.001 0.007 0.089
0.001 0.015 0.093
0.007 0.011 0.091
0.005 0.011 0.093
0.009 0.011 0.091
-0.007 0.009 0.085
-0.003 0.013 0.091
-0.005 0.015 0.091
-0.001 0.017 0.095
0.007 0.019 0.089
-0.027 0.003 0.053
-0.029 0.003 0.055
-0.029 0.005 0.061
-0.017 0.007 0.053
-0.021 0.005 0.057
-0.029 0.009 0.061
-0.025 0.011 0.065
-0.021 0.007 0.061
-0.019 0.009 0.055
-0.017 0.007 0.053
-0.029 0.005 0.061
-0.023 0.005 0.059
-0.021 0.011 0.071
-0.015 0.005 0.051
-0.015 0.009 0.051
-0.015 0.009 0.051
0.009 0.001 0.103
0.003 0.003 0.083
-0.005 0.009 0.087
-0.029 0.019 0.049
-0.031 0.021 0.053
-0.007 0.013 0.091
-0.019 0.019 0.079
-0.019 0.021 0.083
-0.017 0.021 0.087
-0.009 0.017 0.091
-0.005 0.009 0.087
-0.007 0.011 0.089
-0.001 0.015 0.093
-0.007 0.009 0.087
-0.009 0.011 0.087
-0.007 0.009 0.087
-0.007 0.021 0.093
-0.007 0.021 0.093
-0.027 0.029 0.065
0.001 0.017 0.095
0.005 0.019 0.091
-0.019 0.029 0.083
-0.027 0.033 0.079
-0.017 0.027 0.087
-0.003 0.023 0.095
-0.003 0.023 0.095
-0.001 0.027 0.089
-0.033 0.031 0.065
-0.017 0.011 0.071
-0.017 0.011 0.071
-0.003 0.009 0.089
0.003 0.005 0.087
0.003 0.005 0.087
-0.005 0.007 0.085
-0.003 0.007 0.087
-0.015 0.015 0.081
-0.015 0.015 0.081
-0.029 0.029 0.069
-0.027 0.031 0.071
-0.015 0.025 0.089
-0.015 0.019 0.087
-0.019 0.021 0.083
-0.017 0.019 0.085
-0.017 0.023 0.087
-0.011 0.013 0.085
-0.011 0.013 0.087
0.001 0.011 0.091
0.001 0.023 0.091
0.001 0.025 0.091
-0.011 0.013 0.087
-0.013 0.015 0.087
-0.001 0.013 0.091
0.001 0.017 0.095
0.001 0.021 0.091
0.001 0.021 0.091
0.001 0.025 0.091
-0.001 0.005 0.085
-0.007 0.011 0.089
-0.013 0.015 0.087
-0.013 0.015 0.087
-0.009 0.015 0.091
-0.007 0.013 0.091
-0.017 0.027 0.087
-0.013 0.015 0.087
-0.015 0.021 0.089
0.001 0.027 0.089
-0.001 0.027 0.089
-0.013 0.023 0.089
-0.001 0.017 0.095
-0.003 0.021 0.095
-0.009 0.025 0.095
-0.011 0.027 0.093
-0.007 0.025 0.095
-0.029 0.037 0.089
-0.031 0.037 0.089
-0.033 0.041 0.087
-0.033 0.041 0.087
-0.035 0.043 0.087
-0.025 0.033 0.083
-0.031 0.035 0.069
-0.025 0.033 0.081
-0.019 0.033 0.085
-0.025 0.033 0.077
-0.025 0.033 0.087
-0.027 0.033 0.087
-0.023 0.037 0.085
-0.017 0.029 0.087
-0.017 0.029 0.087
-0.023 0.037 0.083
-0.005 0.027 0.091
0.001 0.025 0.091
-0.031 0.035 0.083
-0.025 0.033 0.087
-0.025 0.035 0.087
-0.031 0.035 0.087
-0.025 0.033 0.087
-0.025 0.035 0.087
-0.031 0.037 0.089
-0.023 0.035 0.085
-0.023 0.035 0.085
-0.029 0.039 0.087
-0.029 0.039 0.087
-0.029 0.039 0.087
-0.007 0.029 0.091
-0.007 0.033 0.087
-0.011 0.031 0.089
-0.007 0.031 0.089
0.033 -0.011 0.103
0.021 -0.009 0.107
0.017 0.001 0.109
0.019 -0.005 0.109
0.033 -0.013 0.103
0.035 -0.007 0.097
0.029 -0.007 0.103
0.035 -0.009 0.101
0.035 -0.011 0.101
0.011 0.005 0.087
0.015 0.005 0.111
0.015 0.011 0.113
0.017 0.007 0.113
0.019 0.007 0.109
0.017 0.011 0.113
0.007 0.027 0.045
0.013 0.011 0.113
0.017 -0.001 0.109
0.019 -0.003 0.109
0.009 -0.005 0.101
0.009 0.007 0.089
0.023 -0.001 0.109
0.019 0.001 0.111
0.021 0.001 0.109
0.027 -0.005 0.103
0.031 -0.007 0.105
0.027 -0.009 0.109
0.027 -0.007 0.109
0.017 0.005 0.111
0.015 0.011 0.113
0.013 0.011 0.113
0.007 0.019 0.089
0.007 0.013 0.093
0.007 0.021 0.087
0.005 0.005 0.087
0.005 0.007 0.087
0.009 0.009 0.091
0.021 0.003 0.109
0.013 -0.005 0.103
0.021 -0.007 0.109
0.025 -0.005 0.113
0.023 -0.001 0.109
0.023 -0.005 0.115
0.009 0.013 0.089
0.005 0.013 0.093
0.015 0.011 0.113
0.011 -0.001 0.103
0.019 0.001 0.111
0.017 0.003 0.111
0.015 0.005 0.111
0.017 0.007 0.113
0.005 0.009 0.091
0.007 0.013 0.093
0.025 -0.005 0.105
0.027 -0.001 0.101
0.021 -0.003 0.109
0.023 -0.005 0.115
0.021 -0.003 0.109
0.029 0.003 0.103
0.029 -0.001 0.103
0.033 -0.001 0.109
0.033 -0.001 0.109
0.029 0.005 0.103
0.015 0.011 0.113
0.015 0.013 0.113
0.013 0.011 0.113
0.015 0.013 0.113
0.003 0.023 0.091
0.003 0.015 0.095
0.007 0.015 0.089
0.015 0.005 0.111
0.015 0.009 0.113
0.031 0.003 0.101
0.029 0.003 0.103
0.029 0.005 0.103
0.017 0.005 0.111
0.017 0.007 0.113
