-0.017 -0.003 0.037
-0.019 -0.001 0.035
-0.011 -0.009 0.035
-0.001 0.001 0.077
-0.005 -0.011 0.039
-0.009 -0.001 0.039
-0.011 -0.001 0.039
-0.007 0.011 0.089
-0.001 0.005 0.085
0.009 -0.033 0.045
0.001 -0.019 0.041
0.017 -0.007 0.101
0.019 -0.009 0.103
0.023 -0.005 0.115
0.013 -0.003 0.099
0.019 0.003 0.111
0.021 0.003 0.109
0.005 -0.005 0.069
0.009 0.001 0.101
0.021 0.005 0.109
0.025 -0.003 0.053
0.013 0.011 0.113
0.005 -0.031 0.045
0.007 -0.031 0.047
0.007 -0.041 0.043
0.009 -0.039 0.045
0.017 -0.039 0.041
0.019 -0.017 0.105
0.017 -0.015 0.107
0.019 -0.017 0.105
0.025 -0.019 0.105
0.017 -0.031 0.057
0.015 -0.015 0.107
0.019 -0.017 0.105
0.023 -0.021 0.105
0.025 -0.019 0.105
0.019 -0.021 0.103
0.021 -0.019 0.105
0.023 -0.021 0.105
0.027 -0.015 0.105
0.027 -0.019 0.105
0.029 -0.021 0.105
0.031 -0.019 0.105
0.013 -0.025 0.055
0.003 -0.021 0.043
0.005 -0.021 0.047
0.007 -0.013 0.055
0.001 -0.023 0.039
0.013 -0.029 0.055
0.003 -0.017 0.043
0.005 -0.019 0.047
0.015 -0.007 0.103
0.013 -0.001 0.095
0.019 -0.003 0.109
0.023 0.001 0.107
0.013 -0.013 0.107
0.003 -0.001 0.079
0.003 0.007 0.089
0.001 0.003 0.083
0.001 -0.013 0.049
0.025 -0.005 0.053
0.027 -0.001 0.049
0.025 0.005 0.095
0.007 -0.021 0.049
0.011 -0.023 0.053
0.009 -0.017 0.053
0.015 -0.009 0.105
0.017 -0.007 0.101
0.015 -0.009 0.109
0.001 -0.009 0.051
0.005 -0.009 0.059
0.009 -0.003 0.103
0.003 0.001 0.081
0.003 -0.003 0.073
0.001 0.003 0.083
0.007 -0.003 0.075
0.027 0.003 0.101
0.023 -0.001 0.097
0.017 0.009 0.113
0.017 -0.003 0.093
0.021 0.001 0.109
0.025 -0.001 0.099
0.015 0.007 0.113
0.023 -0.001 0.057
0.015 0.009 0.113
0.015 0.011 0.113
0.025 -0.007 0.115
0.037 -0.011 0.095
0.033 -0.009 0.105
0.047 -0.023 0.041
0.045 -0.025 0.039
0.029 -0.005 0.103
0.033 -0.003 0.109
0.033 -0.001 0.109
0.049 -0.017 0.039
0.031 0.001 0.101
0.037 -0.007 0.049
0.039 -0.009 0.051
0.039 -0.011 0.053
0.037 -0.005 0.037
0.029 0.007 0.097
0.027 0.009 0.097
0.031 0.005 0.097
0.035 -0.011 0.103
0.035 -0.009 0.103
0.035 -0.013 0.103
0.035 -0.007 0.105
0.035 -0.007 0.105
0.033 -0.015 0.105
0.035 -0.019 0.103
0.033 -0.015 0.105
0.031 -0.005 0.107
0.033 -0.009 0.105
0.031 -0.005 0.107
0.029 -0.001 0.103
0.027 0.005 0.103
0.031 0.005 0.097
0.029 -0.003 0.101
0.029 -0.039 0.101
0.025 -0.035 0.099
0.021 -0.027 0.099
0.021 -0.027 0.103
0.023 -0.029 0.103
0.023 -0.025 0.105
0.029 -0.035 0.101
0.029 -0.031 0.101
0.027 -0.037 0.101
0.039 -0.049 0.093
0.037 -0.035 0.107
0.039 -0.037 0.105
0.039 -0.035 0.105
0.031 -0.033 0.103
0.037 -0.031 0.103
0.031 -0.027 0.105
0.039 -0.031 0.101
0.031 -0.041 0.103
0.037 -0.039 0.105
0.033 -0.037 0.107
0.037 -0.035 0.107
0.033 -0.027 0.105
0.017 -0.015 0.107
0.025 -0.019 0.105
0.019 -0.005 0.109
0.027 -0.015 0.105
0.001 0.003 0.083
0.003 0.001 0.081
0.015 -0.003 0.071
0.015 -0.003 0.071
0.005 -0.001 0.079
0.007 0.001 0.095
0.017 -0.001 0.109
0.017 0.001 0.109
0.017 -0.001 0.109
0.019 0.003 0.111
0.015 -0.005 0.101
0.027 -0.001 0.101
0.027 0.001 0.101
0.021 -0.019 0.105
0.029 -0.023 0.105
0.029 -0.023 0.105
0.017 -0.011 0.107
0.019 -0.013 0.105
0.015 -0.015 0.107
0.021 -0.017 0.105
0.025 -0.011 0.111
0.019 -0.023 0.101
0.023 -0.025 0.105
0.031 -0.023 0.105
0.021 -0.019 0.105
0.019 -0.021 0.103
0.027 -0.017 0.105
0.031 -0.015 0.105
0.015 -0.011 0.105
0.009 0.001 0.103
0.011 -0.001 0.099
0.009 0.001 0.101
0.015 -0.009 0.109
0.015 -0.011 0.109
0.011 -0.007 0.103
0.013 -0.007 0.103
0.011 -0.001 0.099
0.015 -0.007 0.103
0.025 -0.007 0.115
0.015 0.007 0.113
0.021 0.005 0.109
0.027 0.003 0.101
0.017 0.003 0.109
0.033 -0.017 0.105
0.033 -0.009 0.105
0.029 -0.005 0.103
0.031 -0.021 0.105
0.037 -0.023 0.103
0.031 -0.019 0.105
0.031 -0.025 0.105
0.037 -0.029 0.101
0.039 -0.023 0.103
0.041 -0.027 0.097
0.031 -0.017 0.105
0.035 -0.019 0.103
0.033 -0.005 0.107
0.033 -0.009 0.105
0.037 -0.011 0.095
0.031 -0.001 0.107
0.031 -0.003 0.107
0.029 -0.043 0.103
0.029 -0.037 0.101
0.031 -0.037 0.105
0.031 -0.043 0.105
0.033 -0.041 0.105
0.033 -0.033 0.105
0.033 -0.037 0.107
0.035 -0.037 0.107
0.039 -0.035 0.105
0.043 -0.033 0.099
0.041 -0.039 0.105
0.041 -0.035 0.101
0.033 -0.037 0.107
0.021 -0.025 0.103
0.021 -0.023 0.103
0.019 -0.017 0.105
0.025 -0.021 0.105
0.015 -0.009 0.109
0.009 -0.003 0.103
0.025 -0.001 0.099
0.029 -0.003 0.101
0.021 -0.013 0.105
0.023 -0.009 0.113
0.025 -0.011 0.111
0.023 -0.003 0.109
0.019 -0.005 0.109
0.025 -0.005 0.115
0.025 -0.009 0.113
0.033 -0.027 0.105
0.035 -0.027 0.101
0.037 -0.023 0.103
0.033 -0.031 0.103
0.041 -0.031 0.099
0.037 -0.021 0.103
0.039 -0.021 0.101
0.035 -0.011 0.103
0.033 -0.003 0.109
0.035 -0.007 0.105
0.035 -0.007 0.105
0.033 -0.003 0.109
-0.017 0.021 0.087
-0.011 0.023 0.091
-0.007 0.023 0.095
-0.003 0.023 0.093
-0.025 0.019 0.047
-0.023 0.029 0.065
-0.009 0.031 0.089
-0.007 0.031 0.089
-0.007 0.033 0.087
-0.031 0.015 0.047
-0.033 0.015 0.047
-0.035 0.023 0.059
-0.035 0.027 0.061
-0.037 0.025 0.059
-0.035 0.029 0.063
-0.031 0.035 0.087
-0.037 0.019 0.051
-0.037 0.023 0.057
-0.035 0.033 0.063
-0.029 0.037 0.089
-0.041 0.023 0.051
-0.033 0.021 0.055
-0.031 0.035 0.087
-0.021 0.011 0.071
-0.021 0.013 0.071
-0.015 0.023 0.089
-0.023 0.013 0.055
-0.019 0.023 0.083
-0.017 0.011 0.069
-0.019 0.003 0.047
-0.025 0.013 0.045
-0.025 0.013 0.063
-0.025 0.013 0.063
-0.029 0.013 0.045
-0.031 0.015 0.047
-0.027 0.015 0.045
-0.019 0.013 0.069
-0.023 0.013 0.063
-0.021 0.013 0.065
-0.015 0.005 0.051
-0.013 0.017 0.089
-0.015 0.003 0.047
-0.015 0.007 0.051
-0.009 0.015 0.091
-0.005 0.013 0.091
-0.003 0.015 0.091
-0.013 0.023 0.089
-0.013 0.023 0.089
-0.013 0.025 0.089
-0.009 0.025 0.095
-0.009 0.019 0.091
-0.007 0.021 0.093
-0.011 0.013 0.087
-0.007 0.015 0.091
-0.015 0.021 0.089
-0.019 0.027 0.083
-0.019 0.029 0.083
-0.017 0.029 0.087
-0.017 0.029 0.087
-0.027 0.037 0.087
-0.019 0.031 0.083
-0.017 0.035 0.081
-0.005 0.031 0.087
-0.003 0.031 0.087
-0.001 0.031 0.085
-0.013 0.033 0.085
-0.003 0.033 0.081
-0.001 0.031 0.063
-0.001 0.031 0.063
-0.015 0.031 0.089
-0.015 0.035 0.081
-0.009 0.035 0.083
-0.007 0.035 0.079
-0.029 0.005 0.061
-0.025 0.005 0.059
-0.031 0.007 0.057
-0.021 0.009 0.067
-0.025 0.013 0.063
-0.025 0.005 0.059
-0.031 0.011 0.057
-0.027 0.013 0.061
-0.019 0.011 0.071
-0.013 0.017 0.089
-0.013 0.021 0.089
-0.007 0.019 0.093
-0.001 0.011 0.091
-0.009 0.021 0.091
-0.005 0.019 0.093
-0.003 0.021 0.095
-0.001 0.021 0.095
-0.005 0.021 0.095
-0.007 0.021 0.093
-0.031 0.019 0.051
-0.029 0.021 0.051
-0.031 0.023 0.059
-0.027 0.035 0.087
-0.017 0.021 0.087
-0.023 0.031 0.073
-0.015 0.027 0.089
-0.015 0.029 0.089
-0.009 0.035 0.083
-0.001 0.031 0.063
-0.013 0.035 0.083
-0.003 0.033 0.081
-0.001 0.031 0.063
-0.033 0.039 0.087
-0.031 0.039 0.087
-0.027 0.039 0.087
-0.025 0.039 0.085
-0.023 0.035 0.035
-0.019 0.035 0.037
-0.021 0.039 0.079
-0.019 0.033 0.039
-0.007 0.035 0.063
-0.005 0.033 0.045
-0.007 0.035 0.063
-0.007 0.035 0.065
-0.025 0.037 0.085
-0.013 0.035 0.083
-0.015 0.035 0.081
-0.005 0.035 0.073
-0.031 0.035 0.087
-0.021 0.011 0.071
-0.021 0.009 0.067
-0.019 0.013 0.073
-0.017 0.013 0.073
-0.001 0.003 0.081
-0.001 0.015 0.093
-0.001 0.007 0.089
-0.005 0.017 0.091
-0.007 0.017 0.091
-0.019 0.025 0.083
-0.025 0.033 0.087
-0.023 0.031 0.073
-0.023 0.033 0.081
-0.021 0.029 0.079
-0.019 0.023 0.083
-0.021 0.025 0.079
-0.015 0.021 0.089
-0.009 0.021 0.091
-0.007 0.021 0.093
-0.003 0.025 0.091
-0.003 0.033 0.081
-0.013 0.019 0.089
-0.001 0.025 0.091
-0.001 0.025 0.091
-0.005 0.009 0.087
-0.003 0.009 0.089
-0.011 0.015 0.089
-0.007 0.009 0.087
-0.009 0.013 0.089
-0.009 0.015 0.091
-0.017 0.021 0.087
-0.019 0.027 0.083
-0.013 0.019 0.089
-0.009 0.031 0.089
-0.013 0.019 0.089
-0.011 0.017 0.089
-0.009 0.017 0.091
-0.003 0.019 0.095
-0.007 0.025 0.095
-0.005 0.029 0.089
-0.035 0.043 0.087
-0.033 0.041 0.087
-0.029 0.035 0.087
-0.029 0.037 0.089
-0.029 0.039 0.087
-0.031 0.039 0.087
-0.011 0.037 0.075
-0.011 0.035 0.077
-0.009 0.035 0.077
-0.007 0.035 0.079
-0.011 0.035 0.081
-0.031 0.035 0.087
-0.031 0.039 0.087
-0.031 0.035 0.087
-0.027 0.035 0.087
-0.029 0.037 0.089
-0.017 0.033 0.087
-0.023 0.039 0.083
-0.023 0.039 0.083
-0.013 0.033 0.085
-0.005 0.033 0.085
-0.007 0.033 0.087
0.023 0.005 0.053
0.025 0.005 0.053
0.007 0.015 0.089
0.009 0.015 0.087
0.013 0.015 0.083
0.001 0.021 0.091
0.011 0.017 0.085
0.017 0.009 0.075
0.017 0.011 0.073
0.019 0.009 0.067
0.025 0.005 0.045
0.027 0.007 0.041
0.015 0.013 0.079
0.019 0.009 0.067
0.019 0.009 0.067
0.019 0.009 0.067
0.027 0.001 0.043
0.029 0.005 0.041
0.025 0.005 0.053
0.025 0.005 0.051
0.003 0.025 0.057
0.003 0.029 0.045
0.007 0.023 0.043
0.003 0.027 0.087
0.009 0.023 0.043
0.003 0.027 0.055
0.003 0.029 0.045
0.007 0.029 0.045
0.003 0.013 0.093
0.001 0.015 0.095
0.005 0.019 0.091
0.001 0.011 0.091
0.005 0.019 0.091
0.007 0.017 0.089
0.023 0.001 0.057
0.017 0.011 0.073
0.025 0.005 0.053
0.015 0.013 0.079
0.003 0.027 0.087
0.003 0.025 0.057
0.001 0.023 0.091
0.003 0.027 0.087
0.033 0.001 0.037
0.001 0.033 0.041
0.005 0.035 0.037
0.001 0.017 0.095
0.001 0.019 0.095
0.003 0.003 0.083
0.015 0.007 0.079
0.009 0.003 0.083
0.015 0.001 0.081
0.013 0.015 0.083
0.019 0.007 0.067
0.019 0.005 0.069
0.005 0.021 0.089
0.003 0.021 0.091
0.009 0.021 0.085
0.013 0.017 0.079
0.003 0.005 0.087
0.011 0.005 0.087
0.013 0.007 0.083
0.011 0.003 0.085
0.013 0.009 0.083
0.013 0.013 0.083
0.011 0.013 0.087
0.009 0.015 0.087
0.007 0.007 0.089
0.007 0.009 0.091
0.007 0.011 0.091
0.005 0.009 0.091
0.005 0.013 0.093
0.023 0.001 0.091
0.027 0.009 0.103
0.025 0.001 0.097
0.025 0.001 0.097
0.029 0.005 0.103
0.005 0.023 0.089
0.007 0.017 0.089
0.007 0.021 0.087
0.001 0.027 0.089
0.001 0.027 0.089
0.007 0.017 0.089
0.001 0.023 0.091
0.019 0.003 0.111
