-0.001 -0.017 0.039
-0.005 -0.011 0.039
-0.003 -0.011 0.043
-0.001 -0.011 0.047
0.009 -0.025 0.051
0.015 -0.027 0.057
0.019 -0.027 0.061
0.021 -0.029 0.065
0.015 -0.025 0.055
0.019 -0.025 0.061
0.017 -0.021 0.067
0.005 -0.009 0.055
0.019 -0.013 0.057
0.015 -0.015 0.083
0.005 -0.035 0.037
0.007 -0.039 0.043
0.005 -0.033 0.043
0.007 -0.035 0.045
0.015 -0.037 0.043
0.015 -0.035 0.045
0.013 -0.033 0.047
0.017 -0.035 0.045
0.017 -0.033 0.055
0.027 -0.037 0.057
0.019 -0.033 0.055
0.023 -0.035 0.057
0.027 -0.037 0.059
0.027 -0.037 0.059
0.023 -0.035 0.057
0.025 -0.037 0.083
0.025 -0.037 0.087
0.029 -0.037 0.059
0.023 -0.037 0.099
0.025 -0.035 0.087
0.003 -0.031 0.037
0.009 -0.029 0.047
0.009 -0.031 0.047
0.007 -0.023 0.049
0.009 -0.031 0.047
0.011 -0.027 0.053
0.005 -0.023 0.047
0.023 -0.033 0.061
0.017 -0.025 0.057
0.017 -0.021 0.057
0.001 -0.007 0.053
0.001 -0.009 0.049
0.001 -0.007 0.047
0.001 -0.005 0.059
0.017 -0.019 0.075
0.011 -0.011 0.057
0.013 -0.011 0.099
0.013 -0.013 0.099
0.011 -0.009 0.093
0.011 -0.029 0.053
0.015 -0.029 0.057
0.015 -0.029 0.057
0.021 -0.029 0.063
0.017 -0.021 0.071
0.007 -0.013 0.055
0.011 -0.015 0.055
0.001 -0.007 0.053
-0.001 -0.001 0.059
0.013 -0.011 0.057
0.003 -0.005 0.065
0.003 -0.005 0.067
0.001 -0.003 0.067
0.015 -0.007 0.063
0.013 -0.007 0.063
0.015 -0.015 0.083
0.013 -0.013 0.089
0.015 -0.017 0.093
0.011 -0.009 0.101
0.013 -0.011 0.095
0.011 -0.009 0.099
0.015 -0.011 0.075
0.013 -0.013 0.091
0.015 -0.017 0.095
0.017 -0.007 0.063
0.011 -0.007 0.093
0.025 -0.033 0.065
0.023 -0.035 0.083
0.021 -0.033 0.097
0.021 -0.031 0.097
0.019 -0.025 0.091
0.019 -0.025 0.091
0.019 -0.027 0.097
0.023 -0.029 0.103
0.023 -0.029 0.103
0.023 -0.029 0.103
0.021 -0.025 0.101
0.021 -0.025 0.103
0.025 -0.031 0.099
0.015 -0.019 0.091
0.015 -0.017 0.091
0.015 -0.019 0.091
0.017 -0.019 0.103
0.019 -0.021 0.103
0.013 -0.013 0.101
0.015 -0.017 0.105
0.023 -0.029 0.099
0.023 -0.035 0.099
0.025 -0.035 0.099
0.025 -0.033 0.099
0.023 -0.027 0.103
0.021 -0.023 0.103
0.017 -0.019 0.103
0.015 -0.017 0.105
0.021 -0.021 0.105
0.019 -0.021 0.103
0.019 -0.021 0.103
0.029 -0.047 0.087
0.021 -0.033 0.097
0.025 -0.035 0.087
0.023 -0.037 0.099
0.029 -0.043 0.101
0.023 -0.033 0.099
0.039 -0.045 0.093
0.027 -0.039 0.101
0.031 -0.035 0.103
0.031 -0.041 0.103
0.031 -0.039 0.105
0.029 -0.041 0.103
0.029 -0.037 0.101
0.035 -0.037 0.107
0.021 -0.027 0.071
0.019 -0.029 0.085
0.017 -0.021 0.073
0.017 -0.021 0.073
0.017 -0.021 0.073
0.019 -0.027 0.097
0.015 -0.017 0.083
0.015 -0.019 0.087
0.021 -0.023 0.103
0.021 -0.023 0.103
0.005 -0.003 0.075
0.005 -0.001 0.079
0.009 -0.003 0.075
0.009 -0.005 0.097
0.013 -0.013 0.095
0.013 -0.013 0.101
0.013 -0.013 0.101
0.015 -0.015 0.107
0.011 -0.009 0.095
0.011 -0.007 0.099
0.013 -0.013 0.091
0.019 -0.013 0.105
0.021 -0.013 0.105
0.013 -0.011 0.097
0.011 -0.009 0.095
0.011 -0.007 0.103
0.013 -0.007 0.103
0.011 -0.009 0.101
0.021 -0.011 0.105
0.021 -0.031 0.087
0.021 -0.029 0.089
0.021 -0.031 0.087
0.021 -0.031 0.097
0.019 -0.023 0.089
0.017 -0.021 0.099
0.019 -0.025 0.099
0.019 -0.027 0.097
0.021 -0.025 0.103
0.023 -0.031 0.099
0.023 -0.027 0.103
0.025 -0.025 0.105
0.025 -0.019 0.105
0.025 -0.025 0.105
0.013 -0.013 0.091
0.015 -0.015 0.087
0.015 -0.015 0.091
0.009 -0.005 0.095
0.011 -0.009 0.095
0.011 -0.009 0.095
0.009 -0.003 0.093
0.013 -0.015 0.095
0.013 -0.013 0.101
0.011 -0.009 0.101
0.011 -0.009 0.101
0.009 -0.005 0.101
0.009 -0.001 0.101
0.023 -0.015 0.105
0.019 -0.003 0.099
0.013 -0.005 0.103
0.021 -0.007 0.109
0.021 -0.007 0.109
0.023 -0.007 0.111
0.023 -0.007 0.113
0.019 -0.003 0.109
0.025 -0.027 0.105
0.023 -0.023 0.105
0.019 -0.015 0.105
0.033 -0.033 0.105
0.031 -0.029 0.105
0.031 -0.025 0.105
0.033 -0.029 0.103
0.035 -0.029 0.101
0.031 -0.027 0.105
0.029 -0.027 0.105
0.033 -0.027 0.105
0.037 -0.025 0.103
0.031 -0.025 0.105
0.033 -0.023 0.105
0.033 -0.019 0.105
0.025 -0.013 0.107
0.031 -0.015 0.105
0.027 -0.013 0.107
0.031 -0.013 0.105
0.023 -0.007 0.115
0.023 -0.005 0.115
0.029 -0.041 0.103
0.027 -0.037 0.101
0.025 -0.033 0.099
0.031 -0.037 0.105
0.031 -0.035 0.105
0.037 -0.041 0.105
0.041 -0.041 0.103
0.037 -0.037 0.107
0.039 -0.033 0.103
0.041 -0.039 0.105
0.035 -0.037 0.107
0.035 -0.037 0.107
0.039 -0.037 0.105
0.015 -0.017 0.105
0.023 -0.025 0.105
0.029 -0.031 0.101
0.027 -0.027 0.105
0.025 -0.027 0.105
0.021 -0.019 0.105
0.009 -0.003 0.103
0.013 -0.005 0.103
0.011 -0.003 0.103
0.019 -0.009 0.103
0.015 -0.011 0.109
0.019 -0.009 0.103
0.027 -0.011 0.109
0.019 -0.001 0.099
0.019 -0.003 0.109
0.019 -0.003 0.109
0.029 -0.001 0.103
0.025 -0.005 0.115
0.017 -0.013 0.107
0.023 -0.011 0.111
0.023 -0.011 0.111
0.031 -0.015 0.105
0.025 -0.011 0.111
0.021 -0.007 0.109
0.023 -0.003 0.109
0.023 -0.005 0.115
0.025 -0.007 0.115
0.033 -0.029 0.103
0.037 -0.031 0.103
0.039 -0.027 0.097
0.033 -0.017 0.105
0.033 -0.013 0.103
0.031 -0.007 0.105
0.035 -0.007 0.105
-0.031 0.013 0.045
-0.029 0.009 0.061
-0.011 0.011 0.049
-0.009 0.011 0.053
-0.031 0.015 0.047
-0.023 0.019 0.047
-0.023 0.029 0.043
-0.017 0.019 0.047
-0.017 0.017 0.065
-0.015 0.017 0.065
-0.031 0.027 0.065
-0.027 0.027 0.061
-0.027 0.027 0.063
-0.035 0.013 0.043
-0.035 0.013 0.043
-0.035 0.017 0.049
-0.037 0.019 0.051
-0.039 0.019 0.047
-0.039 0.023 0.053
-0.041 0.021 0.049
-0.041 0.023 0.051
-0.037 0.017 0.049
-0.035 0.017 0.049
-0.037 0.019 0.051
-0.033 0.019 0.053
-0.037 0.027 0.061
-0.035 0.027 0.061
-0.035 0.031 0.063
-0.027 0.003 0.055
-0.021 0.001 0.035
-0.023 0.003 0.051
-0.029 0.005 0.061
-0.031 0.007 0.057
-0.029 0.007 0.061
-0.023 0.005 0.061
-0.031 0.005 0.055
-0.025 0.003 0.051
-0.021 0.005 0.049
-0.019 0.005 0.049
-0.025 0.007 0.061
-0.023 0.007 0.061
-0.025 0.009 0.065
-0.021 0.009 0.067
-0.011 0.001 0.037
-0.009 0.001 0.039
-0.011 0.003 0.045
-0.003 0.001 0.035
-0.021 0.009 0.067
-0.021 0.009 0.067
-0.009 0.007 0.049
-0.005 0.011 0.055
-0.009 0.007 0.049
-0.011 0.003 0.045
-0.013 0.003 0.045
-0.007 0.007 0.047
-0.027 0.015 0.045
-0.027 0.011 0.061
-0.019 0.021 0.047
-0.027 0.023 0.051
-0.033 0.025 0.061
-0.031 0.025 0.061
-0.021 0.023 0.065
-0.021 0.023 0.067
-0.021 0.011 0.069
-0.021 0.013 0.069
-0.011 0.013 0.079
-0.017 0.023 0.049
-0.017 0.017 0.071
-0.021 0.023 0.073
-0.019 0.021 0.083
-0.019 0.021 0.083
-0.013 0.017 0.089
-0.021 0.023 0.069
-0.019 0.019 0.073
-0.013 0.021 0.089
-0.013 0.021 0.089
-0.031 0.007 0.057
-0.025 0.003 0.055
-0.027 0.005 0.061
-0.029 0.007 0.059
-0.031 0.011 0.057
-0.027 0.009 0.063
-0.021 0.007 0.061
-0.029 0.005 0.061
-0.029 0.007 0.061
-0.029 0.005 0.061
-0.027 0.009 0.063
-0.025 0.013 0.063
-0.023 0.009 0.065
-0.009 0.007 0.049
-0.017 0.011 0.071
-0.005 0.013 0.059
-0.009 0.015 0.065
-0.031 0.019 0.051
-0.029 0.021 0.051
-0.019 0.019 0.071
-0.019 0.021 0.067
-0.031 0.023 0.059
-0.027 0.029 0.069
-0.021 0.023 0.077
-0.021 0.027 0.067
-0.017 0.017 0.069
-0.017 0.021 0.087
-0.013 0.021 0.089
-0.015 0.017 0.065
-0.015 0.017 0.067
-0.019 0.025 0.083
-0.011 0.023 0.091
-0.009 0.023 0.093
-0.025 0.029 0.065
-0.021 0.025 0.071
-0.019 0.023 0.083
-0.031 0.031 0.067
-0.027 0.031 0.073
-0.029 0.035 0.071
-0.033 0.029 0.065
-0.003 0.003 0.075
-0.003 0.003 0.077
-0.005 0.009 0.087
-0.009 0.011 0.083
-0.019 0.019 0.071
-0.019 0.021 0.075
-0.019 0.019 0.075
-0.017 0.017 0.077
-0.017 0.017 0.077
-0.029 0.029 0.069
-0.025 0.031 0.073
-0.021 0.023 0.071
-0.023 0.031 0.073
-0.023 0.031 0.073
-0.019 0.021 0.079
-0.019 0.021 0.083
-0.019 0.021 0.083
-0.009 0.013 0.089
-0.007 0.021 0.093
-0.015 0.015 0.081
-0.005 0.023 0.095
-0.001 0.005 0.085
-0.009 0.011 0.087
-0.009 0.013 0.089
-0.001 0.007 0.089
-0.017 0.031 0.089
-0.015 0.031 0.089
-0.011 0.029 0.093
-0.001 0.029 0.087
-0.011 0.027 0.093
-0.013 0.029 0.091
-0.011 0.029 0.093
-0.033 0.033 0.067
-0.037 0.039 0.087
-0.035 0.039 0.087
-0.035 0.043 0.087
-0.029 0.035 0.079
-0.023 0.033 0.077
-0.027 0.035 0.087
-0.031 0.035 0.083
-0.023 0.033 0.079
-0.023 0.033 0.081
-0.023 0.033 0.081
-0.021 0.033 0.081
-0.023 0.035 0.085
-0.019 0.033 0.083
-0.019 0.033 0.085
-0.023 0.035 0.085
-0.033 0.039 0.087
-0.033 0.039 0.087
-0.029 0.037 0.089
-0.027 0.037 0.087
-0.013 0.027 0.091
-0.017 0.031 0.089
-0.011 0.029 0.093
-0.027 0.035 0.087
-0.025 0.033 0.087
-0.029 0.037 0.089
-0.005 0.031 0.087
0.001 -0.003 0.063
0.005 -0.005 0.069
0.003 -0.003 0.073
0.003 -0.003 0.073
-0.005 0.009 0.073
-0.001 -0.001 0.067
-0.001 -0.001 0.071
-0.001 0.001 0.075
-0.001 0.001 0.077
-0.005 0.007 0.085
0.011 -0.001 0.077
0.009 -0.005 0.071
0.011 -0.003 0.073
0.009 -0.005 0.091
0.009 -0.003 0.091
0.009 -0.005 0.093
0.009 -0.005 0.101
0.009 -0.001 0.077
0.009 -0.003 0.089
0.011 -0.009 0.101
0.011 -0.007 0.093
-0.007 0.017 0.091
-0.007 0.011 0.089
-0.009 0.015 0.091
-0.009 0.017 0.091
-0.005 0.017 0.091
-0.005 0.017 0.091
-0.001 0.001 0.071
-0.003 0.003 0.077
-0.003 0.005 0.079
0.001 0.003 0.083
-0.003 0.005 0.081
0.003 0.009 0.089
0.005 0.009 0.091
0.007 0.001 0.095
0.009 -0.005 0.099
0.009 -0.003 0.101
0.009 -0.001 0.101
0.009 -0.003 0.103
-0.005 0.015 0.091
-0.005 0.013 0.091
0.011 -0.009 0.101
-0.011 0.021 0.091
-0.009 0.019 0.091
-0.011 0.019 0.091
-0.009 0.023 0.093
-0.003 0.005 0.083
0.003 0.011 0.091
0.003 0.001 0.081
0.009 -0.001 0.097
0.011 0.005 0.087
0.009 -0.001 0.101
0.009 0.001 0.101
0.015 0.009 0.079
-0.001 0.011 0.091
-0.005 0.013 0.091
0.001 0.013 0.091
-0.003 0.021 0.095
0.001 0.001 0.081
0.009 0.001 0.081
0.011 0.007 0.089
0.009 0.001 0.101
0.009 0.005 0.087
0.009 0.007 0.089
0.019 -0.001 0.095
0.021 -0.001 0.109
0.023 -0.001 0.109
0.021 0.003 0.109
0.005 0.021 0.089
0.005 0.017 0.091
0.007 0.017 0.089
0.009 0.017 0.087
0.009 0.021 0.085
0.003 0.017 0.093
-0.001 0.021 0.095
0.003 0.023 0.091
0.001 0.025 0.091
0.001 0.025 0.091
0.023 -0.001 0.109
0.019 0.003 0.111
0.015 0.005 0.111
