-0.003 -0.019 0.031
-0.005 -0.017 0.033
-0.017 -0.005 0.037
-0.025 0.003 0.039
-0.039 0.017 0.045
-0.025 0.003 0.041
-0.041 0.021 0.045
-0.035 0.015 0.047
-0.041 0.021 0.049
-0.031 0.009 0.049
-0.039 0.021 0.051
0.003 -0.033 0.033
-0.001 -0.021 0.037
-0.029 0.007 0.045
-0.041 0.023 0.049
-0.041 0.025 0.049
-0.025 0.005 0.039
-0.041 0.021 0.045
-0.039 0.031 0.049
-0.039 0.031 0.047
-0.037 0.031 0.045
-0.035 0.033 0.047
0.007 -0.039 0.035
0.005 -0.035 0.037
0.005 -0.035 0.037
0.007 -0.039 0.041
0.003 -0.033 0.035
0.005 -0.035 0.037
0.007 -0.037 0.039
0.003 -0.031 0.037
0.007 -0.041 0.043
0.007 -0.041 0.041
0.007 -0.035 0.045
0.007 -0.037 0.043
0.005 -0.029 0.045
0.009 -0.029 0.047
0.001 -0.021 0.039
-0.031 0.009 0.051
0.005 -0.029 0.045
0.005 -0.023 0.045
-0.031 0.005 0.055
0.009 -0.025 0.051
0.013 -0.029 0.055
0.013 -0.027 0.055
0.015 -0.027 0.057
0.015 -0.027 0.057
0.019 -0.029 0.061
0.019 -0.025 0.065
-0.029 0.009 0.061
-0.025 0.011 0.065
0.019 -0.023 0.063
-0.029 0.005 0.045
-0.031 0.007 0.049
-0.015 -0.007 0.037
0.005 -0.029 0.045
0.005 -0.027 0.045
0.007 -0.023 0.049
0.003 -0.023 0.041
-0.031 0.005 0.055
-0.041 0.023 0.051
-0.041 0.027 0.051
-0.041 0.023 0.045
-0.041 0.023 0.051
-0.041 0.025 0.051
-0.039 0.031 0.051
-0.029 0.011 0.051
-0.029 0.011 0.051
-0.031 0.011 0.055
-0.041 0.027 0.053
-0.039 0.025 0.055
-0.027 0.013 0.055
-0.041 0.027 0.049
-0.039 0.031 0.049
-0.035 0.035 0.059
-0.035 0.035 0.059
0.013 -0.029 0.055
0.013 -0.027 0.055
-0.029 0.009 0.061
-0.025 0.007 0.063
0.019 -0.027 0.063
-0.025 0.009 0.065
0.019 -0.021 0.059
-0.025 0.011 0.065
-0.031 0.011 0.057
-0.029 0.011 0.057
-0.029 0.011 0.059
-0.027 0.011 0.061
-0.027 0.013 0.061
-0.037 0.025 0.059
-0.025 0.013 0.063
-0.019 0.013 0.065
-0.021 0.013 0.067
-0.001 0.005 0.065
-0.001 0.003 0.061
-0.033 0.033 0.065
-0.019 0.019 0.065
-0.033 0.033 0.065
-0.019 0.013 0.065
-0.001 0.005 0.063
-0.031 0.035 0.067
-0.029 0.029 0.069
-0.039 0.029 0.055
-0.039 0.029 0.057
-0.039 0.031 0.055
-0.039 0.031 0.053
-0.037 0.033 0.055
-0.039 0.031 0.055
-0.035 0.035 0.057
-0.035 0.035 0.059
-0.025 0.013 0.059
-0.037 0.031 0.059
-0.035 0.035 0.053
-0.033 0.035 0.057
-0.035 0.035 0.057
-0.035 0.035 0.057
-0.013 0.027 0.047
-0.015 0.027 0.045
-0.031 0.035 0.053
-0.029 0.035 0.055
-0.033 0.035 0.059
-0.033 0.035 0.059
-0.017 0.013 0.067
-0.029 0.029 0.069
-0.033 0.031 0.065
-0.021 0.011 0.069
-0.021 0.013 0.071
-0.021 0.013 0.069
-0.019 0.013 0.069
-0.019 0.019 0.073
-0.033 0.031 0.065
-0.033 0.035 0.065
-0.033 0.035 0.065
-0.033 0.035 0.065
0.019 -0.027 0.067
0.027 -0.041 0.087
0.021 -0.033 0.085
0.021 -0.033 0.085
0.019 -0.029 0.085
0.019 -0.027 0.087
0.019 -0.027 0.087
0.027 -0.039 0.089
0.025 -0.033 0.089
0.019 -0.027 0.095
0.019 -0.027 0.097
0.019 -0.027 0.087
0.019 -0.027 0.087
0.017 -0.025 0.085
0.015 -0.015 0.087
0.015 -0.019 0.085
0.015 -0.017 0.087
0.015 -0.017 0.087
0.017 -0.021 0.089
0.015 -0.019 0.091
0.017 -0.021 0.071
0.017 -0.019 0.073
0.017 -0.017 0.073
0.017 -0.019 0.077
0.017 -0.021 0.073
0.017 -0.019 0.073
0.017 -0.015 0.079
0.015 -0.013 0.081
-0.009 0.011 0.085
-0.021 0.013 0.069
-0.017 0.017 0.075
0.015 -0.013 0.075
0.015 -0.011 0.077
-0.005 0.007 0.079
-0.017 0.017 0.081
-0.003 0.007 0.071
-0.017 0.013 0.073
0.017 -0.015 0.071
-0.005 0.007 0.075
-0.021 0.023 0.075
-0.021 0.023 0.073
-0.021 0.025 0.077
-0.021 0.023 0.079
-0.019 0.019 0.075
-0.021 0.023 0.075
-0.021 0.023 0.079
0.001 0.001 0.079
-0.021 0.023 0.079
-0.021 0.025 0.079
-0.019 0.025 0.081
-0.017 0.019 0.083
-0.017 0.023 0.085
-0.019 0.027 0.083
0.017 -0.025 0.085
0.017 -0.023 0.085
0.015 -0.019 0.085
0.019 -0.027 0.089
0.019 -0.025 0.089
0.015 -0.019 0.091
0.019 -0.025 0.091
0.021 -0.031 0.095
0.017 -0.021 0.095
0.015 -0.017 0.093
0.017 -0.023 0.097
0.009 -0.003 0.091
0.011 -0.011 0.089
0.011 -0.011 0.091
0.011 -0.009 0.093
0.009 -0.003 0.091
-0.015 0.017 0.087
-0.015 0.023 0.089
-0.017 0.027 0.087
0.019 -0.001 0.095
0.019 0.001 0.095
-0.011 0.025 0.093
0.017 -0.017 0.071
-0.003 0.003 0.073
0.017 -0.019 0.071
-0.003 0.003 0.075
-0.003 0.005 0.073
-0.001 0.003 0.081
-0.007 0.009 0.079
0.011 -0.007 0.087
0.009 -0.005 0.091
0.015 -0.017 0.091
0.009 -0.005 0.097
0.019 -0.001 0.093
0.019 0.001 0.097
0.025 0.001 0.095
0.023 -0.037 0.097
0.025 -0.039 0.101
0.027 -0.035 0.101
0.023 -0.027 0.103
0.015 -0.017 0.101
0.015 -0.015 0.101
0.013 -0.013 0.101
0.017 -0.017 0.103
0.031 -0.037 0.105
0.035 -0.035 0.107
0.015 -0.017 0.105
0.019 -0.021 0.101
0.019 -0.023 0.101
0.015 -0.017 0.105
0.015 -0.011 0.107
0.013 -0.011 0.097
0.013 -0.013 0.101
0.013 -0.011 0.103
0.011 -0.007 0.103
0.009 0.001 0.097
0.011 -0.001 0.099
0.009 -0.003 0.103
0.009 -0.003 0.103
0.019 -0.003 0.097
0.009 0.001 0.103
0.019 -0.001 0.099
0.015 -0.013 0.105
0.015 -0.011 0.105
0.015 -0.009 0.107
0.023 -0.011 0.111
0.021 -0.009 0.105
0.019 -0.005 0.107
0.025 -0.005 0.111
0.023 -0.005 0.113
0.015 -0.017 0.099
0.013 -0.013 0.099
0.015 -0.015 0.103
0.013 -0.011 0.103
0.013 -0.013 0.107
0.013 -0.013 0.107
0.021 -0.003 0.103
0.021 -0.003 0.103
0.019 0.001 0.105
0.025 0.001 0.097
0.019 -0.005 0.107
-0.031 0.031 0.035
-0.027 0.031 0.031
-0.027 0.033 0.035
-0.025 0.035 0.035
-0.027 0.035 0.033
-0.039 0.021 0.037
-0.039 0.021 0.039
-0.041 0.023 0.043
-0.039 0.017 0.041
-0.041 0.023 0.043
-0.037 0.031 0.043
-0.035 0.031 0.043
-0.041 0.023 0.051
-0.041 0.025 0.049
-0.039 0.025 0.057
-0.035 0.031 0.063
-0.037 0.015 0.043
-0.039 0.019 0.041
-0.037 0.015 0.043
-0.039 0.017 0.039
-0.041 0.021 0.041
-0.039 0.023 0.039
-0.029 0.007 0.045
-0.039 0.017 0.045
-0.029 0.007 0.045
-0.029 0.005 0.047
-0.027 0.009 0.045
-0.037 0.019 0.051
-0.041 0.021 0.045
-0.041 0.023 0.049
-0.041 0.027 0.053
-0.041 0.027 0.045
-0.039 0.027 0.043
-0.041 0.027 0.045
-0.037 0.031 0.043
-0.037 0.031 0.045
-0.033 0.033 0.045
-0.027 0.031 0.043
-0.037 0.027 0.039
-0.035 0.031 0.043
-0.037 0.031 0.047
-0.037 0.033 0.049
-0.039 0.031 0.051
-0.033 0.033 0.043
-0.037 0.031 0.045
-0.017 0.033 0.039
-0.019 0.033 0.039
-0.015 0.033 0.041
-0.011 0.033 0.039
-0.039 0.031 0.053
-0.017 0.029 0.043
-0.017 0.029 0.043
-0.015 0.027 0.045
-0.013 0.029 0.045
-0.011 0.029 0.047
-0.009 0.033 0.045
-0.007 0.033 0.047
-0.031 0.007 0.055
-0.029 0.011 0.053
-0.027 0.013 0.055
-0.039 0.023 0.053
-0.027 0.013 0.061
-0.027 0.013 0.059
-0.025 0.013 0.057
-0.039 0.025 0.057
-0.039 0.031 0.057
-0.037 0.033 0.057
-0.033 0.035 0.065
-0.031 0.031 0.067
-0.039 0.029 0.053
-0.039 0.031 0.055
-0.035 0.033 0.051
-0.035 0.035 0.055
-0.035 0.035 0.059
-0.035 0.035 0.061
-0.033 0.033 0.067
-0.037 0.033 0.059
-0.037 0.033 0.059
-0.035 0.029 0.063
-0.035 0.035 0.061
-0.033 0.035 0.061
-0.033 0.035 0.063
-0.033 0.035 0.065
-0.031 0.037 0.065
-0.039 0.031 0.057
-0.037 0.031 0.059
-0.033 0.035 0.053
-0.015 0.029 0.055
-0.031 0.029 0.067
-0.029 0.037 0.069
-0.029 0.037 0.067
-0.019 0.035 0.037
-0.011 0.035 0.035
-0.007 0.035 0.039
-0.005 0.035 0.039
-0.007 0.033 0.041
-0.009 0.033 0.043
-0.003 0.035 0.041
-0.031 0.037 0.061
-0.031 0.037 0.063
-0.031 0.037 0.065
-0.031 0.037 0.063
-0.025 0.037 0.065
-0.005 0.033 0.049
-0.013 0.033 0.059
-0.015 0.033 0.061
-0.013 0.035 0.063
-0.009 0.035 0.065
-0.025 0.011 0.065
-0.021 0.013 0.071
-0.021 0.013 0.071
-0.019 0.013 0.073
-0.019 0.013 0.073
-0.003 0.003 0.073
-0.003 0.003 0.073
-0.019 0.019 0.075
-0.019 0.019 0.077
-0.019 0.019 0.071
-0.029 0.033 0.071
-0.021 0.025 0.071
-0.019 0.019 0.079
-0.021 0.027 0.075
-0.021 0.025 0.077
-0.021 0.025 0.079
-0.031 0.035 0.081
-0.021 0.023 0.073
-0.031 0.039 0.073
-0.025 0.039 0.071
-0.023 0.039 0.071
-0.021 0.023 0.079
-0.029 0.043 0.077
-0.029 0.043 0.077
-0.017 0.019 0.085
-0.011 0.019 0.091
-0.017 0.025 0.087
-0.031 0.037 0.089
-0.017 0.033 0.087
-0.011 0.033 0.083
-0.013 0.035 0.083
-0.015 0.025 0.089
-0.011 0.023 0.091
-0.011 0.025 0.091
-0.009 0.025 0.095
-0.015 0.027 0.089
-0.017 0.031 0.089
-0.037 0.043 0.079
-0.035 0.039 0.085
-0.035 0.043 0.085
-0.029 0.035 0.071
-0.029 0.037 0.067
-0.027 0.037 0.067
-0.025 0.039 0.069
-0.025 0.039 0.071
-0.025 0.039 0.069
-0.037 0.043 0.079
-0.035 0.043 0.079
-0.033 0.043 0.079
-0.009 0.035 0.065
-0.013 0.037 0.075
-0.033 0.043 0.085
-0.035 0.043 0.085
-0.035 0.043 0.087
-0.035 0.043 0.085
-0.035 0.045 0.081
-0.033 0.043 0.083
-0.005 0.033 0.081
-0.017 0.029 0.043
-0.039 0.031 0.051
-0.037 0.033 0.051
-0.025 0.031 0.043
-0.039 0.029 0.053
-0.039 0.031 0.055
-0.035 0.035 0.055
-0.031 0.033 0.049
-0.029 0.035 0.057
-0.035 0.033 0.049
-0.015 0.025 0.047
-0.015 0.027 0.045
-0.015 0.029 0.043
-0.011 0.027 0.049
-0.011 0.031 0.047
-0.013 0.033 0.041
-0.013 0.031 0.045
-0.013 0.027 0.051
-0.009 0.033 0.045
0.001 0.031 0.043
-0.031 0.037 0.061
-0.031 0.037 0.061
-0.031 0.037 0.063
-0.031 0.037 0.063
-0.019 0.021 0.067
-0.033 0.035 0.063
-0.031 0.033 0.069
-0.031 0.035 0.067
-0.031 0.037 0.065
-0.031 0.037 0.065
-0.029 0.037 0.065
-0.029 0.037 0.063
-0.031 0.035 0.067
-0.009 0.031 0.053
-0.013 0.031 0.057
-0.005 0.031 0.053
-0.009 0.033 0.057
0.005 0.037 0.035
0.003 0.035 0.039
0.003 0.033 0.041
-0.029 0.035 0.071
-0.029 0.035 0.071
-0.033 0.043 0.079
-0.019 0.021 0.081
-0.031 0.035 0.083
-0.037 0.043 0.081
-0.035 0.045 0.081
-0.033 0.039 0.077
-0.021 0.027 0.075
-0.035 0.039 0.083
-0.035 0.043 0.077
-0.031 0.043 0.077
-0.031 0.043 0.079
-0.035 0.045 0.081
-0.035 0.045 0.081
-0.035 0.045 0.081
-0.031 0.043 0.083
-0.033 0.043 0.081
-0.033 0.043 0.083
-0.031 0.037 0.089
-0.015 0.025 0.089
-0.005 0.017 0.091
-0.011 0.019 0.091
-0.009 0.023 0.093
-0.011 0.025 0.093
-0.007 0.019 0.093
-0.015 0.023 0.089
-0.011 0.029 0.091
0.019 0.001 0.093
-0.011 0.029 0.093
-0.011 0.031 0.089
-0.029 0.041 0.085
-0.015 0.033 0.087
-0.011 0.029 0.091
-0.007 0.029 0.091
0.017 0.003 0.107
0.015 0.005 0.109
0.015 0.007 0.111
0.015 0.007 0.109
