0.027 -0.043 0.087
-0.001 -0.019 0.037
0.001 -0.021 0.039
-0.003 -0.017 0.037
0.005 -0.023 0.047
-0.011 -0.009 0.035
-0.007 -0.003 0.039
0.029 -0.043 0.101
0.021 -0.027 0.099
0.015 -0.039 0.041
0.031 -0.037 0.047
0.033 -0.037 0.057
0.041 -0.031 0.053
0.033 -0.047 0.089
0.039 -0.031 0.059
0.039 -0.029 0.063
0.041 -0.037 0.089
0.043 -0.037 0.085
0.039 -0.023 0.063
0.013 -0.041 0.043
0.009 -0.039 0.045
0.007 -0.033 0.045
0.011 -0.041 0.043
0.011 -0.037 0.045
0.011 -0.035 0.045
0.017 -0.039 0.035
0.017 -0.039 0.037
0.021 -0.037 0.043
0.025 -0.037 0.045
0.029 -0.037 0.041
0.025 -0.037 0.045
0.027 -0.037 0.049
0.031 -0.039 0.049
0.039 -0.049 0.093
0.039 -0.049 0.091
0.037 -0.035 0.043
0.035 -0.035 0.061
0.011 -0.037 0.045
0.013 -0.031 0.049
0.017 -0.033 0.049
0.017 -0.033 0.051
0.011 -0.031 0.047
0.007 -0.027 0.045
0.007 -0.025 0.049
0.033 -0.049 0.087
0.023 -0.035 0.057
0.007 -0.033 0.045
0.007 -0.031 0.047
0.027 -0.047 0.083
0.025 -0.037 0.049
0.029 -0.039 0.051
0.029 -0.039 0.051
0.029 -0.037 0.057
0.035 -0.043 0.103
0.037 -0.037 0.089
0.001 -0.015 0.043
0.031 -0.043 0.101
0.033 -0.043 0.103
0.041 -0.025 0.059
0.043 -0.041 0.087
0.041 -0.037 0.089
0.037 -0.023 0.069
0.037 -0.019 0.065
0.035 -0.011 0.053
0.013 -0.031 0.051
0.031 -0.049 0.085
0.031 -0.047 0.089
0.035 -0.047 0.093
0.031 -0.047 0.089
0.035 -0.041 0.091
0.035 -0.045 0.093
0.037 -0.043 0.093
0.033 -0.039 0.089
0.033 -0.041 0.091
0.033 -0.041 0.091
0.033 -0.037 0.089
0.031 -0.037 0.089
0.027 -0.037 0.101
0.027 -0.037 0.101
0.023 -0.033 0.099
0.035 -0.037 0.107
0.041 -0.041 0.103
0.037 -0.021 0.069
0.041 -0.035 0.089
0.041 -0.031 0.083
0.035 -0.019 0.071
0.041 -0.041 0.101
0.041 -0.041 0.101
0.041 -0.041 0.103
0.045 -0.039 0.101
0.035 -0.029 0.101
0.039 -0.033 0.047
0.041 -0.031 0.049
0.045 -0.029 0.035
0.043 -0.027 0.039
0.041 -0.027 0.047
0.039 -0.033 0.047
0.041 -0.021 0.049
0.051 -0.021 0.037
0.049 -0.021 0.039
0.043 -0.019 0.049
0.043 -0.017 0.041
0.043 -0.017 0.041
0.043 -0.015 0.041
0.041 -0.015 0.053
0.043 -0.019 0.051
0.043 -0.017 0.051
0.041 -0.013 0.053
0.043 -0.017 0.051
0.043 -0.017 0.051
0.037 -0.013 0.055
0.041 -0.027 0.051
0.039 -0.019 0.057
0.041 -0.021 0.053
0.041 -0.023 0.057
0.037 -0.031 0.065
0.041 -0.025 0.059
0.039 -0.023 0.065
0.037 -0.021 0.065
0.033 -0.049 0.087
0.031 -0.047 0.089
0.037 -0.049 0.093
0.029 -0.043 0.089
0.037 -0.043 0.093
0.031 -0.039 0.089
0.029 -0.039 0.089
0.033 -0.043 0.091
0.033 -0.039 0.089
0.033 -0.043 0.105
0.029 -0.037 0.089
0.039 -0.049 0.093
0.039 -0.049 0.091
0.039 -0.049 0.093
0.039 -0.045 0.091
0.043 -0.043 0.087
0.043 -0.043 0.085
0.041 -0.045 0.087
0.043 -0.045 0.085
0.039 -0.045 0.093
0.041 -0.041 0.089
0.043 -0.039 0.087
0.041 -0.039 0.089
0.035 -0.045 0.093
0.041 -0.043 0.089
0.041 -0.039 0.089
0.045 -0.037 0.101
0.031 -0.041 0.097
0.037 -0.045 0.093
0.035 -0.043 0.103
0.035 -0.037 0.089
0.039 -0.039 0.097
0.037 -0.037 0.089
0.043 -0.041 0.101
0.037 -0.041 0.105
0.033 -0.037 0.107
0.037 -0.039 0.105
0.041 -0.041 0.103
0.043 -0.037 0.103
0.041 -0.033 0.101
0.027 -0.029 0.101
0.033 -0.031 0.103
0.031 -0.029 0.105
0.015 -0.017 0.101
0.017 -0.019 0.103
0.027 -0.023 0.105
0.035 -0.027 0.101
0.041 -0.029 0.099
0.039 -0.025 0.097
0.035 -0.025 0.103
0.039 -0.023 0.101
0.039 -0.023 0.097
0.039 -0.023 0.103
0.039 -0.019 0.095
0.029 -0.041 0.103
0.035 -0.043 0.103
0.027 -0.029 0.101
0.025 -0.031 0.099
0.023 -0.029 0.099
0.037 -0.037 0.107
0.037 -0.033 0.105
0.027 -0.035 0.101
0.023 -0.033 0.099
0.027 -0.029 0.101
0.039 -0.041 0.105
0.025 -0.029 0.103
0.029 -0.029 0.103
0.027 -0.027 0.105
0.023 -0.025 0.105
0.025 -0.027 0.105
0.035 -0.027 0.101
0.025 -0.021 0.105
0.023 -0.019 0.105
0.023 -0.023 0.105
0.021 -0.021 0.105
0.019 -0.015 0.105
0.037 -0.025 0.099
0.027 -0.015 0.105
0.035 -0.015 0.105
0.037 -0.017 0.103
0.035 -0.009 0.097
0.027 -0.013 0.107
0.043 -0.041 0.087
0.041 -0.039 0.089
0.037 -0.019 0.067
0.035 -0.019 0.071
0.039 -0.027 0.085
0.035 -0.019 0.071
0.039 -0.025 0.083
0.045 -0.039 0.101
0.045 -0.039 0.101
0.039 -0.025 0.097
0.041 -0.025 0.095
0.041 -0.039 0.105
0.039 -0.037 0.105
0.039 -0.035 0.105
0.039 -0.021 0.093
0.039 -0.019 0.093
0.039 -0.023 0.097
0.039 -0.023 0.101
0.039 -0.023 0.103
0.039 -0.019 0.101
0.039 -0.019 0.101
0.037 -0.015 0.101
0.037 -0.015 0.101
0.033 -0.003 0.091
0.023 -0.035 0.099
0.025 -0.039 0.101
0.039 -0.041 0.105
0.041 -0.041 0.103
0.035 -0.043 0.105
0.037 -0.037 0.107
0.021 -0.027 0.103
0.021 -0.021 0.105
0.021 -0.025 0.103
0.023 -0.017 0.105
0.027 -0.019 0.105
0.017 -0.015 0.107
0.017 -0.015 0.107
0.023 -0.015 0.105
0.019 -0.013 0.105
0.031 -0.007 0.105
0.031 -0.007 0.105
0.031 -0.007 0.105
0.019 -0.003 0.109
0.025 -0.009 0.113
0.027 -0.009 0.111
0.027 -0.007 0.111
0.025 -0.009 0.113
0.039 -0.037 0.105
0.041 -0.029 0.099
0.037 -0.025 0.103
0.043 -0.031 0.099
0.037 -0.017 0.103
0.035 -0.007 0.105
0.035 -0.007 0.105
0.033 -0.007 0.105
-0.017 0.003 0.047
-0.015 0.003 0.045
0.023 -0.031 0.099
-0.017 0.005 0.051
0.021 -0.027 0.103
0.013 -0.015 0.095
0.029 -0.027 0.105
0.023 -0.021 0.105
-0.025 0.003 0.055
-0.025 0.003 0.055
-0.023 0.005 0.055
-0.019 0.009 0.055
-0.021 0.011 0.057
-0.017 0.011 0.065
-0.027 0.005 0.061
-0.019 0.011 0.069
-0.025 0.011 0.065
-0.031 0.023 0.059
-0.025 0.009 0.065
-0.037 0.021 0.055
-0.033 0.023 0.059
-0.035 0.027 0.061
-0.013 0.003 0.045
-0.021 0.003 0.043
-0.017 0.003 0.047
-0.027 0.003 0.051
-0.023 0.003 0.047
-0.017 0.003 0.047
-0.021 0.005 0.055
-0.021 0.007 0.059
-0.019 0.007 0.053
-0.017 0.007 0.053
-0.009 -0.003 0.039
0.027 -0.039 0.101
-0.011 0.003 0.041
0.033 -0.043 0.103
0.027 -0.039 0.101
0.025 -0.039 0.101
0.027 -0.037 0.101
0.021 -0.027 0.099
0.027 -0.035 0.101
0.025 -0.029 0.101
0.033 -0.037 0.107
0.025 -0.029 0.103
0.027 -0.029 0.103
-0.019 0.017 0.047
0.019 -0.017 0.105
-0.021 0.007 0.061
-0.017 0.011 0.063
-0.001 -0.001 0.071
-0.015 0.011 0.051
-0.017 0.017 0.063
0.017 -0.017 0.105
0.023 -0.029 0.099
0.027 -0.029 0.101
0.033 -0.029 0.103
0.025 -0.025 0.105
0.025 -0.023 0.105
0.029 -0.023 0.105
0.031 -0.015 0.105
-0.025 0.003 0.053
-0.025 0.003 0.055
-0.025 0.005 0.057
-0.021 0.005 0.053
-0.021 0.005 0.057
-0.025 0.005 0.057
-0.025 0.005 0.059
-0.025 0.005 0.059
-0.017 0.007 0.053
-0.027 0.005 0.061
-0.025 0.007 0.063
-0.025 0.009 0.065
-0.021 0.007 0.061
-0.015 0.005 0.051
-0.015 0.007 0.051
0.019 -0.021 0.103
0.023 -0.023 0.105
0.023 -0.029 0.103
0.023 -0.029 0.103
0.023 -0.027 0.103
0.023 -0.025 0.105
0.015 -0.017 0.105
0.023 -0.021 0.105
-0.023 0.007 0.061
-0.017 0.011 0.069
-0.011 0.013 0.079
-0.005 0.005 0.077
-0.017 0.017 0.063
-0.015 0.015 0.081
-0.001 0.001 0.077
0.019 -0.013 0.105
0.017 -0.013 0.107
0.029 -0.013 0.105
0.027 -0.011 0.107
0.027 -0.013 0.107
0.023 -0.011 0.111
0.025 -0.011 0.111
0.025 -0.011 0.111
-0.033 0.029 0.065
-0.019 0.019 0.079
0.015 -0.017 0.105
-0.015 0.017 0.059
0.021 -0.017 0.105
0.021 -0.017 0.105
0.019 -0.017 0.105
0.033 -0.017 0.105
0.027 -0.013 0.107
-0.017 0.017 0.071
-0.013 0.015 0.087
0.001 0.011 0.091
0.021 -0.009 0.109
0.007 0.009 0.091
0.023 -0.007 0.115
-0.033 0.029 0.065
-0.025 0.011 0.065
-0.019 0.011 0.069
-0.019 0.011 0.071
0.019 -0.021 0.103
0.019 -0.021 0.103
0.021 -0.017 0.105
0.015 -0.017 0.105
0.013 -0.013 0.107
-0.017 0.017 0.071
-0.017 0.017 0.075
-0.029 0.029 0.067
-0.031 0.029 0.067
-0.009 0.013 0.089
-0.011 0.017 0.089
0.015 -0.011 0.109
0.017 -0.009 0.103
0.023 -0.009 0.113
-0.009 0.011 0.087
0.015 -0.009 0.109
0.015 -0.007 0.103
0.023 -0.009 0.113
0.019 0.003 0.111
-0.009 0.011 0.087
-0.007 0.009 0.087
-0.009 0.011 0.087
-0.003 0.009 0.089
-0.011 0.015 0.089
-0.003 0.011 0.091
-0.013 0.017 0.089
-0.015 0.021 0.089
-0.013 0.023 0.089
-0.011 0.015 0.089
-0.007 0.023 0.095
0.015 0.005 0.111
-0.007 0.015 0.091
-0.009 0.017 0.091
-0.015 0.021 0.089
-0.003 0.017 0.093
0.001 0.017 0.095
-0.003 0.021 0.095
-0.005 0.023 0.095
-0.033 0.039 0.087
-0.017 0.019 0.085
-0.011 0.017 0.089
-0.013 0.017 0.089
-0.011 0.021 0.091
-0.003 0.011 0.091
-0.013 0.019 0.089
-0.009 0.023 0.093
-0.011 0.025 0.093
-0.023 0.035 0.085
-0.017 0.031 0.089
0.003 0.015 0.095
0.023 -0.005 0.115
-0.003 0.019 0.095
-0.003 0.021 0.095
0.001 0.019 0.095
-0.031 0.035 0.081
-0.027 0.033 0.087
-0.027 0.033 0.087
-0.025 0.035 0.087
-0.011 0.025 0.093
-0.015 0.029 0.089
-0.027 0.037 0.087
-0.031 0.037 0.089
-0.029 0.037 0.089
-0.005 0.023 0.095
-0.001 0.023 0.093
0.043 -0.041 0.103
0.037 -0.037 0.107
0.035 -0.035 0.107
0.039 -0.041 0.105
0.035 -0.039 0.105
0.037 -0.035 0.107
0.041 -0.033 0.101
0.041 -0.033 0.101
0.037 -0.031 0.103
0.033 -0.031 0.103
0.037 -0.017 0.065
0.039 -0.011 0.053
0.029 0.003 0.043
0.031 0.001 0.041
0.031 0.001 0.041
0.029 0.001 0.043
0.037 -0.019 0.081
0.029 0.001 0.043
0.035 -0.015 0.071
0.033 -0.025 0.105
0.037 -0.017 0.103
0.037 -0.015 0.101
0.035 -0.025 0.103
0.037 -0.021 0.103
0.035 -0.017 0.103
0.035 -0.033 0.105
0.025 -0.027 0.105
0.037 -0.021 0.103
0.033 -0.017 0.105
0.039 -0.023 0.097
0.039 -0.025 0.097
0.039 -0.021 0.101
0.037 -0.019 0.103
0.029 -0.013 0.105
0.027 -0.013 0.107
0.025 -0.015 0.105
0.039 -0.009 0.051
0.033 0.001 0.037
0.037 -0.019 0.103
0.037 -0.017 0.103
0.035 -0.015 0.105
0.031 -0.021 0.105
0.027 -0.013 0.107
0.029 -0.009 0.105
0.037 -0.021 0.103
0.023 -0.013 0.107
0.029 -0.011 0.105
0.025 -0.011 0.111
0.027 -0.009 0.111
0.029 -0.009 0.105
0.025 -0.013 0.107
0.025 -0.009 0.113
0.009 -0.003 0.103
0.015 -0.009 0.109
0.007 0.009 0.091
0.003 0.013 0.093
0.031 -0.017 0.105
0.033 -0.017 0.105
0.035 -0.015 0.105
0.029 -0.013 0.105
0.027 -0.011 0.109
0.029 -0.011 0.105
0.035 -0.007 0.099
0.035 -0.007 0.105
0.031 -0.007 0.105
0.033 -0.003 0.109
0.019 0.003 0.111
0.027 -0.007 0.111
0.017 0.003 0.111
0.017 0.005 0.111
0.019 0.005 0.111
0.003 0.015 0.095
0.033 -0.005 0.107
0.019 0.003 0.111
