0.001 -0.009 0.035
-0.003 0.031 0.049
0.027 0.007 0.041
0.031 0.003 0.037
0.019 -0.001 0.031
0.033 0.001 0.031
0.019 0.007 0.047
0.023 0.007 0.047
0.021 0.005 0.055
0.021 0.007 0.055
0.019 0.009 0.053
0.037 -0.007 0.043
0.035 -0.007 0.047
0.027 -0.005 0.051
0.027 -0.005 0.051
0.029 -0.009 0.065
0.035 -0.015 0.063
0.017 0.009 0.049
0.007 0.005 0.043
0.011 0.005 0.039
0.007 0.007 0.045
0.005 0.009 0.051
0.035 -0.001 0.037
0.027 -0.001 0.045
0.021 -0.001 0.061
0.021 0.003 0.061
0.027 -0.011 0.063
0.029 -0.009 0.065
0.011 0.013 0.057
0.013 0.015 0.061
0.019 0.009 0.061
0.017 0.011 0.061
0.009 0.013 0.055
0.019 0.009 0.065
0.023 -0.005 0.055
0.025 -0.001 0.053
0.021 -0.007 0.057
0.025 -0.011 0.063
0.049 -0.015 0.037
0.049 -0.015 0.035
0.051 -0.017 0.035
0.041 -0.011 0.037
0.037 -0.007 0.039
0.035 -0.005 0.045
0.041 -0.017 0.055
0.037 -0.007 0.049
0.039 -0.009 0.051
0.037 -0.019 0.089
0.035 -0.011 0.089
0.037 -0.017 0.087
0.035 -0.007 0.093
0.037 -0.019 0.089
0.035 -0.015 0.087
0.037 -0.021 0.089
0.029 -0.005 0.073
0.031 -0.009 0.073
0.027 -0.001 0.081
0.011 0.017 0.073
0.019 0.001 0.079
0.021 -0.007 0.067
0.029 0.007 0.089
0.033 -0.003 0.087
0.035 -0.011 0.085
0.023 0.001 0.083
0.035 -0.011 0.087
0.031 0.003 0.095
0.029 0.005 0.099
0.029 0.007 0.097
0.035 -0.011 0.091
0.033 0.001 0.097
0.017 -0.003 0.093
0.009 0.001 0.095
0.013 -0.003 0.091
0.009 -0.001 0.093
0.011 -0.001 0.095
0.033 -0.003 0.087
0.023 0.001 0.083
0.035 -0.015 0.069
0.037 -0.029 0.087
0.037 -0.017 0.097
0.041 -0.023 0.093
0.041 -0.031 0.093
0.043 -0.029 0.095
0.035 -0.011 0.091
0.033 -0.005 0.095
0.035 -0.015 0.103
0.039 -0.019 0.101
0.039 -0.033 0.103
0.035 -0.031 0.103
0.043 -0.029 0.097
0.045 -0.037 0.101
0.039 -0.035 0.105
0.035 -0.035 0.107
0.021 -0.003 0.103
0.011 -0.001 0.101
0.013 -0.003 0.101
0.043 -0.031 0.099
0.033 -0.001 0.107
0.001 0.035 0.039
0.001 0.035 0.039
-0.015 0.035 0.033
-0.009 0.027 0.033
-0.023 0.033 0.039
-0.033 0.033 0.043
-0.033 0.031 0.039
-0.031 0.031 0.039
-0.033 0.033 0.049
-0.037 0.031 0.047
-0.035 0.031 0.045
-0.029 0.033 0.053
-0.027 0.035 0.059
-0.007 0.033 0.041
-0.011 0.031 0.045
-0.013 0.031 0.045
-0.019 0.023 0.047
-0.019 0.023 0.047
-0.015 0.025 0.049
0.001 0.029 0.045
-0.003 0.031 0.045
0.001 0.031 0.043
-0.027 0.025 0.049
-0.021 0.025 0.043
-0.025 0.031 0.043
-0.023 0.031 0.041
-0.001 0.035 0.039
0.003 0.035 0.039
-0.011 0.035 0.035
-0.005 0.033 0.047
-0.015 0.031 0.059
-0.007 0.033 0.059
-0.011 0.037 0.069
-0.003 0.031 0.057
-0.001 0.031 0.063
-0.027 0.029 0.055
-0.009 0.035 0.067
-0.025 0.029 0.057
-0.007 0.035 0.063
-0.005 0.033 0.065
-0.035 0.035 0.059
-0.025 0.035 0.033
-0.027 0.035 0.059
-0.005 0.033 0.059
-0.029 0.037 0.067
0.005 0.021 0.073
-0.005 0.035 0.071
-0.021 0.037 0.073
-0.017 0.035 0.079
-0.007 0.035 0.071
-0.001 0.025 0.067
0.003 0.027 0.085
0.003 0.021 0.091
-0.011 0.033 0.085
-0.015 0.033 0.085
-0.013 0.031 0.087
-0.001 0.021 0.095
-0.001 0.023 0.093
-0.029 0.037 0.067
-0.021 0.039 0.077
-0.015 0.035 0.079
-0.009 0.035 0.073
-0.023 0.039 0.081
-0.025 0.035 0.087
-0.019 0.033 0.085
0.025 0.007 0.039
0.007 0.025 0.041
0.009 0.031 0.041
0.005 0.013 0.061
0.025 0.005 0.049
0.025 0.001 0.051
0.021 0.005 0.061
0.005 0.021 0.053
0.005 0.023 0.053
0.003 0.025 0.053
0.013 0.017 0.077
0.005 0.017 0.091
0.029 0.007 0.087
0.027 0.009 0.095
0.003 0.025 0.089
0.029 0.007 0.097
0.031 0.005 0.097
0.021 0.001 0.105
0.021 0.003 0.107
0.019 0.007 0.109
0.009 -0.039 0.045
0.007 -0.037 0.045
-0.001 -0.015 0.041
-0.001 -0.015 0.043
0.013 -0.039 0.043
0.037 -0.035 0.041
0.037 -0.035 0.045
0.021 -0.035 0.047
0.027 -0.037 0.057
0.023 -0.035 0.057
0.013 -0.041 0.043
0.013 -0.031 0.051
0.031 -0.033 0.035
0.029 -0.039 0.047
0.015 -0.033 0.047
0.023 -0.035 0.055
0.029 -0.037 0.055
0.037 -0.035 0.055
0.039 -0.031 0.063
0.019 -0.031 0.057
0.005 -0.009 0.059
0.003 -0.007 0.061
0.037 -0.029 0.067
0.029 -0.029 0.071
0.039 -0.031 0.041
0.041 -0.029 0.049
0.045 -0.021 0.041
0.043 -0.017 0.041
0.043 -0.019 0.049
0.043 -0.019 0.051
0.039 -0.031 0.059
0.039 -0.031 0.063
0.039 -0.027 0.065
0.041 -0.027 0.059
0.041 -0.023 0.057
0.039 -0.049 0.091
0.041 -0.045 0.087
0.043 -0.039 0.081
0.023 -0.031 0.067
0.023 -0.029 0.071
0.021 -0.027 0.071
0.033 -0.047 0.089
0.003 -0.003 0.073
0.027 -0.039 0.089
0.035 -0.047 0.085
0.039 -0.045 0.091
0.039 -0.045 0.091
0.043 -0.039 0.087
0.041 -0.039 0.089
0.023 -0.033 0.087
0.039 -0.049 0.093
0.035 -0.047 0.093
0.029 -0.035 0.089
0.037 -0.033 0.089
0.025 -0.033 0.089
0.029 -0.039 0.095
0.033 -0.043 0.103
0.035 -0.043 0.105
0.035 -0.043 0.103
0.027 -0.027 0.105
0.043 -0.035 0.095
0.035 -0.037 0.107
0.043 -0.041 0.083
0.043 -0.043 0.087
0.043 -0.039 0.087
0.037 -0.027 0.087
0.043 -0.033 0.095
0.045 -0.039 0.101
0.045 -0.037 0.101
0.035 -0.043 0.103
0.041 -0.039 0.105
0.031 -0.043 0.105
0.031 -0.039 0.105
0.029 -0.027 0.105
0.019 -0.021 0.103
0.017 -0.015 0.107
0.023 -0.011 0.111
0.025 -0.011 0.111
0.029 -0.011 0.105
0.037 -0.025 0.103
0.043 -0.039 0.103
0.037 -0.017 0.103
-0.009 0.005 0.047
0.007 -0.013 0.055
-0.035 0.013 0.039
-0.021 0.003 0.045
-0.023 0.003 0.051
-0.023 0.005 0.059
-0.023 0.005 0.061
-0.025 0.003 0.035
-0.023 0.003 0.037
-0.015 -0.005 0.037
-0.013 -0.005 0.039
-0.015 0.003 0.037
-0.021 0.003 0.039
-0.025 0.003 0.039
0.001 -0.013 0.045
-0.001 -0.011 0.047
-0.011 0.003 0.045
0.019 -0.027 0.065
-0.021 0.005 0.051
-0.015 0.009 0.051
-0.013 0.013 0.051
0.015 -0.027 0.057
0.007 -0.013 0.055
0.009 -0.013 0.055
-0.027 0.003 0.055
-0.023 0.003 0.049
-0.015 0.007 0.051
-0.019 0.009 0.061
-0.021 0.011 0.059
-0.001 -0.001 0.061
0.033 -0.045 0.091
0.009 -0.009 0.059
0.029 -0.029 0.071
0.029 -0.029 0.071
0.019 -0.027 0.089
-0.021 0.009 0.067
-0.019 0.013 0.073
-0.017 0.013 0.073
-0.019 0.013 0.073
-0.015 0.015 0.081
-0.011 0.013 0.079
0.033 -0.043 0.101
-0.003 0.007 0.087
0.001 0.005 0.087
-0.007 0.009 0.081
-0.011 0.013 0.087
0.015 -0.017 0.105
-0.007 0.023 0.095
0.021 -0.017 0.105
-0.027 0.033 0.083
0.001 0.001 0.081
-0.017 0.017 0.079
-0.027 0.033 0.079
-0.017 0.021 0.087
0.025 -0.029 0.103
-0.025 0.033 0.081
-0.023 0.035 0.085
-0.027 0.033 0.087
-0.029 0.035 0.087
-0.023 0.035 0.085
-0.011 0.015 0.089
-0.025 0.033 0.087
-0.011 0.017 0.089
0.027 -0.033 0.065
0.037 -0.033 0.063
0.041 -0.027 0.059
0.029 -0.033 0.065
0.027 -0.029 0.073
0.033 -0.045 0.091
0.041 -0.045 0.087
0.037 -0.029 0.067
0.033 -0.047 0.089
0.033 -0.029 0.071
0.023 -0.035 0.085
0.029 -0.039 0.095
0.033 -0.043 0.103
0.037 -0.041 0.103
0.037 -0.041 0.105
0.037 -0.041 0.105
0.035 -0.043 0.105
0.019 -0.021 0.103
0.037 -0.019 0.097
0.037 -0.025 0.103
0.029 -0.025 0.105
0.023 -0.021 0.105
0.025 -0.019 0.105
0.023 -0.007 0.115
0.035 -0.009 0.103
0.023 -0.011 0.111
0.023 -0.009 0.113
-0.005 -0.015 0.033
-0.005 -0.013 0.037
-0.013 -0.007 0.037
-0.013 -0.005 0.039
-0.003 -0.015 0.041
-0.003 -0.011 0.043
0.003 -0.023 0.041
0.003 -0.021 0.041
0.009 -0.043 0.041
0.009 -0.043 0.043
0.009 -0.039 0.045
0.007 -0.039 0.043
0.031 -0.037 0.039
0.017 -0.037 0.043
0.025 -0.037 0.053
0.029 -0.039 0.049
0.003 -0.031 0.037
0.003 -0.031 0.037
0.005 -0.029 0.041
0.005 -0.025 0.043
0.001 -0.019 0.041
0.005 -0.033 0.043
0.001 -0.023 0.039
-0.005 -0.011 0.037
-0.001 -0.007 0.041
0.001 -0.003 0.045
-0.001 -0.007 0.041
0.015 -0.027 0.057
0.019 -0.017 0.063
0.007 -0.013 0.053
0.013 -0.009 0.061
0.017 -0.013 0.055
0.011 -0.029 0.049
0.009 -0.025 0.051
0.013 -0.029 0.055
0.011 -0.029 0.053
0.013 -0.027 0.055
0.009 -0.021 0.051
0.011 -0.025 0.053
0.023 -0.035 0.055
0.017 -0.027 0.059
0.019 -0.025 0.063
0.019 -0.021 0.059
0.027 -0.043 0.085
0.023 -0.035 0.083
0.029 -0.041 0.089
0.029 -0.041 0.089
0.033 -0.045 0.091
0.029 -0.029 0.071
0.019 -0.021 0.075
0.003 -0.003 0.073
0.019 -0.013 0.067
0.017 -0.017 0.073
0.015 -0.015 0.083
0.017 -0.021 0.083
0.015 -0.019 0.087
0.017 -0.021 0.085
0.017 -0.019 0.095
0.009 -0.003 0.089
0.009 -0.005 0.089
0.021 -0.023 0.075
0.025 -0.031 0.089
0.023 -0.029 0.089
0.019 -0.027 0.095
0.021 -0.023 0.093
0.019 -0.025 0.097
0.017 -0.019 0.101
0.027 -0.041 0.101
0.033 -0.037 0.107
0.023 -0.033 0.099
0.013 -0.013 0.107
0.019 -0.005 0.107
0.021 -0.005 0.109
0.025 -0.029 0.101
0.023 -0.025 0.105
0.031 -0.029 0.105
0.017 -0.019 0.103
0.017 -0.015 0.107
0.013 -0.013 0.107
-0.035 0.017 0.033
-0.033 0.015 0.033
-0.037 0.019 0.035
-0.041 0.023 0.041
-0.041 0.027 0.047
-0.037 0.021 0.053
-0.037 0.031 0.061
-0.021 0.001 0.033
-0.019 0.001 0.037
-0.021 0.007 0.035
-0.031 0.011 0.041
-0.031 0.007 0.049
-0.031 0.007 0.049
-0.017 0.001 0.037
-0.025 0.003 0.039
-0.039 0.019 0.049
-0.041 0.025 0.051
-0.019 0.023 0.047
-0.017 0.023 0.051
-0.017 0.023 0.053
-0.029 0.003 0.055
-0.029 0.005 0.059
-0.025 0.007 0.063
-0.015 0.005 0.051
-0.025 0.007 0.063
-0.025 0.007 0.063
-0.025 0.009 0.065
-0.017 0.025 0.053
-0.017 0.023 0.053
-0.017 0.025 0.055
-0.019 0.027 0.057
-0.035 0.029 0.063
-0.033 0.033 0.065
-0.005 0.011 0.073
-0.005 0.007 0.075
-0.023 0.013 0.067
-0.017 0.017 0.071
-0.013 0.015 0.077
-0.019 0.021 0.079
-0.015 0.015 0.081
-0.005 0.007 0.083
-0.013 0.021 0.089
-0.035 0.043 0.075
-0.033 0.033 0.067
-0.029 0.037 0.077
-0.021 0.025 0.079
-0.033 0.037 0.083
-0.033 0.037 0.085
0.003 -0.001 0.043
0.003 0.005 0.051
0.001 -0.003 0.051
0.001 -0.001 0.051
-0.001 -0.001 0.057
-0.001 -0.001 0.057
0.003 -0.007 0.057
-0.017 0.017 0.047
-0.015 0.019 0.051
-0.021 0.007 0.061
0.001 0.007 0.059
-0.025 0.011 0.065
-0.017 0.019 0.059
0.013 0.001 0.079
-0.003 0.005 0.081
-0.007 0.009 0.077
-0.009 0.011 0.083
-0.007 0.009 0.083
0.005 0.005 0.085
0.001 0.005 0.087
0.001 0.005 0.087
-0.003 0.007 0.087
0.007 0.009 0.091
-0.001 0.013 0.091
0.009 -0.003 0.095
0.009 -0.001 0.101
-0.003 0.017 0.093
0.009 -0.003 0.101
0.027 0.005 0.101
0.027 0.007 0.101
