0.015 -0.039 0.031
0.009 -0.039 0.033
0.013 -0.041 0.041
0.015 -0.035 0.045
0.033 -0.037 0.049
0.019 -0.037 0.039
0.023 -0.037 0.041
0.041 -0.025 0.049
0.017 -0.033 0.053
0.027 -0.037 0.059
0.021 -0.031 0.063
0.037 -0.035 0.057
0.029 -0.037 0.059
0.043 -0.017 0.051
0.027 -0.033 0.065
0.031 -0.025 0.075
0.029 -0.033 0.065
0.033 -0.025 0.073
0.031 -0.011 0.079
0.039 -0.045 0.093
0.037 -0.027 0.087
0.041 -0.045 0.085
0.043 -0.045 0.083
0.043 -0.043 0.087
0.037 -0.019 0.085
0.037 -0.039 0.099
0.039 -0.039 0.099
0.027 -0.011 0.107
0.033 -0.037 0.039
0.015 -0.039 0.041
0.017 -0.039 0.041
0.007 -0.031 0.047
-0.017 0.011 0.063
0.017 -0.039 0.039
0.029 -0.039 0.047
0.039 -0.031 0.039
-0.023 0.005 0.061
-0.003 0.003 0.075
0.037 -0.041 0.083
0.039 -0.029 0.085
0.035 -0.029 0.069
0.037 -0.021 0.067
0.035 -0.015 0.073
0.031 -0.011 0.079
0.035 -0.007 0.097
-0.013 -0.009 0.035
-0.011 -0.007 0.035
0.009 -0.035 0.045
0.035 -0.031 0.103
0.023 -0.025 0.105
0.025 -0.017 0.105
0.037 -0.041 0.105
0.017 -0.039 0.041
0.029 -0.041 0.103
0.025 -0.037 0.101
0.019 -0.025 0.099
0.023 -0.035 0.099
0.027 -0.017 0.105
0.045 -0.023 0.041
0.045 -0.017 0.039
0.041 -0.027 0.097
0.031 -0.049 0.087
0.037 -0.047 0.093
0.043 -0.037 0.103
0.033 -0.033 0.105
0.015 -0.013 0.107
0.023 -0.011 0.111
0.023 -0.009 0.113
0.023 -0.033 0.099
0.015 -0.007 0.103
0.025 -0.007 0.115
0.033 -0.007 0.105
0.043 -0.035 0.101
0.043 -0.037 0.103
0.025 -0.005 0.113
0.035 -0.029 0.101
-0.037 0.023 0.057
-0.039 0.025 0.057
-0.021 0.003 0.045
-0.019 0.007 0.053
-0.019 0.009 0.065
-0.017 0.011 0.051
0.009 0.001 0.103
-0.001 0.005 0.085
0.001 0.027 0.089
-0.011 0.027 0.093
-0.011 0.029 0.093
-0.017 0.031 0.089
-0.003 0.029 0.089
-0.017 0.031 0.089
0.013 0.001 0.081
0.013 -0.001 0.095
0.019 0.009 0.067
0.023 -0.003 0.109
0.017 0.009 0.075
0.015 -0.003 0.097
0.005 0.009 0.091
0.015 0.009 0.113
0.003 0.027 0.049
0.009 0.011 0.051
0.033 -0.001 0.039
0.033 -0.003 0.043
0.013 0.005 0.039
0.009 0.005 0.043
0.011 0.009 0.049
0.021 -0.001 0.061
0.039 -0.011 0.053
0.043 -0.015 0.051
0.039 -0.025 0.085
0.023 -0.001 0.077
0.013 0.017 0.071
0.015 0.015 0.069
0.019 0.009 0.067
0.019 0.009 0.067
0.019 0.005 0.069
0.017 0.011 0.071
0.019 0.001 0.081
0.021 -0.001 0.077
0.025 0.005 0.093
0.011 -0.001 0.087
0.019 0.003 0.091
0.035 -0.019 0.071
0.035 -0.011 0.091
0.027 -0.007 0.105
-0.015 0.031 0.043
-0.011 0.031 0.047
-0.017 0.033 0.063
-0.003 0.031 0.057
-0.029 0.031 0.049
-0.027 0.029 0.055
-0.017 0.029 0.057
-0.023 0.033 0.063
-0.017 0.031 0.061
-0.013 0.033 0.059
-0.025 0.033 0.039
-0.007 0.033 0.041
-0.029 0.035 0.055
-0.007 0.035 0.077
-0.001 0.029 0.073
-0.019 0.035 0.073
-0.013 0.035 0.083
0.005 0.023 0.047
0.007 0.027 0.045
0.015 0.009 0.049
0.025 0.005 0.053
0.019 0.001 0.067
0.005 0.019 0.091
0.021 0.001 0.083
0.027 0.007 0.093
0.047 -0.015 0.039
0.041 -0.019 0.053
0.043 -0.027 0.039
0.039 -0.031 0.039
0.039 -0.033 0.057
0.029 0.005 0.037
0.023 -0.011 0.055
0.037 -0.017 0.063
0.019 -0.005 0.063
0.033 -0.007 0.049
0.049 -0.015 0.037
0.039 -0.009 0.035
0.041 -0.021 0.055
0.041 -0.035 0.087
0.035 -0.017 0.071
0.031 -0.009 0.075
0.031 -0.011 0.081
0.031 -0.009 0.069
0.029 -0.007 0.071
0.029 -0.005 0.073
0.037 -0.013 0.097
0.037 -0.015 0.093
0.025 -0.001 0.081
0.033 -0.005 0.087
0.037 -0.019 0.081
0.035 -0.031 0.089
-0.003 0.019 0.031
0.001 0.013 0.053
0.003 0.013 0.043
-0.003 0.031 0.053
-0.019 0.035 0.037
0.001 0.035 0.039
0.005 0.021 0.089
-0.011 0.035 0.067
-0.007 0.035 0.077
-0.025 0.039 0.085
0.033 0.001 0.031
0.029 0.003 0.039
0.005 0.023 0.047
0.009 0.031 0.041
0.017 0.009 0.051
0.015 0.013 0.059
0.015 0.015 0.071
0.013 0.011 0.081
0.003 0.027 0.085
0.017 0.009 0.109
0.041 -0.023 0.045
0.041 -0.031 0.047
0.033 -0.001 0.031
0.023 -0.037 0.047
0.039 -0.033 0.045
0.041 -0.025 0.043
0.021 -0.003 0.059
0.049 -0.025 0.035
0.051 -0.021 0.037
0.041 -0.013 0.043
0.039 -0.031 0.063
0.039 -0.049 0.091
0.033 -0.029 0.071
0.027 -0.021 0.079
0.041 -0.025 0.095
0.035 -0.013 0.091
0.035 -0.015 0.065
0.043 -0.037 0.097
0.043 -0.031 0.097
0.037 -0.025 0.103
0.037 -0.021 0.099
0.001 0.021 0.035
0.041 -0.017 0.045
0.043 -0.017 0.041
0.041 -0.015 0.045
0.045 -0.021 0.041
0.043 -0.017 0.051
0.039 -0.021 0.043
0.035 -0.003 0.039
0.029 0.001 0.043
0.005 0.019 0.043
0.001 0.023 0.035
0.003 0.027 0.051
0.019 0.009 0.065
0.019 0.005 0.067
0.015 0.005 0.077
0.027 -0.001 0.081
0.015 0.015 0.075
0.015 0.013 0.077
0.039 -0.009 0.043
0.007 0.027 0.039
0.021 0.005 0.059
0.003 0.023 0.059
0.007 0.031 0.037
0.019 0.007 0.067
0.019 0.007 0.067
0.017 0.013 0.065
0.013 0.017 0.077
0.011 0.019 0.077
0.031 0.003 0.089
-0.023 0.005 0.061
-0.009 0.013 0.089
0.017 -0.021 0.095
-0.001 -0.001 0.065
-0.003 0.003 0.077
0.017 -0.023 0.057
-0.001 -0.001 0.059
0.007 -0.001 0.095
0.013 0.001 0.081
0.011 0.005 0.087
0.009 0.001 0.095
0.011 -0.007 0.101
0.027 -0.045 0.085
0.025 -0.035 0.087
0.015 -0.015 0.077
0.013 -0.013 0.089
0.009 -0.001 0.103
0.021 -0.011 0.105
0.031 -0.023 0.105
0.021 -0.005 0.109
0.017 -0.019 0.101
0.025 -0.019 0.105
0.023 -0.007 0.115
0.013 -0.003 0.101
0.019 0.001 0.111
0.023 -0.009 0.113
-0.037 0.019 0.051
-0.015 0.017 0.049
-0.041 0.025 0.045
-0.031 0.021 0.053
-0.027 0.011 0.061
-0.031 0.027 0.065
-0.019 0.017 0.047
-0.017 0.021 0.049
-0.037 0.033 0.057
-0.037 0.039 0.087
-0.013 0.019 0.089
-0.029 0.035 0.087
-0.011 0.013 0.087
-0.011 0.023 0.091
-0.037 0.039 0.087
-0.037 0.041 0.087
-0.027 0.033 0.087
-0.007 0.021 0.093
-0.011 0.019 0.091
-0.005 0.021 0.095
-0.019 0.031 0.083
-0.015 0.033 0.085
-0.013 0.035 0.083
-0.011 0.021 0.091
-0.001 0.021 0.095
0.001 0.025 0.091
0.005 -0.029 0.037
-0.003 -0.015 0.041
-0.003 -0.013 0.043
0.009 -0.039 0.045
0.007 -0.037 0.039
0.005 -0.013 0.051
0.001 -0.009 0.051
0.005 -0.007 0.063
0.019 -0.013 0.057
0.021 -0.015 0.057
0.007 -0.007 0.065
0.011 -0.029 0.053
0.019 -0.021 0.063
0.019 -0.019 0.059
0.025 -0.041 0.085
0.019 -0.023 0.067
0.001 -0.001 0.077
0.009 -0.003 0.075
0.017 -0.011 0.073
0.019 -0.019 0.081
0.019 -0.025 0.097
0.031 -0.043 0.105
0.013 -0.011 0.103
0.015 -0.015 0.105
0.021 -0.007 0.109
-0.025 0.009 0.037
-0.035 0.013 0.043
-0.035 0.017 0.049
-0.025 0.003 0.035
-0.023 0.003 0.045
-0.029 0.003 0.051
-0.015 0.003 0.047
-0.039 0.017 0.039
-0.023 0.015 0.045
-0.039 0.019 0.047
-0.033 0.015 0.047
-0.023 0.005 0.061
-0.031 0.027 0.063
-0.019 0.021 0.061
-0.037 0.033 0.055
-0.039 0.031 0.057
-0.041 0.023 0.049
-0.037 0.019 0.051
-0.031 0.029 0.067
-0.019 0.019 0.071
-0.019 0.021 0.071
-0.019 0.021 0.073
-0.009 0.015 0.075
-0.003 0.011 0.091
-0.017 0.017 0.081
-0.035 0.043 0.077
-0.027 0.035 0.073
-0.029 0.037 0.073
-0.021 0.025 0.073
-0.027 0.033 0.081
0.001 0.007 0.059
0.003 -0.005 0.065
0.005 -0.005 0.069
-0.017 0.023 0.049
-0.003 0.005 0.075
-0.013 0.017 0.089
-0.011 0.021 0.091
-0.015 -0.007 0.037
-0.003 -0.013 0.033
0.007 -0.039 0.039
0.003 -0.027 0.041
0.017 -0.033 0.055
0.007 -0.017 0.049
0.011 -0.019 0.053
0.005 -0.025 0.043
0.005 -0.019 0.045
0.007 -0.011 0.055
0.035 -0.047 0.091
0.025 -0.039 0.085
0.033 -0.041 0.091
0.003 -0.005 0.067
0.017 -0.019 0.083
0.015 -0.017 0.089
0.009 -0.001 0.089
0.023 -0.031 0.099
0.019 -0.005 0.109
0.017 -0.019 0.103
0.013 -0.009 0.097
-0.033 0.015 0.033
-0.035 0.017 0.033
-0.037 0.023 0.035
-0.039 0.019 0.037
-0.039 0.029 0.043
-0.041 0.025 0.051
-0.027 0.011 0.049
-0.033 0.017 0.049
-0.023 0.003 0.037
-0.025 0.011 0.045
-0.041 0.025 0.049
-0.041 0.023 0.049
-0.041 0.025 0.049
-0.037 0.033 0.049
-0.031 0.007 0.053
-0.041 0.027 0.053
-0.029 0.033 0.037
-0.033 0.035 0.063
-0.009 0.013 0.077
-0.029 0.027 0.065
-0.011 0.025 0.093
-0.011 0.025 0.093
-0.025 0.011 0.047
-0.029 0.011 0.053
-0.013 0.013 0.051
-0.011 0.033 0.043
-0.007 0.009 0.085
-0.003 0.005 0.083
0.017 0.001 0.087
0.025 0.005 0.093
-0.009 0.021 0.091
0.007 -0.037 0.037
0.019 -0.037 0.033
0.031 -0.037 0.059
0.009 -0.031 0.047
0.025 -0.035 0.035
0.005 -0.033 0.037
0.009 -0.017 0.053
0.001 -0.011 0.049
0.029 -0.037 0.039
0.029 -0.037 0.053
0.027 -0.047 0.085
0.017 -0.019 0.077
0.015 -0.019 0.087
0.019 -0.027 0.089
0.025 -0.041 0.085
0.031 -0.023 0.091
0.027 -0.039 0.095
0.025 -0.041 0.085
0.029 -0.025 0.091
0.033 -0.043 0.105
0.011 -0.007 0.103
0.015 -0.011 0.109
0.023 -0.011 0.111
0.029 -0.043 0.103
0.027 -0.041 0.101
-0.017 0.003 0.039
-0.025 0.009 0.035
-0.023 0.003 0.041
-0.029 0.011 0.041
-0.031 0.013 0.045
-0.021 0.003 0.037
-0.015 0.005 0.039
-0.023 0.005 0.055
-0.027 0.003 0.053
-0.023 0.007 0.061
-0.015 0.005 0.051
-0.015 0.017 0.055
-0.039 0.025 0.055
-0.031 0.013 0.043
-0.021 0.011 0.069
-0.005 0.005 0.077
-0.009 0.011 0.079
-0.011 0.017 0.073
-0.003 0.017 0.093
-0.031 0.033 0.069
-0.007 0.009 0.079
0.003 -0.013 0.049
0.001 -0.005 0.057
0.015 -0.007 0.061
-0.005 0.007 0.039
0.015 -0.003 0.071
-0.001 0.001 0.073
0.021 -0.023 0.093
0.023 -0.027 0.101
-0.003 -0.015 0.041
-0.001 -0.015 0.041
-0.003 -0.013 0.043
0.019 -0.027 0.031
0.031 -0.027 0.031
0.015 -0.041 0.035
0.015 -0.041 0.037
0.013 -0.041 0.039
0.033 -0.031 0.033
0.021 -0.033 0.057
0.017 -0.027 0.059
0.041 -0.031 0.053
0.041 -0.031 0.055
0.037 -0.035 0.051
0.041 -0.039 0.081
0.041 -0.045 0.085
0.041 -0.045 0.087
0.039 -0.045 0.089
0.023 -0.029 0.069
0.021 -0.025 0.073
0.023 -0.033 0.095
0.021 -0.021 0.079
0.027 -0.047 0.085
0.039 -0.047 0.087
0.023 -0.037 0.097
0.029 -0.043 0.103
0.011 -0.009 0.101
0.013 -0.013 0.099
0.029 -0.035 0.095
0.033 -0.043 0.105
-0.021 0.003 0.039
-0.027 0.003 0.043
-0.019 0.005 0.045
-0.011 -0.005 0.035
0.011 -0.037 0.045
0.003 -0.003 0.069
-0.025 0.009 0.065
0.003 -0.003 0.071
-0.007 0.009 0.087
-0.029 0.035 0.079
0.019 -0.037 0.041
0.017 -0.037 0.043
0.025 -0.037 0.053
0.007 -0.007 0.061
0.033 -0.049 0.087
0.037 -0.047 0.085
0.035 -0.047 0.089
