0.021 -0.001 0.077
0.017 0.003 0.069
0.029 0.007 0.097
0.017 0.005 0.075
0.043 -0.017 0.051
0.035 -0.005 0.045
0.039 -0.023 0.103
0.035 -0.007 0.093
0.035 -0.009 0.103
0.037 -0.013 0.099
0.023 -0.001 0.099
0.025 -0.005 0.109
0.033 -0.003 0.109
0.037 -0.011 0.095
0.035 -0.035 0.107
0.041 -0.027 0.097
-0.009 0.035 0.061
-0.015 0.033 0.087
-0.001 0.027 0.089
-0.025 0.039 0.069
0.029 0.005 0.033
0.017 0.011 0.055
0.001 0.029 0.085
0.031 -0.037 0.039
0.005 -0.025 0.037
0.015 -0.019 0.055
0.013 -0.009 0.059
0.019 -0.025 0.069
0.033 -0.035 0.063
0.031 -0.041 0.089
0.015 -0.019 0.085
0.029 -0.033 0.089
0.023 -0.035 0.099
0.013 -0.013 0.099
0.023 -0.011 0.111
0.027 -0.041 0.101
0.023 -0.029 0.103
-0.041 0.025 0.051
-0.025 0.005 0.035
-0.031 0.015 0.047
-0.001 -0.001 0.063
-0.001 0.011 0.091
-0.019 0.021 0.081
-0.027 0.033 0.085
0.003 -0.017 0.043
-0.005 0.005 0.043
-0.001 -0.001 0.061
-0.001 -0.001 0.067
-0.009 0.013 0.059
-0.005 0.013 0.059
0.013 -0.005 0.069
0.011 0.003 0.085
0.027 -0.029 0.031
0.029 -0.033 0.033
0.021 -0.037 0.043
0.023 -0.037 0.053
0.031 -0.039 0.049
0.019 -0.037 0.039
0.021 -0.037 0.045
0.025 -0.035 0.059
0.027 -0.037 0.055
0.039 -0.025 0.061
0.049 -0.027 0.035
0.025 -0.029 0.071
0.027 -0.029 0.071
0.027 -0.029 0.073
0.033 -0.015 0.075
0.043 -0.039 0.083
0.041 -0.045 0.087
0.041 -0.043 0.089
0.033 -0.007 0.091
0.035 -0.043 0.103
0.043 -0.039 0.103
0.037 -0.039 0.099
0.045 -0.039 0.101
0.039 -0.037 0.095
0.035 -0.007 0.103
-0.023 0.003 0.047
-0.023 0.003 0.047
0.033 -0.037 0.043
0.037 -0.033 0.039
0.029 -0.033 0.065
0.031 -0.033 0.067
0.025 -0.023 0.077
0.043 -0.045 0.085
0.021 -0.019 0.081
0.041 -0.015 0.043
0.037 -0.029 0.067
0.025 -0.023 0.077
-0.003 -0.017 0.037
0.009 -0.033 0.045
0.025 -0.039 0.101
0.019 -0.019 0.103
0.017 -0.023 0.097
0.023 -0.033 0.099
0.019 -0.017 0.105
0.041 -0.017 0.055
0.029 -0.041 0.103
0.043 -0.035 0.101
0.025 -0.023 0.105
0.031 -0.025 0.105
0.021 -0.013 0.105
0.027 -0.009 0.111
0.017 -0.007 0.101
0.033 -0.007 0.105
0.037 -0.041 0.105
0.031 -0.029 0.105
0.013 -0.013 0.107
0.035 -0.019 0.103
-0.011 0.003 0.041
-0.011 0.005 0.049
-0.029 0.003 0.055
-0.003 0.017 0.093
-0.031 0.031 0.067
-0.017 0.023 0.087
-0.001 0.025 0.091
-0.025 0.035 0.087
0.017 0.003 0.111
-0.005 -0.013 0.035
-0.031 0.005 0.051
0.005 -0.019 0.045
0.001 -0.007 0.049
0.001 -0.007 0.047
-0.001 0.007 0.065
0.019 -0.029 0.061
0.003 -0.007 0.061
0.021 -0.017 0.059
0.003 -0.005 0.063
-0.001 0.001 0.069
-0.003 0.005 0.069
0.021 -0.031 0.097
0.023 -0.027 0.073
0.001 -0.001 0.075
0.015 -0.015 0.083
0.017 0.001 0.089
0.019 0.001 0.097
0.017 -0.017 0.105
0.023 -0.023 0.105
0.021 -0.009 0.109
-0.029 0.033 0.037
-0.035 0.033 0.047
-0.029 0.033 0.035
-0.037 0.033 0.049
-0.039 0.027 0.057
-0.037 0.033 0.055
-0.013 0.015 0.083
-0.011 0.013 0.087
-0.029 0.035 0.077
-0.031 0.033 0.069
-0.019 0.013 0.073
-0.019 0.021 0.081
-0.015 0.017 0.083
-0.017 0.019 0.085
0.019 0.001 0.097
0.013 0.011 0.113
0.033 0.001 0.037
0.029 -0.013 0.057
0.015 0.007 0.045
0.023 -0.011 0.057
0.023 -0.005 0.055
0.039 -0.021 0.061
0.013 -0.001 0.095
0.037 -0.011 0.095
0.033 -0.003 0.103
-0.013 0.035 0.035
-0.015 0.035 0.065
-0.007 0.031 0.055
-0.023 0.035 0.063
-0.001 0.027 0.075
-0.007 0.027 0.093
-0.009 0.031 0.089
-0.033 0.043 0.085
-0.005 0.033 0.067
0.005 0.033 0.039
0.015 0.011 0.051
0.007 0.015 0.061
0.003 0.023 0.059
0.011 0.013 0.087
0.017 0.005 0.107
0.011 0.007 0.043
0.011 0.007 0.045
0.043 -0.013 0.039
0.041 -0.015 0.053
0.043 -0.015 0.041
0.039 -0.009 0.043
0.033 -0.015 0.057
0.039 -0.029 0.041
0.041 -0.021 0.047
0.041 -0.011 0.037
0.041 -0.035 0.089
0.033 -0.023 0.075
0.017 0.003 0.073
0.015 0.005 0.077
0.037 -0.021 0.085
0.037 -0.013 0.093
0.037 -0.011 0.095
0.029 0.005 0.093
0.041 -0.023 0.093
0.043 -0.037 0.103
0.039 -0.021 0.101
0.033 -0.005 0.107
0.025 -0.007 0.113
0.039 -0.023 0.103
-0.015 0.035 0.033
0.007 0.029 0.043
0.005 0.023 0.051
-0.005 0.033 0.049
0.001 0.017 0.059
0.001 0.029 0.059
-0.011 0.037 0.073
0.007 0.023 0.083
-0.001 0.027 0.089
-0.007 0.035 0.073
0.029 0.001 0.043
0.015 0.015 0.073
0.041 -0.025 0.045
0.009 -0.039 0.045
0.037 -0.035 0.045
0.037 -0.035 0.059
0.037 -0.035 0.057
0.041 -0.021 0.051
0.041 -0.021 0.049
0.039 -0.009 0.037
0.037 -0.031 0.065
0.037 -0.031 0.065
0.037 -0.029 0.035
0.043 -0.019 0.041
0.051 -0.017 0.037
0.031 -0.003 0.085
0.039 -0.021 0.095
0.009 0.023 0.043
0.025 -0.001 0.051
0.005 0.017 0.047
0.003 0.017 0.055
0.021 -0.003 0.071
0.019 0.007 0.065
0.005 0.015 0.091
0.033 0.001 0.035
0.009 0.029 0.037
0.017 0.011 0.071
0.005 0.021 0.089
0.019 0.007 0.111
0.041 -0.027 0.045
0.037 -0.035 0.043
0.039 -0.023 0.043
0.049 -0.025 0.035
0.039 -0.049 0.091
0.027 -0.003 0.077
0.043 -0.033 0.095
0.033 -0.009 0.085
0.035 -0.013 0.087
0.035 -0.007 0.099
0.041 -0.013 0.053
0.039 -0.011 0.053
0.005 0.023 0.051
0.005 0.021 0.053
0.021 0.007 0.059
0.009 0.029 0.039
-0.001 0.029 0.073
0.033 -0.007 0.087
-0.003 0.031 0.069
0.019 -0.005 0.061
0.009 0.029 0.041
0.019 0.005 0.067
0.019 0.001 0.067
0.019 0.005 0.067
0.033 -0.005 0.091
-0.005 -0.017 0.035
-0.003 -0.013 0.043
-0.001 -0.001 0.061
0.015 -0.019 0.091
0.001 -0.007 0.043
-0.001 -0.011 0.047
-0.003 0.009 0.089
0.005 -0.007 0.063
0.015 -0.015 0.083
-0.003 0.017 0.093
0.009 -0.001 0.103
0.021 -0.033 0.097
0.015 -0.017 0.087
0.011 -0.007 0.085
0.019 -0.007 0.069
0.009 0.001 0.095
0.015 -0.019 0.091
0.015 -0.017 0.089
0.017 0.001 0.087
0.015 -0.017 0.097
0.011 -0.003 0.103
0.023 -0.017 0.105
0.033 -0.017 0.105
-0.039 0.031 0.053
-0.037 0.033 0.051
-0.025 0.013 0.063
-0.021 0.037 0.081
-0.013 0.015 0.085
-0.015 0.031 0.089
-0.005 0.015 0.091
-0.013 0.037 0.071
-0.017 0.033 0.085
-0.003 0.025 0.091
0.001 0.019 0.095
0.005 -0.031 0.045
0.025 -0.037 0.051
0.011 -0.043 0.043
0.031 -0.037 0.043
0.021 -0.035 0.047
0.039 -0.029 0.059
0.037 -0.033 0.039
0.041 -0.017 0.053
0.039 -0.049 0.093
0.033 -0.049 0.087
0.027 -0.039 0.095
0.029 -0.043 0.103
0.043 -0.041 0.101
0.039 -0.019 0.101
0.003 -0.013 0.047
-0.027 0.003 0.053
-0.029 0.003 0.055
0.021 -0.031 0.063
-0.017 0.007 0.053
-0.025 0.003 0.055
0.005 -0.009 0.057
-0.021 0.009 0.065
-0.001 0.007 0.089
0.039 -0.031 0.059
0.033 -0.031 0.069
0.035 -0.027 0.071
0.025 -0.007 0.115
0.017 -0.033 0.047
0.027 -0.035 0.061
0.009 -0.027 0.047
0.017 -0.023 0.059
0.013 -0.009 0.059
0.027 -0.041 0.087
0.017 -0.005 0.077
0.017 -0.021 0.087
0.015 -0.017 0.087
0.025 -0.039 0.101
0.023 -0.031 0.099
0.023 -0.007 0.113
-0.011 0.003 0.043
-0.029 0.003 0.055
-0.021 0.023 0.069
-0.037 0.031 0.061
-0.019 0.021 0.073
-0.021 0.029 0.077
-0.029 0.035 0.083
0.001 -0.007 0.053
0.001 -0.003 0.053
0.001 -0.003 0.063
-0.021 0.011 0.069
0.001 0.001 0.079
0.005 -0.029 0.039
0.003 -0.021 0.041
-0.017 -0.005 0.037
-0.005 -0.011 0.037
0.001 -0.013 0.049
0.015 -0.023 0.055
0.003 -0.013 0.051
0.003 -0.019 0.043
0.003 -0.017 0.043
-0.001 -0.011 0.047
0.019 -0.023 0.065
0.017 -0.023 0.085
0.007 -0.001 0.095
0.017 -0.019 0.083
0.031 -0.043 0.105
0.029 -0.041 0.103
0.015 -0.013 0.105
-0.033 0.027 0.035
-0.025 0.009 0.043
-0.025 0.009 0.041
-0.027 0.003 0.043
-0.023 0.011 0.053
-0.037 0.033 0.059
-0.019 0.027 0.081
-0.027 0.033 0.085
-0.011 0.019 0.091
-0.003 0.019 0.095
-0.027 0.033 0.073
-0.031 0.009 0.049
-0.027 0.011 0.049
-0.025 0.011 0.065
-0.025 0.011 0.065
-0.021 0.009 0.067
-0.005 0.009 0.073
0.019 0.001 0.087
-0.037 0.023 0.057
-0.021 0.013 0.069
-0.035 0.045 0.081
-0.007 0.033 0.085
0.015 -0.017 0.101
0.019 -0.023 0.073
0.009 -0.003 0.091
0.017 0.001 0.089
0.015 0.013 0.113
-0.041 0.029 0.047
-0.029 0.035 0.055
-0.019 0.035 0.033
-0.039 0.027 0.057
-0.033 0.035 0.065
-0.017 0.009 0.053
-0.035 0.035 0.061
-0.015 0.027 0.045
-0.025 0.013 0.063
-0.021 0.013 0.065
-0.031 0.035 0.067
-0.027 0.041 0.081
-0.001 0.033 0.041
-0.007 0.031 0.089
-0.015 -0.003 0.037
0.029 -0.039 0.049
0.037 -0.033 0.063
0.005 -0.033 0.043
0.017 -0.009 0.059
0.037 -0.035 0.045
0.027 -0.037 0.045
0.031 -0.039 0.049
0.031 -0.037 0.059
0.029 -0.025 0.075
0.019 -0.027 0.067
0.025 -0.031 0.069
0.017 -0.019 0.075
0.021 -0.031 0.087
0.017 -0.019 0.093
0.037 -0.031 0.065
0.025 -0.039 0.085
0.043 -0.041 0.103
-0.039 0.017 0.043
-0.035 0.025 0.061
-0.029 0.005 0.045
-0.015 0.003 0.047
-0.007 0.005 0.045
-0.005 0.007 0.047
-0.017 -0.003 0.037
-0.011 0.007 0.049
-0.015 0.017 0.059
-0.019 0.011 0.071
-0.021 0.023 0.073
-0.003 0.005 0.081
-0.015 0.017 0.071
0.001 -0.001 0.049
-0.003 0.009 0.049
0.005 -0.007 0.063
0.017 -0.035 0.045
0.001 -0.023 0.039
0.011 -0.037 0.045
0.025 -0.035 0.035
0.013 -0.031 0.053
0.033 -0.037 0.051
0.031 -0.037 0.051
0.041 -0.027 0.041
0.041 -0.029 0.043
0.041 -0.031 0.055
0.039 -0.031 0.059
0.041 -0.031 0.049
0.031 -0.019 0.079
0.023 -0.033 0.095
0.021 -0.033 0.085
0.039 -0.027 0.065
0.029 -0.043 0.103
0.039 -0.039 0.101
-0.025 0.003 0.039
-0.037 0.015 0.041
-0.023 0.003 0.033
-0.021 0.001 0.035
-0.011 -0.003 0.039
-0.011 0.013 0.055
-0.023 0.005 0.059
0.009 -0.027 0.051
-0.019 0.009 0.061
-0.017 0.013 0.073
-0.007 0.017 0.065
-0.029 0.029 0.069
0.017 -0.033 0.047
0.021 -0.035 0.041
0.005 -0.005 0.067
0.025 -0.031 0.069
0.017 -0.017 0.081
0.037 -0.047 0.085
-0.025 0.005 0.041
0.019 -0.023 0.063
-0.035 0.015 0.047
0.007 -0.025 0.049
-0.021 0.013 0.067
0.025 -0.037 0.095
-0.021 0.023 0.079
0.011 -0.011 0.091
-0.041 0.021 0.049
-0.037 0.015 0.039
-0.009 0.035 0.039
-0.031 0.037 0.063
-0.037 0.033 0.057
-0.013 0.029 0.055
-0.029 0.037 0.067
-0.029 0.033 0.039
-0.003 0.035 0.037
-0.031 0.037 0.059
-0.031 0.037 0.063
-0.017 0.017 0.081
-0.021 0.023 0.079
-0.021 0.025 0.071
-0.009 0.035 0.079
-0.013 0.015 0.083
-0.019 0.023 0.083
-0.033 0.043 0.077
-0.035 0.039 0.085
-0.011 0.029 0.047
-0.033 0.035 0.063
-0.011 0.025 0.093
-0.011 0.023 0.091
0.015 0.005 0.109
