-0.003 -0.019 0.031
-0.003 -0.017 0.037
-0.015 -0.007 0.033
-0.017 -0.003 0.037
-0.013 -0.007 0.037
-0.003 -0.013 0.043
-0.003 -0.011 0.043
-0.001 -0.001 0.061
0.005 -0.035 0.035
-0.001 -0.021 0.035
0.005 -0.031 0.039
0.003 -0.021 0.043
0.005 -0.033 0.039
0.009 -0.043 0.043
0.007 -0.037 0.043
0.013 -0.035 0.045
0.007 -0.039 0.043
0.007 -0.039 0.043
0.009 -0.039 0.045
0.017 -0.037 0.043
0.025 -0.037 0.049
0.023 -0.037 0.051
0.029 -0.037 0.055
0.021 -0.033 0.057
0.029 -0.039 0.047
0.003 -0.031 0.037
0.001 -0.023 0.039
-0.001 -0.021 0.037
0.005 -0.029 0.041
0.005 -0.027 0.045
0.003 -0.027 0.041
0.003 -0.023 0.041
-0.003 -0.013 0.039
-0.003 -0.013 0.041
-0.001 -0.007 0.041
0.001 -0.017 0.041
0.003 -0.013 0.045
-0.001 -0.011 0.047
-0.001 -0.013 0.045
0.007 -0.011 0.055
0.013 -0.029 0.055
0.017 -0.025 0.059
0.017 -0.021 0.057
0.007 -0.015 0.049
0.001 -0.013 0.049
0.007 -0.013 0.055
0.011 -0.011 0.057
0.003 -0.007 0.061
0.019 -0.013 0.057
0.021 -0.013 0.063
0.011 -0.037 0.045
0.013 -0.031 0.049
0.013 -0.031 0.051
0.007 -0.031 0.047
0.009 -0.025 0.051
0.013 -0.031 0.051
0.011 -0.029 0.053
0.005 -0.023 0.047
0.017 -0.015 0.055
0.011 -0.025 0.053
0.021 -0.031 0.061
0.021 -0.031 0.063
0.025 -0.033 0.063
0.019 -0.023 0.067
0.019 -0.017 0.057
0.027 -0.043 0.085
0.025 -0.037 0.087
0.027 -0.039 0.089
0.027 -0.045 0.085
0.033 -0.045 0.091
0.031 -0.043 0.091
0.033 -0.041 0.091
0.025 -0.039 0.099
0.019 -0.023 0.067
0.017 -0.021 0.069
0.021 -0.023 0.075
0.021 -0.023 0.075
0.005 -0.003 0.075
0.009 -0.003 0.075
0.019 -0.011 0.067
0.017 -0.015 0.071
0.017 -0.017 0.071
0.017 -0.015 0.073
0.015 -0.013 0.077
0.015 -0.013 0.079
0.015 -0.009 0.083
0.015 -0.011 0.083
0.021 -0.031 0.083
0.019 -0.029 0.085
0.017 -0.023 0.087
0.025 -0.033 0.089
0.019 -0.027 0.097
0.017 -0.021 0.091
0.017 -0.021 0.095
0.013 -0.011 0.085
0.013 -0.015 0.095
0.015 -0.017 0.083
0.013 -0.013 0.091
0.019 -0.023 0.083
0.017 -0.021 0.083
0.017 -0.021 0.095
0.017 -0.023 0.097
0.017 -0.023 0.097
0.021 -0.027 0.099
0.015 -0.017 0.093
0.017 -0.019 0.097
0.013 -0.015 0.095
0.017 -0.019 0.099
0.015 -0.015 0.099
0.029 -0.043 0.103
0.031 -0.037 0.103
0.029 -0.033 0.101
0.027 -0.041 0.101
0.025 -0.037 0.101
0.029 -0.041 0.103
0.027 -0.041 0.101
0.033 -0.037 0.107
0.021 -0.027 0.099
0.029 -0.029 0.103
0.017 -0.019 0.097
0.021 -0.021 0.105
0.011 -0.009 0.099
0.013 -0.013 0.101
0.013 -0.011 0.103
0.009 -0.005 0.101
0.011 -0.009 0.101
0.013 -0.011 0.103
0.021 -0.003 0.103
0.015 -0.009 0.107
0.015 -0.015 0.107
0.021 -0.009 0.109
0.029 -0.017 0.105
0.023 -0.011 0.109
0.019 -0.003 0.109
0.019 -0.003 0.109
0.023 -0.007 0.113
0.025 -0.029 0.101
0.015 -0.017 0.105
0.015 -0.015 0.107
0.011 -0.007 0.103
0.013 -0.011 0.109
0.015 -0.009 0.109
-0.033 0.017 0.031
-0.023 0.007 0.037
-0.025 0.005 0.039
-0.039 0.025 0.039
-0.039 0.017 0.039
-0.039 0.021 0.037
-0.041 0.019 0.043
-0.041 0.027 0.045
-0.035 0.031 0.063
-0.021 0.001 0.033
-0.025 0.005 0.035
-0.021 0.003 0.037
-0.025 0.005 0.039
-0.031 0.013 0.033
-0.031 0.011 0.039
-0.029 0.003 0.051
-0.027 0.011 0.041
-0.031 0.007 0.051
-0.025 0.003 0.041
-0.027 0.011 0.043
-0.015 0.003 0.043
-0.037 0.015 0.037
-0.029 0.013 0.045
-0.039 0.021 0.051
-0.019 0.017 0.047
-0.029 0.019 0.049
-0.023 0.021 0.047
-0.039 0.021 0.053
-0.041 0.025 0.051
-0.037 0.017 0.049
-0.017 0.021 0.049
-0.031 0.005 0.051
-0.027 0.003 0.055
-0.029 0.007 0.059
-0.029 0.005 0.061
-0.027 0.005 0.061
-0.027 0.011 0.061
-0.027 0.009 0.063
-0.029 0.009 0.061
-0.013 0.007 0.051
-0.003 0.013 0.055
-0.001 0.001 0.057
-0.019 0.011 0.069
-0.031 0.017 0.049
-0.037 0.023 0.057
-0.031 0.011 0.057
-0.017 0.023 0.055
-0.017 0.025 0.053
-0.019 0.027 0.059
-0.019 0.027 0.061
-0.041 0.025 0.045
-0.041 0.025 0.047
-0.041 0.023 0.049
-0.037 0.021 0.055
-0.035 0.021 0.055
-0.031 0.023 0.059
-0.035 0.029 0.063
-0.033 0.033 0.065
-0.033 0.033 0.065
-0.025 0.009 0.065
-0.021 0.011 0.069
-0.001 0.001 0.073
-0.009 0.011 0.079
-0.029 0.029 0.067
-0.019 0.019 0.075
-0.019 0.019 0.079
-0.021 0.029 0.079
-0.019 0.019 0.073
-0.019 0.021 0.073
-0.021 0.023 0.079
-0.019 0.021 0.081
-0.009 0.011 0.083
-0.003 0.009 0.089
-0.019 0.031 0.081
-0.017 0.021 0.087
-0.017 0.029 0.087
-0.007 0.017 0.091
-0.007 0.019 0.093
-0.037 0.043 0.081
-0.031 0.035 0.067
-0.027 0.033 0.079
-0.035 0.041 0.081
-0.033 0.037 0.081
-0.019 0.029 0.083
-0.019 0.027 0.083
-0.031 0.035 0.085
-0.031 0.035 0.087
-0.029 0.035 0.085
-0.031 0.035 0.087
-0.019 0.033 0.085
-0.019 0.033 0.083
-0.001 -0.007 0.043
0.003 0.001 0.043
0.003 0.003 0.047
0.005 0.005 0.047
0.001 -0.003 0.047
0.001 -0.003 0.049
0.001 -0.003 0.057
-0.029 0.009 0.059
-0.029 0.011 0.059
0.001 0.001 0.051
0.001 0.007 0.057
-0.005 0.011 0.055
-0.001 0.009 0.067
0.003 -0.005 0.067
0.003 -0.005 0.067
-0.001 0.003 0.065
-0.017 0.019 0.057
-0.017 0.017 0.061
-0.033 0.019 0.053
-0.033 0.019 0.053
-0.037 0.021 0.055
-0.005 0.009 0.073
0.001 -0.001 0.075
0.005 -0.001 0.079
-0.003 0.005 0.079
-0.009 0.013 0.077
-0.007 0.011 0.077
0.007 0.001 0.081
0.009 0.003 0.083
-0.013 0.015 0.087
-0.009 0.013 0.089
-0.011 0.019 0.091
0.015 0.005 0.109
0.017 0.001 0.107
0.015 0.009 0.113
0.005 0.023 0.051
0.005 0.017 0.049
0.017 0.011 0.055
0.015 0.015 0.075
0.013 0.015 0.081
0.029 -0.005 0.049
0.031 -0.007 0.049
0.037 -0.007 0.041
0.033 -0.001 0.039
0.031 -0.013 0.055
0.035 -0.013 0.055
0.031 -0.011 0.053
0.035 -0.015 0.059
0.035 -0.013 0.055
0.035 -0.015 0.059
0.035 -0.015 0.061
0.033 -0.013 0.065
0.035 -0.015 0.065
0.041 -0.025 0.059
0.043 -0.019 0.049
0.039 -0.025 0.065
0.025 -0.007 0.053
0.029 -0.007 0.051
0.021 -0.003 0.059
0.031 -0.013 0.059
0.023 0.007 0.045
0.015 0.011 0.055
0.031 -0.007 0.047
0.029 -0.005 0.047
0.035 -0.017 0.071
0.029 -0.009 0.067
0.019 0.001 0.067
0.025 -0.009 0.053
0.023 -0.007 0.055
0.023 -0.005 0.055
0.021 -0.005 0.059
0.029 -0.009 0.065
0.021 -0.001 0.061
0.043 -0.017 0.041
0.047 -0.015 0.039
0.049 -0.019 0.039
0.039 -0.009 0.039
0.041 -0.011 0.039
0.037 -0.007 0.041
0.041 -0.013 0.047
0.041 -0.015 0.047
0.037 -0.007 0.043
0.041 -0.027 0.057
0.041 -0.029 0.051
0.041 -0.025 0.051
0.039 -0.027 0.063
0.039 -0.029 0.063
0.039 -0.019 0.059
0.041 -0.023 0.095
0.037 -0.019 0.091
0.039 -0.021 0.101
0.043 -0.039 0.087
0.041 -0.035 0.089
0.039 -0.029 0.085
0.039 -0.033 0.089
0.041 -0.037 0.087
0.043 -0.029 0.097
0.033 -0.013 0.077
0.033 -0.023 0.075
0.035 -0.011 0.083
0.031 -0.009 0.081
0.031 -0.003 0.083
0.015 0.005 0.077
0.017 0.003 0.071
0.015 0.003 0.079
0.031 -0.009 0.069
0.017 -0.001 0.067
0.021 -0.003 0.071
0.023 -0.003 0.075
0.033 -0.005 0.089
0.035 -0.007 0.093
0.035 -0.013 0.101
0.037 -0.013 0.097
0.039 -0.017 0.093
0.013 -0.001 0.095
0.025 0.007 0.097
0.029 0.007 0.097
0.037 -0.029 0.067
0.037 -0.021 0.065
0.037 -0.019 0.069
0.035 -0.021 0.071
0.039 -0.025 0.083
0.037 -0.017 0.087
0.039 -0.021 0.093
0.039 -0.023 0.097
0.037 -0.011 0.095
0.041 -0.023 0.093
0.039 -0.017 0.093
0.035 -0.007 0.093
0.033 -0.005 0.095
0.033 -0.003 0.095
0.033 -0.027 0.103
0.033 -0.023 0.105
0.043 -0.031 0.099
0.041 -0.033 0.101
0.039 -0.019 0.101
0.033 -0.009 0.105
0.023 0.001 0.107
0.029 0.007 0.103
0.023 -0.001 0.105
0.023 -0.001 0.105
0.027 -0.007 0.111
0.025 -0.005 0.115
0.035 -0.025 0.103
0.037 -0.013 0.097
0.035 -0.003 0.107
-0.005 0.033 0.045
-0.019 0.031 0.039
0.007 0.031 0.041
-0.027 0.031 0.041
-0.031 0.033 0.045
-0.023 0.033 0.063
-0.031 0.035 0.055
-0.017 0.035 0.069
-0.021 0.037 0.071
0.003 0.027 0.049
0.005 0.023 0.053
-0.001 0.031 0.051
-0.009 0.031 0.049
-0.001 0.031 0.049
-0.001 0.031 0.047
-0.007 0.035 0.063
-0.001 0.031 0.059
0.005 0.015 0.047
0.001 0.029 0.045
0.005 0.021 0.053
0.003 0.023 0.057
-0.001 0.031 0.059
-0.009 0.033 0.057
-0.029 0.031 0.043
-0.013 0.031 0.045
-0.003 0.035 0.041
-0.003 0.035 0.041
-0.001 0.033 0.043
0.005 0.029 0.043
-0.003 0.031 0.055
-0.003 0.031 0.053
-0.005 0.031 0.051
0.001 0.029 0.047
-0.001 0.027 0.067
-0.001 0.027 0.065
-0.003 0.027 0.069
-0.001 0.021 0.063
-0.001 0.027 0.067
-0.001 0.031 0.077
-0.003 0.031 0.075
-0.005 0.033 0.075
-0.003 0.033 0.071
0.013 0.017 0.071
0.001 0.025 0.063
0.001 0.017 0.059
-0.027 0.025 0.051
-0.009 0.035 0.061
-0.017 0.035 0.067
-0.011 0.035 0.067
-0.005 0.033 0.061
-0.001 0.029 0.053
-0.001 0.031 0.063
-0.031 0.037 0.063
-0.023 0.035 0.035
-0.023 0.035 0.035
-0.023 0.035 0.035
-0.013 0.035 0.037
-0.005 0.033 0.043
-0.027 0.033 0.055
-0.027 0.037 0.061
-0.023 0.035 0.063
-0.007 0.035 0.063
-0.005 0.033 0.061
-0.001 0.031 0.077
0.013 0.017 0.075
0.011 0.019 0.077
0.009 0.019 0.073
0.005 0.025 0.087
0.007 0.023 0.081
0.007 0.023 0.079
0.007 0.023 0.085
-0.017 0.035 0.073
-0.009 0.035 0.075
-0.005 0.033 0.083
-0.009 0.035 0.083
-0.001 0.031 0.079
-0.001 0.027 0.073
-0.001 0.027 0.073
-0.005 0.025 0.093
-0.007 0.025 0.095
0.001 0.023 0.091
-0.003 0.023 0.095
-0.009 0.027 0.093
-0.031 0.041 0.085
-0.031 0.039 0.087
-0.027 0.037 0.065
-0.023 0.039 0.071
-0.021 0.039 0.077
-0.023 0.039 0.083
-0.017 0.035 0.079
-0.021 0.037 0.081
-0.011 0.035 0.079
-0.007 0.035 0.077
-0.025 0.035 0.087
-0.027 0.041 0.083
0.013 0.009 0.049
0.011 0.009 0.047
0.023 0.007 0.041
0.009 0.031 0.041
0.013 0.013 0.059
0.013 0.011 0.055
0.013 0.013 0.057
0.015 0.013 0.057
0.011 0.015 0.063
0.009 0.015 0.063
0.011 0.013 0.059
0.023 0.001 0.053
0.033 0.003 0.035
0.007 0.033 0.035
0.009 0.019 0.071
0.011 0.017 0.069
0.009 0.019 0.073
0.015 0.011 0.079
0.015 0.013 0.077
0.017 0.007 0.075
0.013 0.017 0.073
0.005 0.023 0.077
0.013 0.005 0.085
0.015 0.003 0.081
0.013 0.005 0.085
0.013 0.005 0.081
0.003 0.015 0.093
0.007 0.013 0.091
0.027 0.007 0.093
0.029 0.007 0.095
0.007 0.023 0.083
0.005 0.023 0.089
0.011 0.017 0.083
0.001 0.021 0.091
0.001 0.017 0.095
0.027 0.009 0.097
0.021 0.003 0.109
0.017 0.007 0.113
