0.017 -0.039 0.039
0.015 -0.041 0.033
0.017 -0.039 0.037
0.015 -0.033 0.047
0.045 -0.029 0.035
0.039 -0.033 0.045
0.051 -0.021 0.037
0.047 -0.023 0.041
0.043 -0.019 0.051
0.041 -0.027 0.055
0.035 -0.047 0.087
0.033 -0.049 0.087
0.033 -0.031 0.069
0.031 -0.029 0.071
0.033 -0.023 0.075
0.039 -0.047 0.091
0.019 -0.019 0.081
0.041 -0.043 0.089
0.041 -0.023 0.095
0.037 -0.041 0.101
0.039 -0.037 0.095
0.037 -0.033 0.093
0.045 -0.037 0.101
0.043 -0.033 0.095
0.039 -0.023 0.103
0.033 -0.009 0.105
0.019 -0.037 0.037
0.029 -0.035 0.035
0.017 -0.037 0.043
-0.021 0.005 0.053
0.017 -0.039 0.039
0.011 -0.033 0.045
0.029 -0.039 0.045
0.033 -0.037 0.047
0.029 -0.039 0.051
-0.025 0.003 0.055
-0.023 0.003 0.049
-0.023 0.005 0.057
-0.021 0.007 0.057
0.039 -0.033 0.057
0.037 -0.033 0.063
0.031 -0.037 0.059
0.029 -0.029 0.073
0.035 -0.041 0.083
0.033 -0.033 0.065
0.033 -0.031 0.069
0.037 -0.035 0.041
0.039 -0.033 0.049
0.045 -0.027 0.035
0.041 -0.021 0.047
0.043 -0.019 0.049
0.035 -0.027 0.071
0.037 -0.023 0.067
0.043 -0.039 0.083
0.031 -0.017 0.079
0.037 -0.021 0.081
0.033 -0.003 0.091
0.031 -0.011 0.079
0.031 -0.011 0.079
0.037 -0.025 0.087
0.001 -0.011 0.049
0.001 -0.009 0.051
0.027 -0.015 0.105
0.033 -0.043 0.105
0.037 -0.041 0.091
0.017 -0.013 0.107
0.027 -0.023 0.105
0.037 -0.013 0.099
0.035 -0.015 0.105
0.035 -0.009 0.051
0.041 -0.027 0.059
0.041 -0.013 0.053
0.033 -0.045 0.091
0.029 -0.043 0.089
0.029 -0.041 0.103
0.043 -0.043 0.087
0.041 -0.039 0.105
0.039 -0.039 0.105
0.021 -0.021 0.105
0.033 -0.019 0.105
0.035 -0.019 0.103
0.039 -0.029 0.099
0.027 -0.041 0.101
0.019 -0.023 0.101
0.013 -0.011 0.109
0.031 -0.015 0.105
0.035 -0.003 0.107
-0.037 0.015 0.045
-0.033 0.027 0.063
-0.021 0.007 0.061
0.001 0.007 0.089
-0.025 0.007 0.063
-0.023 0.009 0.065
-0.005 0.017 0.091
0.005 0.019 0.091
-0.019 0.011 0.067
-0.017 0.017 0.081
-0.003 0.011 0.091
-0.007 0.009 0.087
-0.013 0.023 0.089
-0.029 0.035 0.087
0.021 -0.011 0.105
0.017 0.009 0.113
0.007 0.029 0.045
0.017 0.011 0.113
0.021 -0.001 0.109
0.007 0.011 0.091
0.001 0.025 0.091
0.019 0.003 0.111
-0.015 -0.005 0.037
0.001 -0.007 0.049
0.005 -0.033 0.043
0.013 -0.031 0.049
-0.001 -0.007 0.041
-0.023 0.013 0.067
0.001 -0.005 0.061
0.021 -0.011 0.061
-0.001 0.001 0.067
0.019 -0.023 0.063
0.009 -0.005 0.071
0.017 -0.011 0.073
0.027 -0.047 0.085
0.027 -0.037 0.089
0.029 -0.035 0.089
0.021 -0.031 0.097
0.019 -0.025 0.071
0.019 -0.009 0.071
0.017 -0.025 0.085
0.019 -0.027 0.087
0.015 -0.015 0.089
0.013 -0.015 0.095
0.017 -0.017 0.079
0.017 -0.023 0.097
0.021 -0.023 0.103
0.021 -0.009 0.109
-0.041 0.019 0.043
-0.025 0.011 0.051
-0.031 0.007 0.051
-0.035 0.027 0.037
-0.031 0.037 0.065
-0.029 0.009 0.061
-0.033 0.031 0.065
-0.029 0.037 0.069
-0.029 0.037 0.063
-0.001 0.001 0.073
-0.005 0.005 0.077
-0.021 0.023 0.069
-0.021 0.023 0.071
-0.027 0.033 0.083
-0.015 0.017 0.087
-0.011 0.025 0.093
-0.009 0.027 0.093
-0.029 0.035 0.071
-0.023 0.037 0.085
-0.019 0.013 0.061
-0.019 0.019 0.069
-0.019 0.019 0.069
-0.031 0.031 0.067
-0.017 0.017 0.079
-0.017 0.023 0.087
-0.013 0.019 0.089
-0.017 0.027 0.087
0.017 0.001 0.085
0.023 0.007 0.043
0.027 0.007 0.041
0.015 0.005 0.039
0.021 0.007 0.059
0.023 -0.009 0.065
0.021 0.005 0.063
0.041 -0.023 0.045
0.041 -0.013 0.047
0.037 -0.009 0.051
0.031 -0.009 0.069
0.011 0.019 0.075
0.019 0.001 0.083
0.031 -0.005 0.085
0.029 0.007 0.101
0.023 -0.001 0.105
0.033 -0.001 0.107
0.003 0.035 0.039
-0.023 0.033 0.037
-0.003 0.035 0.037
-0.015 0.035 0.065
-0.005 0.033 0.057
-0.003 0.031 0.061
-0.027 0.031 0.055
-0.011 0.029 0.053
-0.013 0.035 0.035
-0.011 0.037 0.071
-0.015 0.035 0.071
-0.033 0.043 0.083
0.031 0.003 0.031
0.021 0.007 0.041
0.009 0.029 0.041
0.005 0.029 0.043
0.001 0.029 0.047
0.007 0.011 0.053
0.005 0.015 0.063
0.011 0.015 0.061
0.025 0.005 0.053
0.017 0.011 0.059
0.015 0.001 0.077
0.015 0.013 0.079
0.005 0.025 0.079
0.003 0.017 0.093
0.043 -0.019 0.049
0.043 -0.019 0.051
0.041 -0.029 0.045
0.041 -0.023 0.057
0.039 -0.031 0.039
0.041 -0.017 0.053
0.037 -0.009 0.051
0.025 0.003 0.051
0.021 -0.009 0.057
0.019 -0.001 0.063
0.051 -0.021 0.033
0.043 -0.013 0.039
0.039 -0.025 0.085
0.033 -0.013 0.069
0.029 -0.005 0.077
0.041 -0.023 0.093
0.037 -0.019 0.103
0.027 -0.009 0.107
0.041 -0.027 0.097
-0.003 0.013 0.031
-0.003 0.031 0.051
-0.027 0.027 0.045
-0.029 0.031 0.049
0.005 0.019 0.045
0.003 0.025 0.051
0.001 0.027 0.049
0.007 0.033 0.039
0.001 0.029 0.051
-0.005 0.033 0.049
-0.005 0.017 0.065
0.017 0.011 0.067
0.001 0.025 0.063
-0.031 0.033 0.047
-0.007 0.035 0.067
-0.005 0.033 0.075
0.005 0.023 0.075
-0.015 0.035 0.079
-0.007 0.035 0.079
0.029 0.003 0.031
0.023 0.007 0.041
0.027 0.007 0.041
0.005 0.033 0.039
0.007 0.023 0.079
0.005 0.019 0.091
0.029 0.007 0.097
-0.017 -0.003 0.035
-0.001 -0.013 0.045
0.007 -0.041 0.041
0.013 -0.035 0.045
0.007 -0.039 0.039
0.005 -0.029 0.041
0.003 -0.021 0.043
-0.005 -0.011 0.037
0.019 -0.031 0.057
0.005 -0.007 0.063
0.017 -0.033 0.049
0.007 -0.031 0.047
0.011 -0.029 0.049
0.011 -0.023 0.053
0.019 -0.027 0.067
0.027 -0.029 0.071
0.019 -0.007 0.071
0.015 -0.011 0.077
0.017 -0.021 0.097
0.011 -0.007 0.087
0.017 -0.019 0.095
0.019 -0.025 0.089
0.031 -0.035 0.105
0.037 -0.037 0.107
-0.041 0.025 0.043
-0.039 0.029 0.057
-0.029 0.007 0.045
-0.017 0.019 0.047
-0.025 0.009 0.065
-0.001 0.003 0.061
-0.037 0.027 0.061
-0.039 0.031 0.053
-0.021 0.027 0.077
-0.007 0.019 0.093
-0.011 0.027 0.093
0.001 -0.005 0.055
-0.023 0.019 0.047
0.001 0.001 0.049
0.001 0.011 0.065
-0.001 -0.001 0.065
-0.001 0.001 0.067
-0.037 0.021 0.055
-0.001 0.001 0.075
0.009 -0.005 0.099
0.019 -0.003 0.105
0.023 -0.031 0.033
0.019 -0.037 0.037
0.007 -0.039 0.037
0.017 -0.033 0.049
0.013 -0.031 0.051
0.015 -0.023 0.055
0.013 -0.017 0.055
0.003 -0.005 0.063
0.045 -0.027 0.037
0.039 -0.045 0.089
0.035 -0.047 0.091
0.015 -0.017 0.093
0.019 -0.027 0.087
0.023 -0.033 0.087
0.025 -0.041 0.083
0.023 -0.033 0.095
0.027 -0.039 0.095
0.029 -0.041 0.099
0.031 -0.043 0.105
0.041 -0.039 0.105
0.021 -0.027 0.099
0.027 -0.027 0.105
0.027 -0.011 0.109
0.019 -0.005 0.109
0.021 -0.021 0.105
-0.029 0.011 0.035
-0.037 0.015 0.039
-0.027 0.003 0.033
-0.023 0.003 0.037
-0.021 0.003 0.039
-0.009 0.001 0.039
-0.007 -0.003 0.037
-0.005 -0.011 0.039
-0.029 0.011 0.043
-0.031 0.005 0.055
-0.025 0.003 0.051
-0.017 0.007 0.053
-0.009 0.013 0.057
-0.033 0.015 0.047
-0.009 0.005 0.045
-0.033 0.019 0.051
-0.025 0.029 0.069
-0.017 0.017 0.077
-0.007 0.017 0.073
-0.017 0.011 0.071
-0.025 0.033 0.081
0.011 -0.043 0.043
-0.001 -0.013 0.045
0.001 -0.007 0.051
0.007 -0.007 0.061
0.015 -0.007 0.063
-0.001 -0.001 0.067
0.007 0.005 0.085
-0.003 0.007 0.087
-0.001 0.007 0.089
0.007 -0.039 0.037
-0.015 -0.007 0.035
-0.003 -0.013 0.043
0.015 -0.041 0.033
0.011 -0.043 0.043
0.009 -0.039 0.045
0.015 -0.029 0.057
0.041 -0.027 0.041
0.039 -0.027 0.037
0.041 -0.029 0.043
0.041 -0.031 0.045
0.039 -0.035 0.049
0.039 -0.031 0.063
0.041 -0.031 0.049
0.035 -0.047 0.093
0.017 -0.019 0.075
0.023 -0.023 0.077
0.027 -0.047 0.083
0.031 -0.047 0.083
0.021 -0.029 0.089
0.021 -0.027 0.091
0.023 -0.027 0.091
0.027 -0.025 0.095
0.039 -0.035 0.081
0.039 -0.033 0.093
0.023 -0.011 0.111
0.039 -0.039 0.097
-0.011 -0.009 0.033
0.007 -0.039 0.035
-0.033 0.013 0.037
-0.029 0.003 0.047
-0.023 0.003 0.035
-0.027 0.003 0.043
-0.027 0.003 0.043
-0.003 -0.015 0.039
0.011 -0.043 0.041
-0.009 0.005 0.043
-0.005 0.007 0.047
-0.021 0.007 0.059
-0.013 -0.007 0.037
-0.019 0.009 0.061
-0.017 0.011 0.063
0.001 -0.003 0.067
0.003 0.005 0.087
-0.017 0.017 0.081
0.017 -0.037 0.043
0.027 -0.037 0.051
0.029 -0.037 0.055
0.023 -0.029 0.069
0.021 -0.025 0.073
0.025 -0.033 0.065
0.025 -0.029 0.071
0.007 -0.005 0.069
0.015 -0.013 0.081
0.033 -0.033 0.097
0.035 -0.037 0.055
0.019 -0.035 0.033
0.041 -0.019 0.045
0.043 -0.017 0.041
0.015 -0.041 0.039
0.037 -0.027 0.069
0.035 -0.031 0.067
0.029 -0.035 0.063
0.035 -0.027 0.071
0.037 -0.023 0.067
0.037 -0.013 0.055
0.043 -0.019 0.041
0.041 -0.023 0.057
0.043 -0.039 0.083
0.041 -0.035 0.089
0.037 -0.027 0.087
0.041 -0.027 0.093
0.037 -0.019 0.083
0.039 -0.039 0.097
0.039 -0.023 0.101
0.037 -0.017 0.085
0.039 -0.019 0.093
0.037 -0.017 0.099
0.043 -0.037 0.085
0.037 -0.033 0.089
0.035 -0.043 0.105
0.033 -0.041 0.099
0.037 -0.041 0.105
0.037 -0.037 0.107
0.031 -0.025 0.105
0.027 -0.013 0.107
0.027 -0.011 0.109
0.025 -0.007 0.115
0.039 -0.025 0.097
0.043 -0.033 0.095
0.039 -0.027 0.083
0.039 -0.023 0.065
0.035 -0.025 0.071
0.035 -0.015 0.073
0.037 -0.019 0.081
0.015 0.015 0.067
0.037 -0.019 0.091
0.017 0.011 0.073
0.021 0.007 0.061
0.039 -0.019 0.101
0.035 -0.015 0.103
0.033 -0.009 0.087
0.037 -0.011 0.095
0.035 -0.005 0.105
0.031 0.001 0.095
0.037 -0.017 0.083
0.025 0.001 0.051
0.023 -0.001 0.057
0.021 0.007 0.061
0.033 -0.007 0.105
-0.035 0.031 0.043
-0.021 0.021 0.047
-0.011 0.033 0.043
-0.007 0.031 0.051
-0.017 0.023 0.049
-0.017 0.029 0.057
-0.015 0.025 0.049
-0.019 0.031 0.061
-0.019 0.033 0.063
0.019 0.009 0.059
0.013 0.017 0.069
-0.003 0.033 0.073
-0.001 0.031 0.079
-0.001 0.031 0.077
0.009 0.001 0.097
0.007 0.013 0.093
-0.013 0.031 0.089
0.027 -0.001 0.081
-0.007 0.035 0.077
0.025 0.005 0.093
0.009 -0.005 0.099
0.017 -0.007 0.101
0.017 -0.011 0.105
0.009 0.001 0.101
0.019 0.001 0.105
0.017 -0.005 0.097
0.021 -0.003 0.101
0.021 -0.003 0.103
0.027 0.003 0.097
-0.031 0.027 0.033
-0.035 0.029 0.039
-0.035 0.033 0.049
-0.033 0.033 0.051
-0.021 0.031 0.039
-0.033 0.033 0.049
-0.031 0.033 0.045
-0.015 0.035 0.037
-0.007 0.033 0.041
-0.037 0.033 0.055
-0.027 0.037 0.061
-0.013 0.027 0.051
-0.033 0.035 0.053
-0.027 0.037 0.061
-0.023 0.039 0.081
-0.017 0.025 0.087
-0.009 0.035 0.079
0.019 0.007 0.045
-0.009 0.033 0.059
0.005 0.025 0.081
-0.001 0.029 0.087
0.021 0.001 0.091
0.001 0.029 0.081
