0.021 -0.001 0.077
0.019 -0.001 0.077
0.013 0.015 0.063
0.011 0.017 0.085
0.041 -0.027 0.045
0.039 -0.007 0.037
0.033 -0.011 0.051
0.035 -0.013 0.103
0.037 -0.019 0.103
0.043 -0.037 0.085
0.033 -0.001 0.095
0.011 0.013 0.087
0.041 -0.023 0.093
0.001 0.031 0.043
-0.007 0.035 0.079
-0.003 0.033 0.073
-0.003 0.033 0.081
-0.001 0.031 0.063
-0.007 0.031 0.089
0.005 0.021 0.089
0.003 0.015 0.095
-0.017 0.035 0.073
-0.007 0.035 0.069
0.021 0.007 0.045
0.027 0.009 0.097
-0.017 -0.003 0.037
-0.003 -0.019 0.033
0.007 -0.039 0.043
0.029 -0.035 0.037
0.029 -0.037 0.053
0.015 -0.007 0.063
0.029 -0.047 0.085
0.027 -0.039 0.087
0.039 -0.047 0.087
0.039 -0.033 0.093
0.019 -0.023 0.071
0.015 -0.013 0.077
0.019 -0.027 0.087
0.033 -0.031 0.069
0.021 -0.027 0.099
0.019 -0.023 0.099
-0.035 0.013 0.037
-0.023 0.003 0.035
-0.007 -0.003 0.037
-0.003 0.009 0.049
-0.031 0.007 0.051
-0.031 0.005 0.053
-0.013 0.027 0.091
-0.033 0.039 0.079
-0.027 0.033 0.085
0.009 -0.015 0.053
0.003 -0.007 0.057
-0.001 -0.001 0.063
-0.003 0.005 0.069
0.005 0.005 0.085
0.007 -0.001 0.095
-0.001 0.007 0.087
-0.003 0.015 0.091
0.025 -0.037 0.047
0.015 -0.041 0.037
0.029 -0.037 0.053
0.027 -0.037 0.051
0.037 -0.035 0.057
0.051 -0.021 0.035
0.033 -0.015 0.077
0.035 -0.019 0.071
0.043 -0.037 0.081
0.031 -0.041 0.097
0.037 -0.041 0.101
0.031 -0.035 0.097
0.015 -0.039 0.043
0.025 -0.037 0.049
0.031 -0.037 0.043
0.027 -0.037 0.039
-0.021 0.007 0.061
0.031 -0.037 0.059
0.031 -0.035 0.061
0.025 -0.031 0.067
0.033 -0.031 0.069
0.037 -0.023 0.081
0.041 -0.037 0.089
0.021 -0.023 0.075
0.039 -0.033 0.041
0.049 -0.023 0.039
0.045 -0.023 0.041
0.049 -0.023 0.039
0.033 -0.023 0.075
0.033 -0.013 0.077
0.037 -0.023 0.081
0.045 -0.039 0.101
0.005 -0.005 0.069
0.027 -0.021 0.105
0.037 -0.011 0.053
0.033 -0.035 0.105
0.025 -0.037 0.101
0.035 -0.047 0.089
0.001 -0.001 0.075
0.017 -0.015 0.107
0.021 -0.009 0.109
-0.021 0.007 0.055
0.001 0.009 0.089
-0.027 0.029 0.069
0.001 0.015 0.095
-0.005 0.025 0.093
0.029 -0.005 0.103
0.007 0.007 0.089
-0.001 -0.019 0.037
0.007 -0.037 0.037
-0.021 0.009 0.067
0.015 -0.019 0.055
0.033 -0.045 0.091
0.007 -0.001 0.095
0.015 -0.017 0.105
0.017 -0.001 0.109
-0.039 0.031 0.057
-0.023 0.009 0.065
-0.007 0.009 0.085
-0.007 0.019 0.093
-0.013 0.025 0.089
-0.029 0.037 0.069
-0.019 0.019 0.075
-0.029 0.033 0.071
-0.017 0.025 0.087
-0.005 0.017 0.091
-0.003 0.011 0.091
0.025 0.003 0.093
0.027 -0.005 0.051
0.033 -0.009 0.051
0.035 -0.015 0.057
0.039 -0.019 0.059
0.015 0.009 0.049
0.017 0.011 0.055
0.015 -0.001 0.033
0.023 -0.011 0.061
0.011 0.013 0.059
0.049 -0.017 0.039
0.043 -0.015 0.051
0.039 -0.031 0.085
0.025 -0.001 0.079
0.023 0.001 0.083
0.017 0.013 0.069
0.029 0.007 0.097
0.037 -0.017 0.083
0.039 -0.029 0.099
0.035 -0.033 0.105
0.027 0.009 0.101
-0.009 0.035 0.061
-0.029 0.041 0.075
-0.009 0.035 0.069
0.005 0.023 0.053
0.021 0.001 0.083
0.029 0.007 0.097
0.035 -0.005 0.041
0.037 -0.009 0.033
0.047 -0.023 0.041
0.023 -0.007 0.055
0.031 -0.011 0.065
0.037 -0.013 0.055
0.041 -0.045 0.087
0.037 -0.027 0.069
0.037 -0.029 0.067
0.037 -0.017 0.099
-0.005 0.033 0.049
-0.025 0.033 0.059
-0.003 0.021 0.067
-0.007 0.033 0.087
0.003 0.013 0.043
0.015 0.013 0.057
0.021 0.001 0.081
0.029 0.005 0.087
0.041 -0.025 0.055
0.037 -0.031 0.037
0.041 -0.031 0.093
0.041 -0.039 0.105
0.035 -0.015 0.105
0.003 0.017 0.055
0.015 0.013 0.059
0.003 0.021 0.057
-0.021 0.039 0.079
-0.027 0.041 0.083
0.021 0.005 0.059
0.031 -0.001 0.087
0.017 0.001 0.071
0.043 -0.027 0.039
0.019 -0.037 0.035
0.029 -0.039 0.051
0.037 -0.033 0.059
0.037 -0.027 0.035
0.035 -0.037 0.053
0.039 -0.011 0.053
0.021 -0.003 0.059
0.019 -0.003 0.063
0.043 -0.015 0.051
0.041 -0.033 0.085
0.033 -0.021 0.075
0.033 -0.013 0.073
0.033 -0.011 0.075
0.033 -0.011 0.073
0.037 -0.023 0.085
0.037 -0.017 0.065
0.033 -0.043 0.103
0.043 -0.039 0.099
0.043 -0.033 0.097
0.021 -0.001 0.061
0.041 -0.023 0.047
0.005 0.021 0.047
0.017 0.011 0.059
0.013 0.015 0.083
0.017 0.009 0.071
0.019 0.003 0.067
0.033 -0.007 0.085
-0.001 -0.001 0.059
0.001 -0.021 0.039
0.003 -0.009 0.055
0.019 -0.019 0.059
0.009 0.001 0.103
0.021 -0.011 0.105
0.011 -0.001 0.103
0.017 0.003 0.107
0.019 -0.003 0.109
0.017 0.005 0.111
-0.019 0.019 0.047
-0.039 0.019 0.049
-0.037 0.029 0.061
-0.035 0.031 0.063
-0.031 0.031 0.067
-0.033 0.035 0.065
-0.011 0.033 0.087
-0.031 0.035 0.087
-0.015 0.035 0.081
-0.019 0.035 0.079
-0.013 0.035 0.083
-0.027 0.033 0.087
-0.015 0.015 0.081
-0.015 0.019 0.087
-0.017 0.025 0.087
-0.001 0.017 0.095
-0.011 0.017 0.089
0.017 -0.039 0.033
0.019 -0.037 0.039
0.021 -0.031 0.063
0.013 -0.025 0.055
0.045 -0.023 0.041
0.027 -0.047 0.083
0.035 -0.047 0.093
0.043 -0.041 0.085
0.035 -0.047 0.087
0.035 -0.023 0.071
0.039 -0.049 0.091
0.035 -0.043 0.103
0.031 -0.043 0.105
0.041 -0.041 0.101
0.017 -0.017 0.105
-0.001 -0.013 0.045
-0.029 0.005 0.057
0.005 -0.013 0.049
-0.011 0.015 0.063
-0.019 0.009 0.065
-0.001 0.003 0.081
-0.015 0.017 0.083
0.031 -0.043 0.105
0.033 -0.031 0.067
0.031 -0.029 0.071
0.029 -0.027 0.073
0.035 -0.047 0.091
0.033 -0.029 0.071
-0.013 -0.007 0.037
0.009 -0.039 0.045
0.009 -0.027 0.051
0.013 -0.011 0.057
0.013 -0.011 0.057
0.015 -0.027 0.057
0.025 -0.041 0.085
0.003 -0.005 0.067
0.015 -0.017 0.091
0.009 -0.005 0.093
0.021 -0.021 0.079
0.031 -0.039 0.105
0.031 -0.017 0.105
-0.041 0.025 0.045
-0.033 0.017 0.049
-0.001 -0.001 0.063
-0.017 0.023 0.057
-0.005 0.009 0.075
-0.005 0.011 0.073
-0.021 0.027 0.077
0.001 0.011 0.065
-0.001 -0.001 0.067
-0.001 0.003 0.065
0.001 -0.001 0.075
0.009 -0.005 0.099
-0.015 0.023 0.089
0.015 0.007 0.113
-0.017 -0.001 0.037
0.007 -0.039 0.039
0.021 -0.029 0.065
0.005 -0.031 0.043
0.005 -0.027 0.045
0.001 -0.007 0.053
-0.001 -0.001 0.057
0.003 -0.007 0.057
0.021 -0.013 0.063
0.005 -0.017 0.045
0.005 -0.015 0.047
-0.001 -0.009 0.045
0.015 -0.009 0.079
0.021 -0.031 0.095
0.019 -0.027 0.089
0.029 -0.043 0.103
0.017 -0.023 0.097
0.019 -0.005 0.105
-0.027 0.011 0.031
-0.029 0.003 0.047
-0.035 0.029 0.039
-0.039 0.031 0.057
-0.037 0.033 0.057
-0.037 0.033 0.053
-0.037 0.033 0.057
-0.005 0.005 0.077
-0.027 0.035 0.075
-0.025 0.013 0.063
-0.019 0.023 0.061
-0.003 0.009 0.089
-0.017 0.021 0.087
-0.025 0.013 0.063
-0.035 0.043 0.085
0.005 -0.031 0.045
0.009 -0.031 0.047
-0.025 0.011 0.065
-0.019 0.013 0.063
-0.029 0.029 0.069
-0.007 0.035 0.079
0.021 -0.025 0.103
0.019 -0.011 0.103
-0.015 0.021 0.089
0.023 -0.011 0.109
0.023 -0.001 0.099
0.023 -0.009 0.111
-0.037 0.031 0.045
-0.013 0.031 0.045
-0.009 0.033 0.045
-0.031 0.007 0.057
-0.035 0.045 0.081
-0.011 0.037 0.069
-0.019 0.025 0.083
-0.033 0.039 0.087
-0.009 0.035 0.083
-0.011 0.015 0.089
-0.025 0.033 0.087
-0.007 0.027 0.093
-0.037 0.039 0.087
-0.035 0.043 0.075
-0.035 0.045 0.081
-0.015 0.035 0.067
-0.017 0.035 0.081
-0.019 0.031 0.083
0.001 0.025 0.091
0.027 -0.033 0.033
0.011 -0.043 0.043
0.007 -0.023 0.049
0.029 -0.037 0.053
0.039 -0.049 0.091
0.011 -0.001 0.077
0.029 -0.041 0.097
0.039 -0.027 0.065
0.011 -0.007 0.103
0.023 -0.011 0.111
-0.037 0.017 0.049
-0.023 0.003 0.039
-0.007 0.009 0.049
-0.023 0.005 0.061
-0.029 0.005 0.061
-0.009 0.015 0.065
-0.005 0.013 0.091
-0.013 0.025 0.089
-0.007 0.019 0.093
0.005 -0.009 0.057
0.005 -0.009 0.059
0.031 -0.019 0.105
-0.001 -0.021 0.033
0.027 -0.037 0.059
0.001 -0.023 0.035
0.001 -0.005 0.061
0.013 -0.009 0.061
0.023 -0.033 0.061
0.017 -0.005 0.065
0.033 -0.049 0.085
0.023 -0.031 0.089
0.027 -0.027 0.091
0.021 -0.023 0.103
0.035 -0.003 0.107
-0.013 -0.009 0.035
-0.035 0.025 0.061
-0.023 0.003 0.047
-0.031 0.027 0.063
-0.023 0.009 0.065
-0.019 0.003 0.041
-0.029 0.011 0.059
-0.003 0.003 0.077
-0.025 0.029 0.067
-0.013 0.015 0.087
-0.015 0.021 0.089
-0.017 0.017 0.079
0.001 -0.005 0.053
0.001 0.001 0.047
0.013 -0.011 0.109
0.019 -0.027 0.031
0.025 -0.037 0.039
0.023 -0.035 0.049
0.025 -0.035 0.035
0.011 -0.029 0.049
0.043 -0.021 0.041
0.019 -0.025 0.071
0.025 -0.029 0.071
0.031 -0.025 0.075
0.031 -0.021 0.077
0.019 -0.025 0.091
0.017 -0.021 0.095
-0.013 -0.009 0.033
-0.013 0.005 0.047
-0.023 0.003 0.051
0.011 -0.037 0.045
-0.021 0.007 0.061
0.003 -0.003 0.071
-0.003 0.009 0.089
-0.005 0.007 0.081
0.015 -0.041 0.039
0.009 -0.001 0.077
0.025 -0.033 0.063
0.027 -0.033 0.065
0.029 -0.039 0.049
0.011 -0.029 0.053
0.003 -0.011 0.053
0.025 -0.037 0.055
0.025 -0.033 0.065
0.029 -0.033 0.067
0.009 -0.007 0.067
0.015 -0.017 0.099
-0.039 0.021 0.053
-0.041 0.027 0.053
-0.023 0.005 0.057
-0.007 -0.001 0.039
-0.005 0.007 0.047
-0.023 0.013 0.067
-0.011 0.007 0.049
-0.021 0.027 0.065
-0.029 0.027 0.065
-0.005 0.005 0.077
-0.031 0.031 0.067
-0.009 0.025 0.095
-0.021 0.033 0.077
-0.005 0.013 0.057
0.011 -0.007 0.065
0.005 -0.003 0.075
0.003 0.007 0.089
-0.027 0.003 0.043
0.005 -0.027 0.045
0.013 -0.027 0.055
0.009 -0.025 0.051
-0.033 0.029 0.065
-0.035 0.035 0.055
0.017 -0.017 0.077
-0.019 0.021 0.083
0.007 0.001 0.095
0.013 -0.009 0.097
0.017 -0.023 0.097
0.019 0.001 0.105
0.017 0.005 0.107
-0.037 0.029 0.041
-0.031 0.035 0.057
-0.031 0.037 0.065
-0.037 0.033 0.051
-0.003 0.003 0.073
-0.019 0.019 0.067
-0.011 0.013 0.083
-0.011 0.025 0.091
-0.037 0.041 0.087
-0.023 0.039 0.073
-0.011 0.035 0.065
-0.003 0.005 0.079
0.027 0.005 0.103
-0.009 -0.003 0.039
0.015 0.015 0.075
0.023 0.005 0.049
0.029 -0.013 0.055
0.041 -0.019 0.045
0.033 -0.013 0.061
0.025 -0.011 0.061
0.035 -0.021 0.073
0.037 -0.017 0.095
0.039 -0.029 0.083
0.033 -0.003 0.089
0.035 -0.017 0.089
0.031 -0.003 0.083
0.035 -0.011 0.083
0.021 0.001 0.109
-0.025 0.035 0.061
-0.029 0.037 0.065
0.001 0.029 0.051
-0.003 0.031 0.055
-0.001 0.031 0.051
-0.003 0.027 0.069
0.013 0.017 0.069
-0.011 0.035 0.063
-0.011 0.037 0.069
0.001 0.027 0.077
-0.009 0.029 0.091
-0.033 0.043 0.085
0.029 0.005 0.035
0.019 0.007 0.043
0.005 0.017 0.051
0.009 0.013 0.089
