0.009 0.023 0.043
0.009 0.005 0.041
0.025 0.005 0.043
0.011 0.005 0.039
0.023 0.005 0.049
0.027 -0.001 0.045
0.027 -0.001 0.049
0.027 -0.013 0.057
0.039 -0.009 0.051
0.017 0.009 0.051
0.019 0.009 0.057
0.009 0.005 0.043
0.009 0.009 0.047
0.007 0.007 0.045
0.023 0.005 0.035
0.023 -0.009 0.065
0.007 0.015 0.065
0.021 -0.003 0.059
0.051 -0.021 0.035
0.037 -0.007 0.033
0.041 -0.025 0.059
0.039 -0.029 0.061
0.033 -0.001 0.089
0.043 -0.037 0.083
0.025 -0.007 0.069
0.013 0.017 0.073
0.027 -0.005 0.071
0.033 -0.011 0.077
0.023 0.001 0.085
0.033 -0.005 0.087
0.037 -0.021 0.065
0.035 -0.015 0.089
0.037 -0.017 0.083
0.039 -0.019 0.093
0.037 -0.017 0.091
0.043 -0.033 0.097
0.035 -0.005 0.103
0.027 0.009 0.103
0.033 -0.001 0.107
0.015 -0.005 0.101
0.015 -0.005 0.101
0.021 0.003 0.107
0.023 0.001 0.107
0.025 -0.005 0.113
0.039 -0.019 0.101
0.037 -0.017 0.103
0.035 -0.003 0.105
0.001 0.035 0.037
-0.029 0.033 0.039
-0.035 0.035 0.055
-0.035 0.035 0.057
-0.035 0.035 0.061
-0.015 0.033 0.041
0.001 0.033 0.041
0.003 0.027 0.047
0.005 0.023 0.051
-0.023 0.023 0.047
-0.013 0.031 0.045
-0.007 0.035 0.037
-0.009 0.033 0.043
-0.005 0.033 0.057
-0.027 0.031 0.057
-0.025 0.027 0.059
-0.017 0.029 0.057
0.001 0.025 0.063
-0.027 0.035 0.059
-0.011 0.037 0.073
-0.009 0.035 0.077
-0.003 0.031 0.083
0.003 0.023 0.075
-0.021 0.039 0.073
-0.019 0.035 0.069
-0.001 0.029 0.065
-0.003 0.027 0.069
-0.009 0.029 0.091
-0.027 0.037 0.071
-0.019 0.035 0.071
-0.021 0.039 0.077
-0.009 0.035 0.075
-0.029 0.041 0.085
-0.017 0.033 0.083
-0.005 0.033 0.085
0.021 0.007 0.043
0.009 0.009 0.049
0.003 0.019 0.055
0.009 0.013 0.057
0.019 0.009 0.059
0.019 0.009 0.061
0.003 0.025 0.055
0.033 0.001 0.037
0.007 0.035 0.033
0.005 0.017 0.069
0.017 0.011 0.067
0.013 0.005 0.085
0.007 0.013 0.093
0.029 0.007 0.089
0.001 0.019 0.095
0.019 0.005 0.111
0.033 -0.003 0.041
0.031 0.001 0.041
0.029 0.005 0.041
0.025 0.001 0.047
0.039 -0.021 0.059
0.039 -0.035 0.049
0.037 -0.035 0.059
0.041 -0.013 0.043
0.041 -0.013 0.045
0.037 -0.007 0.041
0.039 -0.009 0.051
0.039 -0.011 0.053
0.049 -0.017 0.039
0.049 -0.017 0.039
0.033 -0.003 0.041
0.039 -0.017 0.057
0.035 -0.013 0.055
0.031 -0.011 0.053
0.019 0.005 0.065
0.021 -0.001 0.061
0.049 -0.023 0.039
0.047 -0.023 0.041
0.035 -0.003 0.035
0.041 -0.015 0.055
0.039 -0.031 0.085
0.039 -0.033 0.089
0.035 -0.023 0.071
0.033 -0.013 0.071
0.031 -0.017 0.079
0.031 -0.013 0.079
0.017 0.005 0.071
0.017 -0.001 0.069
0.027 -0.005 0.071
0.029 -0.005 0.077
0.035 -0.013 0.085
0.039 -0.019 0.093
0.039 -0.023 0.097
0.035 -0.011 0.083
0.033 -0.001 0.093
0.037 -0.029 0.067
0.037 -0.019 0.065
0.039 -0.027 0.085
0.037 -0.017 0.085
0.037 -0.017 0.095
0.035 -0.015 0.083
0.041 -0.037 0.103
0.043 -0.037 0.097
0.043 -0.037 0.103
0.041 -0.039 0.105
0.039 -0.035 0.105
0.027 -0.011 0.107
0.037 -0.015 0.101
0.031 -0.001 0.103
0.031 -0.001 0.105
0.029 0.007 0.103
0.027 -0.011 0.109
0.035 -0.003 0.105
0.025 -0.005 0.115
0.009 0.031 0.041
0.009 0.027 0.039
0.001 0.017 0.035
0.009 0.031 0.041
-0.029 0.029 0.051
-0.021 0.035 0.065
0.005 0.015 0.043
0.009 0.023 0.043
0.005 0.021 0.045
0.009 0.025 0.043
0.003 0.015 0.053
0.003 0.027 0.053
-0.005 0.003 0.039
-0.001 0.023 0.033
0.009 0.031 0.041
-0.001 0.031 0.049
-0.003 0.031 0.047
0.003 0.015 0.055
0.005 0.017 0.069
0.003 0.021 0.059
-0.029 0.031 0.053
-0.003 0.031 0.053
-0.001 0.031 0.057
0.001 0.029 0.051
-0.019 0.033 0.039
-0.003 0.035 0.041
-0.001 0.033 0.043
-0.027 0.033 0.057
0.017 0.011 0.071
-0.003 0.033 0.067
-0.011 0.037 0.075
-0.005 0.019 0.069
0.005 0.021 0.073
0.007 0.023 0.081
0.007 0.023 0.085
0.009 0.021 0.085
-0.001 0.025 0.091
-0.025 0.037 0.067
-0.013 0.035 0.077
-0.021 0.037 0.081
0.005 0.015 0.047
0.027 0.007 0.041
0.009 0.029 0.039
0.001 0.031 0.043
0.025 0.003 0.051
0.001 0.019 0.061
0.001 0.021 0.061
0.017 0.013 0.067
0.017 0.013 0.065
0.019 0.001 0.079
0.011 0.009 0.085
0.013 0.005 0.085
0.007 0.013 0.093
0.031 0.001 0.087
0.009 0.021 0.083
0.019 0.003 0.111
0.021 0.001 0.109
0.005 -0.035 0.037
0.003 -0.021 0.043
0.007 -0.037 0.043
0.031 -0.037 0.041
0.005 -0.027 0.039
0.005 -0.033 0.039
0.015 -0.033 0.047
0.003 -0.013 0.045
-0.001 -0.009 0.045
0.009 -0.011 0.057
0.011 -0.011 0.057
0.009 -0.033 0.045
0.013 -0.033 0.047
0.015 -0.019 0.055
0.009 -0.013 0.055
0.019 -0.027 0.061
0.027 -0.033 0.067
0.023 -0.033 0.087
0.025 -0.037 0.095
0.039 -0.049 0.093
0.033 -0.043 0.091
0.009 -0.007 0.067
0.019 -0.007 0.073
0.013 -0.011 0.085
0.011 -0.007 0.095
0.009 -0.005 0.089
0.023 -0.029 0.071
0.023 -0.029 0.071
0.023 -0.029 0.071
0.019 -0.027 0.087
0.013 -0.013 0.097
0.025 -0.037 0.101
0.025 -0.031 0.099
0.019 -0.023 0.099
0.023 -0.025 0.105
0.011 -0.009 0.101
0.009 -0.005 0.101
0.027 -0.029 0.101
0.025 -0.021 0.105
-0.023 0.005 0.037
-0.035 0.013 0.043
-0.025 0.009 0.041
-0.039 0.019 0.039
-0.039 0.023 0.039
-0.037 0.017 0.049
-0.039 0.031 0.055
-0.037 0.023 0.057
-0.037 0.025 0.059
-0.031 0.013 0.033
-0.033 0.013 0.035
-0.031 0.011 0.041
-0.029 0.011 0.041
-0.025 0.003 0.047
-0.025 0.003 0.047
-0.031 0.015 0.047
-0.041 0.023 0.041
-0.035 0.017 0.049
-0.029 0.009 0.047
-0.039 0.019 0.049
-0.017 0.023 0.053
-0.029 0.005 0.057
-0.017 0.005 0.049
-0.021 0.005 0.057
-0.023 0.011 0.067
-0.021 0.009 0.065
-0.031 0.019 0.051
-0.031 0.023 0.059
-0.029 0.025 0.061
-0.021 0.029 0.059
-0.019 0.027 0.061
-0.021 0.011 0.069
-0.041 0.027 0.053
-0.023 0.029 0.063
-0.003 0.005 0.069
-0.021 0.023 0.065
-0.019 0.019 0.077
-0.015 0.017 0.075
-0.009 0.015 0.075
-0.019 0.021 0.081
-0.019 0.021 0.083
-0.017 0.023 0.085
-0.003 0.009 0.089
-0.011 0.023 0.091
-0.013 0.017 0.089
-0.007 0.019 0.093
-0.007 0.023 0.095
-0.029 0.037 0.075
-0.021 0.025 0.075
-0.019 0.027 0.083
0.003 -0.005 0.043
-0.029 0.003 0.049
-0.031 0.005 0.055
-0.029 0.011 0.059
0.001 0.005 0.057
0.001 0.007 0.057
0.001 0.009 0.059
-0.003 0.005 0.073
0.001 0.001 0.079
0.005 0.011 0.093
0.025 0.005 0.095
0.015 0.007 0.111
0.015 0.007 0.113
-0.013 -0.009 0.035
0.019 -0.027 0.031
0.019 -0.027 0.031
0.017 -0.039 0.033
0.019 -0.033 0.033
0.021 -0.035 0.047
0.019 -0.033 0.051
0.017 -0.039 0.033
0.015 -0.041 0.037
0.009 -0.031 0.047
0.007 -0.037 0.045
0.011 -0.029 0.049
0.009 -0.027 0.049
0.013 -0.031 0.053
0.017 -0.033 0.055
0.023 -0.033 0.061
0.019 -0.031 0.057
0.005 -0.009 0.057
0.025 -0.033 0.063
0.033 -0.031 0.033
0.037 -0.033 0.039
0.041 -0.031 0.053
0.041 -0.023 0.053
0.029 -0.047 0.087
0.029 -0.039 0.095
0.039 -0.049 0.093
0.037 -0.047 0.087
0.021 -0.029 0.067
0.017 -0.021 0.069
0.021 -0.023 0.075
0.023 -0.027 0.073
0.027 -0.047 0.083
0.027 -0.019 0.081
0.025 -0.025 0.091
0.011 -0.011 0.093
0.027 -0.019 0.081
0.035 -0.047 0.089
0.021 -0.027 0.091
0.035 -0.027 0.071
0.037 -0.033 0.081
0.029 -0.043 0.101
0.037 -0.039 0.099
0.029 -0.043 0.103
0.017 -0.023 0.097
0.025 -0.039 0.097
0.031 -0.043 0.101
0.039 -0.039 0.099
0.035 -0.041 0.101
0.039 -0.045 0.093
0.037 -0.041 0.101
-0.003 -0.019 0.033
-0.013 -0.009 0.033
-0.035 0.013 0.041
-0.039 0.017 0.043
-0.039 0.017 0.041
-0.017 -0.005 0.037
0.005 -0.035 0.037
-0.009 0.005 0.047
0.007 -0.031 0.047
-0.027 0.003 0.047
-0.023 0.003 0.047
-0.023 0.005 0.061
0.001 -0.013 0.049
-0.013 0.015 0.059
-0.013 0.015 0.055
0.003 -0.005 0.063
-0.013 -0.007 0.037
0.011 -0.043 0.043
-0.009 0.015 0.075
-0.017 0.017 0.077
-0.011 0.017 0.073
0.007 -0.003 0.073
0.005 0.001 0.081
-0.009 0.013 0.089
-0.003 0.019 0.095
-0.035 0.041 0.079
-0.015 0.017 0.073
-0.027 0.035 0.077
-0.029 0.035 0.083
0.015 -0.039 0.041
0.011 -0.031 0.047
0.023 -0.033 0.035
0.023 -0.037 0.041
0.017 -0.033 0.049
0.015 -0.035 0.045
0.003 -0.011 0.053
0.023 -0.035 0.057
0.017 -0.023 0.061
0.021 -0.031 0.063
0.029 -0.035 0.061
0.021 -0.035 0.041
0.019 -0.027 0.067
0.019 -0.029 0.085
0.037 -0.041 0.083
0.037 -0.049 0.091
0.011 -0.011 0.089
0.017 -0.015 0.107
0.017 0.011 0.055
0.005 0.017 0.049
0.019 0.009 0.061
0.031 0.003 0.037
0.029 -0.007 0.051
0.025 0.001 0.051
0.027 -0.001 0.049
0.023 0.001 0.057
0.037 -0.007 0.047
0.039 -0.009 0.041
0.021 0.007 0.049
0.019 -0.009 0.059
0.033 -0.011 0.069
0.033 -0.011 0.069
0.015 0.013 0.061
0.019 -0.001 0.063
0.029 -0.007 0.051
0.027 -0.009 0.065
0.021 -0.009 0.063
0.041 -0.011 0.039
0.039 -0.009 0.041
0.041 -0.025 0.051
0.037 -0.021 0.089
0.043 -0.031 0.099
0.035 -0.025 0.071
0.035 -0.021 0.073
0.035 -0.015 0.081
0.033 -0.009 0.083
0.015 0.013 0.079
0.029 -0.009 0.067
0.027 -0.005 0.073
0.035 -0.005 0.097
0.031 -0.001 0.103
0.027 0.007 0.089
0.029 0.007 0.089
0.039 -0.023 0.065
0.033 -0.011 0.075
0.037 -0.019 0.087
0.037 -0.027 0.087
0.037 -0.011 0.095
0.041 -0.037 0.103
0.033 -0.015 0.105
0.027 -0.009 0.109
0.023 0.001 0.107
0.025 -0.003 0.107
0.025 -0.005 0.109
-0.005 0.033 0.047
-0.015 0.033 0.041
0.009 0.029 0.041
-0.031 0.033 0.047
-0.033 0.033 0.049
-0.031 0.033 0.049
-0.005 0.033 0.049
-0.001 0.031 0.059
-0.003 0.031 0.057
-0.003 0.033 0.043
-0.023 0.033 0.039
-0.007 0.033 0.059
0.003 0.031 0.041
0.007 0.033 0.041
-0.003 0.023 0.067
-0.001 0.031 0.077
-0.001 0.027 0.073
-0.017 0.033 0.063
-0.021 0.035 0.067
-0.019 0.035 0.037
-0.027 0.033 0.055
-0.023 0.033 0.061
-0.001 0.031 0.079
0.009 0.021 0.085
0.011 0.017 0.085
0.001 0.027 0.087
0.005 0.025 0.079
0.007 0.023 0.083
-0.007 0.035 0.077
0.009 0.017 0.087
0.007 0.019 0.089
-0.001 0.021 0.095
-0.013 0.031 0.087
0.001 0.019 0.095
-0.035 0.039 0.087
-0.011 0.037 0.071
-0.009 0.035 0.081
0.029 0.005 0.041
0.021 0.007 0.045
0.003 0.025 0.053
0.005 0.035 0.037
0.007 0.019 0.071
0.011 0.017 0.069
0.015 0.015 0.067
0.013 0.013 0.083
0.013 0.009 0.083
0.019 0.005 0.069
0.013 0.017 0.075
0.007 0.013 0.093
0.009 0.011 0.091
0.011 0.019 0.083
0.007 0.017 0.089
0.027 0.009 0.097
0.023 0.001 0.107
