-0.003 -0.017 0.037
-0.013 -0.003 0.037
0.037 -0.037 0.107
0.015 -0.041 0.039
0.035 -0.043 0.105
0.027 -0.039 0.101
0.031 -0.041 0.103
0.005 -0.027 0.045
0.039 -0.039 0.105
0.017 -0.013 0.107
0.011 -0.027 0.053
0.021 -0.023 0.103
0.023 -0.015 0.105
0.027 -0.011 0.109
0.041 -0.017 0.055
0.029 -0.043 0.103
0.025 -0.037 0.101
0.023 -0.029 0.099
0.031 -0.027 0.105
0.017 -0.015 0.107
0.037 -0.027 0.099
0.039 -0.027 0.097
0.035 -0.015 0.105
0.023 -0.037 0.099
0.035 -0.043 0.103
0.035 -0.035 0.107
0.027 -0.029 0.103
0.015 -0.013 0.107
0.013 -0.005 0.103
0.029 -0.007 0.103
0.033 -0.009 0.105
-0.039 0.021 0.053
-0.035 0.025 0.061
-0.019 0.003 0.047
-0.011 0.005 0.049
-0.005 0.005 0.077
-0.023 0.013 0.067
-0.023 0.005 0.055
-0.025 0.005 0.059
-0.003 0.007 0.087
-0.003 0.019 0.095
-0.001 0.003 0.081
-0.007 0.009 0.087
-0.031 0.027 0.065
-0.001 0.011 0.091
-0.017 0.027 0.087
-0.005 0.017 0.091
-0.003 0.027 0.091
-0.017 0.027 0.087
0.005 0.029 0.045
0.011 -0.007 0.103
0.017 0.007 0.113
0.015 0.005 0.111
0.015 0.007 0.113
0.001 0.033 0.041
0.003 -0.001 0.079
0.027 -0.001 0.101
0.025 0.007 0.097
0.005 -0.033 0.039
0.007 -0.017 0.047
0.003 -0.033 0.035
0.007 -0.039 0.041
0.017 -0.025 0.059
0.003 -0.027 0.041
0.005 -0.019 0.047
0.005 -0.007 0.063
-0.005 0.007 0.075
0.015 -0.023 0.055
0.015 -0.017 0.083
0.019 -0.009 0.071
0.019 -0.007 0.071
0.001 0.003 0.083
0.019 -0.025 0.095
0.015 -0.015 0.087
0.009 -0.003 0.093
0.009 -0.003 0.093
0.015 -0.009 0.077
0.015 -0.017 0.099
0.013 -0.011 0.099
0.009 -0.003 0.097
0.015 -0.013 0.103
0.011 -0.007 0.097
0.017 -0.001 0.107
-0.041 0.029 0.049
-0.037 0.015 0.043
-0.039 0.023 0.053
-0.035 0.035 0.059
-0.031 0.035 0.069
-0.029 0.011 0.057
-0.037 0.027 0.061
-0.035 0.033 0.061
-0.027 0.031 0.073
-0.005 0.007 0.085
-0.011 0.013 0.087
-0.003 0.019 0.095
-0.007 0.023 0.095
-0.037 0.041 0.087
-0.029 0.033 0.071
-0.029 0.035 0.071
-0.035 0.041 0.083
-0.035 0.043 0.085
-0.017 0.017 0.065
-0.019 0.019 0.067
-0.019 0.013 0.073
0.001 0.011 0.063
-0.017 0.017 0.079
-0.019 0.021 0.081
-0.019 0.023 0.083
0.001 0.015 0.095
0.005 0.019 0.045
0.037 -0.005 0.037
0.023 0.005 0.035
0.029 0.001 0.043
0.031 -0.011 0.053
0.031 -0.009 0.051
0.015 0.007 0.045
0.029 0.005 0.041
0.023 0.005 0.035
0.025 -0.011 0.063
0.039 -0.009 0.039
0.037 -0.005 0.037
0.043 -0.017 0.041
0.035 -0.005 0.033
0.037 -0.017 0.061
0.039 -0.023 0.097
0.023 -0.005 0.071
0.039 -0.019 0.095
0.037 -0.017 0.091
0.037 -0.013 0.093
0.035 -0.031 0.103
0.039 -0.023 0.103
0.033 -0.001 0.107
0.039 -0.023 0.097
-0.015 0.033 0.039
0.003 0.035 0.037
-0.025 0.033 0.039
-0.035 0.035 0.057
-0.037 0.033 0.057
-0.005 0.033 0.047
-0.005 0.031 0.053
-0.011 0.031 0.047
-0.001 0.031 0.045
0.005 0.029 0.043
0.003 0.029 0.045
-0.017 0.033 0.039
-0.015 0.027 0.045
-0.003 0.035 0.037
-0.007 0.031 0.035
-0.011 0.035 0.067
-0.011 0.035 0.063
-0.005 0.033 0.045
-0.005 0.033 0.047
-0.029 0.033 0.053
-0.031 0.035 0.053
-0.019 0.033 0.063
-0.011 0.037 0.069
-0.009 0.035 0.075
-0.017 0.035 0.069
-0.001 0.023 0.065
-0.033 0.043 0.085
0.017 0.005 0.039
0.009 0.011 0.051
0.021 0.007 0.061
0.019 0.003 0.065
0.017 0.007 0.069
0.003 0.025 0.089
0.027 0.009 0.097
0.037 -0.007 0.039
0.041 -0.027 0.047
0.043 -0.017 0.051
0.041 -0.025 0.049
0.041 -0.025 0.047
0.041 -0.025 0.055
0.039 -0.031 0.059
0.037 -0.007 0.041
0.041 -0.013 0.053
0.049 -0.021 0.039
0.033 -0.013 0.063
0.021 0.007 0.059
0.019 -0.005 0.063
0.049 -0.019 0.039
0.043 -0.015 0.041
0.049 -0.015 0.035
0.041 -0.013 0.051
0.041 -0.033 0.085
0.035 -0.017 0.073
0.027 -0.003 0.077
0.037 -0.019 0.097
0.035 -0.015 0.091
0.037 -0.021 0.065
0.033 -0.003 0.093
0.041 -0.039 0.105
0.025 -0.005 0.113
0.007 0.029 0.045
0.001 0.029 0.047
-0.023 0.035 0.063
-0.013 0.035 0.065
0.005 0.017 0.039
-0.005 0.033 0.045
-0.001 0.013 0.057
0.003 0.021 0.059
-0.001 0.023 0.065
-0.005 0.033 0.057
0.013 0.017 0.075
-0.003 0.021 0.069
0.001 0.027 0.089
-0.003 0.029 0.089
0.001 0.027 0.089
0.003 0.023 0.091
-0.003 0.027 0.091
-0.011 0.037 0.071
-0.023 0.039 0.081
-0.007 0.035 0.079
-0.023 0.039 0.083
-0.027 0.041 0.083
-0.005 0.033 0.083
0.017 0.009 0.047
0.031 0.003 0.037
0.027 0.007 0.041
0.001 0.019 0.033
0.007 0.031 0.037
0.013 0.015 0.061
0.021 0.005 0.061
0.027 0.009 0.097
0.017 0.011 0.113
0.005 -0.033 0.043
-0.003 -0.009 0.039
-0.001 -0.015 0.043
0.007 -0.041 0.041
0.007 -0.039 0.041
0.007 -0.031 0.047
-0.001 -0.011 0.047
0.011 -0.019 0.053
0.001 -0.003 0.063
0.011 -0.025 0.053
0.021 -0.031 0.063
0.019 -0.025 0.063
0.027 -0.041 0.087
0.035 -0.047 0.091
0.035 -0.047 0.093
0.017 -0.017 0.075
0.003 -0.001 0.079
0.009 -0.003 0.091
0.019 -0.027 0.097
0.011 -0.007 0.099
0.011 -0.007 0.101
0.015 -0.011 0.105
0.021 -0.027 0.101
0.015 -0.017 0.105
0.013 -0.011 0.109
-0.039 0.019 0.041
-0.035 0.013 0.043
-0.037 0.023 0.057
-0.027 0.009 0.039
-0.027 0.003 0.043
-0.029 0.005 0.047
-0.029 0.007 0.045
-0.033 0.013 0.041
-0.039 0.021 0.053
-0.031 0.013 0.045
-0.023 0.019 0.047
-0.027 0.009 0.063
-0.027 0.005 0.061
-0.037 0.023 0.057
-0.021 0.027 0.065
-0.019 0.013 0.073
-0.017 0.017 0.077
-0.019 0.021 0.077
-0.007 0.009 0.087
-0.027 0.029 0.069
-0.031 0.037 0.079
-0.033 0.037 0.085
0.001 -0.007 0.053
-0.001 0.003 0.067
0.001 -0.009 0.049
0.003 0.011 0.091
-0.005 -0.013 0.037
-0.003 -0.019 0.035
-0.003 -0.017 0.037
0.007 -0.039 0.037
0.005 -0.033 0.041
0.003 -0.017 0.043
0.007 -0.027 0.037
0.011 -0.029 0.049
0.021 -0.029 0.063
-0.001 -0.001 0.063
-0.003 -0.013 0.041
0.007 -0.023 0.049
0.003 -0.005 0.039
0.001 -0.003 0.045
0.021 -0.017 0.059
0.021 -0.015 0.059
0.003 -0.007 0.057
0.023 -0.035 0.085
0.029 -0.041 0.089
0.021 -0.021 0.079
0.019 -0.021 0.075
0.015 -0.015 0.075
0.015 -0.019 0.087
0.015 -0.017 0.085
0.021 -0.029 0.095
0.009 -0.003 0.087
0.009 -0.003 0.093
0.015 -0.019 0.085
0.023 -0.031 0.099
0.031 -0.039 0.103
0.015 -0.009 0.109
0.021 -0.025 0.101
0.015 -0.017 0.105
0.019 -0.001 0.105
-0.033 0.027 0.035
-0.039 0.031 0.055
-0.021 0.007 0.033
-0.037 0.017 0.047
-0.037 0.015 0.039
-0.031 0.017 0.049
-0.037 0.019 0.051
-0.029 0.033 0.039
-0.019 0.023 0.063
-0.037 0.027 0.061
-0.037 0.029 0.061
-0.003 0.013 0.071
-0.021 0.027 0.077
-0.027 0.033 0.079
-0.033 0.037 0.085
-0.033 0.019 0.053
-0.037 0.031 0.045
0.003 0.013 0.061
-0.017 0.017 0.071
-0.011 0.013 0.081
0.001 0.013 0.067
-0.019 0.019 0.071
-0.001 0.007 0.089
-0.011 0.025 0.091
0.011 -0.043 0.041
0.025 -0.035 0.037
0.023 -0.037 0.045
0.019 -0.033 0.055
0.025 -0.033 0.063
0.031 -0.037 0.039
0.009 -0.043 0.039
0.007 -0.009 0.059
0.017 -0.023 0.061
0.031 -0.035 0.037
0.035 -0.037 0.049
0.043 -0.027 0.037
0.037 -0.047 0.087
0.001 -0.001 0.071
0.017 -0.017 0.071
0.021 -0.027 0.071
0.027 -0.039 0.095
0.037 -0.031 0.065
0.033 -0.031 0.069
0.029 -0.039 0.095
0.025 -0.039 0.099
0.013 -0.011 0.109
0.029 -0.043 0.103
0.029 -0.043 0.101
0.031 -0.029 0.105
-0.029 0.011 0.035
-0.017 -0.005 0.037
-0.021 0.003 0.037
-0.033 0.017 0.049
-0.009 -0.003 0.039
-0.009 -0.003 0.039
-0.005 0.007 0.041
-0.029 0.011 0.035
-0.017 0.005 0.041
-0.005 0.001 0.037
-0.023 0.003 0.049
-0.027 0.009 0.063
-0.019 0.009 0.063
-0.007 0.011 0.053
-0.003 0.013 0.055
-0.015 0.017 0.055
-0.029 0.027 0.063
-0.013 0.015 0.063
-0.001 0.003 0.069
-0.021 0.011 0.069
-0.005 0.009 0.073
-0.009 0.013 0.089
-0.029 0.029 0.069
-0.027 0.031 0.071
-0.027 0.035 0.075
-0.011 0.017 0.069
0.019 -0.037 0.039
-0.001 -0.011 0.045
0.011 -0.043 0.043
0.001 -0.005 0.057
0.003 -0.007 0.057
0.011 -0.001 0.077
0.015 -0.003 0.071
-0.001 0.003 0.079
0.005 0.005 0.087
0.023 -0.029 0.099
0.015 -0.011 0.109
0.001 -0.023 0.039
-0.001 -0.001 0.065
0.013 -0.039 0.031
0.023 -0.029 0.031
0.025 -0.029 0.031
0.019 -0.037 0.033
0.025 -0.031 0.033
0.033 -0.031 0.033
0.011 -0.043 0.039
0.017 -0.037 0.043
0.015 -0.041 0.037
0.023 -0.035 0.057
0.031 -0.037 0.057
0.041 -0.031 0.047
0.049 -0.027 0.035
0.041 -0.031 0.049
0.041 -0.031 0.055
0.007 -0.007 0.065
0.019 -0.023 0.073
0.017 -0.019 0.075
0.039 -0.027 0.065
0.041 -0.033 0.095
0.035 -0.043 0.103
0.021 -0.033 0.097
0.019 -0.027 0.097
0.017 -0.017 0.105
0.035 -0.043 0.103
-0.035 0.015 0.045
-0.029 0.005 0.057
-0.021 0.001 0.035
-0.025 0.003 0.041
-0.009 0.005 0.047
-0.029 0.003 0.049
-0.023 0.005 0.061
-0.025 0.007 0.061
0.003 -0.007 0.057
-0.001 -0.015 0.041
-0.021 0.005 0.057
-0.019 0.009 0.061
-0.001 -0.001 0.067
-0.017 0.011 0.067
-0.027 0.031 0.073
-0.015 0.017 0.079
0.001 0.003 0.083
-0.033 0.037 0.083
-0.027 0.035 0.077
0.023 -0.037 0.045
0.015 -0.035 0.045
0.007 -0.007 0.061
0.021 -0.035 0.041
0.021 -0.023 0.075
0.017 -0.019 0.075
0.017 -0.019 0.075
0.005 0.005 0.087
0.023 -0.021 0.079
0.031 -0.047 0.083
0.023 -0.027 0.093
0.005 0.009 0.091
0.001 0.015 0.095
0.005 0.021 0.051
0.029 -0.003 0.043
0.029 0.003 0.043
0.027 0.005 0.043
0.031 -0.013 0.061
0.037 -0.013 0.055
0.027 -0.005 0.051
0.021 0.007 0.047
0.017 0.011 0.053
0.021 -0.011 0.057
0.033 -0.011 0.071
0.019 -0.005 0.061
0.019 -0.007 0.061
0.023 -0.001 0.057
0.029 -0.013 0.059
0.021 -0.005 0.057
0.047 -0.015 0.037
0.045 -0.021 0.041
0.035 -0.005 0.043
0.043 -0.019 0.051
0.041 -0.011 0.051
0.041 -0.027 0.097
0.041 -0.035 0.083
0.041 -0.037 0.089
0.035 -0.013 0.083
0.035 -0.007 0.095
0.035 -0.007 0.101
0.035 -0.005 0.099
0.035 -0.005 0.103
0.037 -0.027 0.087
0.039 -0.031 0.101
0.037 -0.031 0.103
0.033 -0.025 0.105
0.033 -0.021 0.105
0.027 -0.007 0.111
0.025 -0.005 0.113
0.003 0.027 0.047
-0.029 0.031 0.045
-0.005 0.033 0.059
-0.003 0.021 0.067
0.005 0.025 0.079
-0.035 0.039 0.087
-0.021 0.035 0.065
-0.011 0.035 0.067
-0.005 0.035 0.073
0.011 0.011 0.053
0.009 0.023 0.043
0.005 0.021 0.043
0.007 0.023 0.043
0.015 0.013 0.057
0.019 0.009 0.063
0.005 0.021 0.053
0.005 0.037 0.037
0.019 0.009 0.067
0.007 0.023 0.079
0.013 0.011 0.083
0.011 0.009 0.087
