0.033 -0.003 0.041
0.033 -0.003 0.043
0.027 -0.001 0.047
0.023 0.007 0.043
0.013 0.005 0.041
-0.003 0.001 0.035
0.025 0.001 0.047
0.025 0.003 0.051
0.017 0.007 0.069
0.033 -0.003 0.041
0.041 -0.011 0.039
0.039 -0.011 0.035
0.033 0.001 0.037
0.033 -0.005 0.031
0.041 -0.013 0.043
0.041 -0.025 0.049
0.041 -0.013 0.051
0.041 -0.017 0.053
0.045 -0.021 0.041
0.041 -0.025 0.043
0.039 -0.031 0.041
0.041 -0.023 0.049
0.041 -0.029 0.045
0.041 -0.029 0.057
0.039 -0.031 0.041
0.039 -0.033 0.043
0.043 -0.015 0.041
0.041 -0.011 0.047
0.035 -0.005 0.043
0.041 -0.013 0.053
0.029 -0.005 0.049
0.049 -0.017 0.039
0.025 0.005 0.051
0.029 -0.005 0.047
0.037 -0.017 0.059
0.023 -0.011 0.055
0.025 -0.013 0.057
0.039 -0.023 0.065
0.035 -0.015 0.061
0.033 -0.013 0.061
0.019 0.007 0.067
0.019 -0.005 0.063
0.027 -0.013 0.057
0.033 -0.013 0.063
0.019 -0.007 0.061
0.019 -0.007 0.061
0.049 -0.021 0.039
0.045 -0.015 0.035
0.049 -0.019 0.039
0.043 -0.019 0.041
0.041 -0.021 0.047
0.051 -0.021 0.037
0.043 -0.013 0.039
0.049 -0.015 0.037
0.039 -0.031 0.063
0.041 -0.025 0.059
0.039 -0.017 0.057
0.039 -0.009 0.051
0.041 -0.033 0.085
0.039 -0.025 0.097
0.039 -0.025 0.097
0.041 -0.027 0.097
0.043 -0.041 0.085
0.043 -0.045 0.085
0.043 -0.039 0.083
0.043 -0.039 0.085
0.041 -0.039 0.089
0.041 -0.041 0.089
0.035 -0.019 0.073
0.035 -0.025 0.071
0.033 -0.021 0.075
0.035 -0.023 0.073
0.031 -0.017 0.079
0.031 -0.013 0.079
0.031 -0.011 0.081
0.033 -0.021 0.075
0.017 0.003 0.071
0.013 0.005 0.079
0.019 -0.001 0.065
0.021 -0.003 0.071
0.029 -0.007 0.071
0.023 -0.001 0.077
0.027 -0.003 0.077
0.035 -0.011 0.087
0.033 -0.027 0.089
0.035 -0.011 0.085
0.035 -0.011 0.089
0.037 -0.015 0.097
0.031 -0.005 0.083
0.031 -0.003 0.083
0.033 -0.003 0.087
0.031 0.001 0.087
0.033 -0.001 0.091
0.029 0.007 0.097
0.031 0.003 0.093
0.029 0.003 0.091
0.029 0.007 0.095
0.029 0.007 0.097
0.031 -0.003 0.083
0.031 -0.003 0.085
0.031 0.003 0.095
0.039 -0.025 0.065
0.035 -0.025 0.071
0.037 -0.021 0.067
0.035 -0.017 0.073
0.039 -0.029 0.083
0.037 -0.017 0.083
0.041 -0.025 0.095
0.037 -0.021 0.089
0.037 -0.015 0.093
0.035 -0.009 0.095
0.043 -0.035 0.101
0.039 -0.035 0.103
0.043 -0.037 0.097
0.045 -0.037 0.101
0.035 -0.009 0.103
0.033 -0.009 0.105
0.035 -0.003 0.105
0.035 -0.003 0.105
0.031 0.003 0.097
0.033 0.001 0.097
0.033 -0.001 0.099
0.033 -0.009 0.105
0.023 -0.001 0.107
0.023 -0.003 0.109
0.041 -0.029 0.099
0.041 -0.029 0.099
0.039 -0.023 0.103
0.039 -0.021 0.101
0.033 -0.019 0.105
0.037 -0.015 0.097
0.037 -0.013 0.097
0.035 -0.007 0.103
0.035 -0.007 0.105
0.009 0.027 0.039
0.003 0.035 0.039
0.009 0.029 0.037
0.009 0.029 0.037
0.001 0.021 0.033
0.001 0.021 0.033
-0.015 0.035 0.031
0.003 0.027 0.051
0.001 0.031 0.043
-0.003 0.031 0.045
-0.025 0.031 0.043
-0.025 0.031 0.043
-0.031 0.031 0.041
-0.031 0.033 0.047
-0.001 0.031 0.057
-0.007 0.035 0.067
0.005 0.017 0.041
0.003 0.013 0.039
0.005 0.021 0.047
0.009 0.025 0.043
0.005 0.023 0.045
0.003 0.013 0.049
0.005 0.025 0.049
-0.005 0.005 0.037
-0.007 0.005 0.039
0.009 0.023 0.041
0.005 0.015 0.041
0.001 0.011 0.037
-0.005 0.005 0.043
0.003 0.013 0.043
0.009 0.031 0.041
0.003 0.027 0.051
0.003 0.027 0.051
0.001 0.029 0.053
-0.007 0.033 0.047
-0.005 0.033 0.047
-0.029 0.029 0.045
-0.005 0.033 0.045
0.007 0.031 0.037
0.007 0.033 0.039
-0.001 0.033 0.043
-0.001 0.013 0.057
0.003 0.019 0.055
0.001 0.023 0.061
0.005 0.017 0.051
0.005 0.019 0.053
0.001 0.011 0.051
-0.001 0.015 0.059
0.001 0.029 0.057
-0.001 0.029 0.065
-0.003 0.031 0.059
0.003 0.027 0.053
-0.003 0.031 0.053
-0.001 0.019 0.063
-0.005 0.033 0.059
-0.005 0.033 0.057
-0.031 0.035 0.057
-0.025 0.037 0.063
-0.021 0.035 0.035
-0.017 0.035 0.037
-0.017 0.033 0.039
-0.011 0.033 0.033
0.005 0.037 0.037
-0.031 0.033 0.049
-0.027 0.033 0.057
-0.005 0.033 0.061
0.015 0.013 0.077
0.015 0.007 0.079
0.015 0.013 0.079
-0.003 0.029 0.069
-0.007 0.035 0.069
-0.005 0.035 0.071
-0.007 0.035 0.067
-0.001 0.029 0.077
0.001 0.027 0.077
-0.005 0.033 0.075
-0.007 0.035 0.077
-0.001 0.031 0.077
0.011 0.011 0.085
0.011 0.017 0.085
0.003 0.027 0.083
0.005 0.023 0.089
-0.007 0.033 0.087
-0.001 0.023 0.093
0.001 0.019 0.095
-0.007 0.025 0.095
-0.021 0.035 0.065
-0.021 0.037 0.071
-0.021 0.037 0.073
-0.025 0.039 0.073
-0.013 0.035 0.079
-0.011 0.035 0.081
-0.009 0.035 0.081
-0.009 0.035 0.065
-0.007 0.035 0.069
-0.023 0.037 0.083
-0.021 0.037 0.081
-0.029 0.043 0.081
-0.031 0.043 0.083
-0.029 0.037 0.089
-0.003 0.033 0.081
0.029 0.003 0.031
0.021 0.007 0.043
0.029 0.005 0.035
0.029 0.005 0.039
0.023 0.007 0.041
0.003 0.017 0.037
0.019 0.009 0.055
0.019 0.009 0.057
0.015 0.013 0.057
0.017 0.009 0.049
0.017 0.013 0.065
0.019 0.009 0.053
0.003 0.019 0.055
0.013 0.017 0.069
0.013 0.017 0.069
0.015 0.015 0.071
0.017 0.005 0.075
0.015 0.003 0.077
0.017 0.011 0.069
0.011 0.017 0.069
0.009 0.021 0.075
0.001 0.027 0.077
0.005 0.025 0.079
0.015 0.003 0.081
0.011 0.009 0.085
0.009 0.013 0.089
0.009 0.011 0.091
0.021 0.001 0.081
0.029 0.003 0.087
0.029 0.005 0.089
0.029 0.005 0.095
0.009 0.021 0.085
0.011 0.019 0.081
0.011 0.019 0.083
0.003 0.017 0.093
0.029 0.007 0.101
-0.003 -0.009 0.041
-0.023 0.005 0.061
-0.013 -0.003 0.037
0.007 -0.033 0.045
0.007 -0.025 0.049
0.007 -0.013 0.055
0.011 -0.015 0.055
0.011 -0.011 0.057
0.005 -0.003 0.075
-0.003 -0.009 0.041
0.003 -0.007 0.055
-0.013 0.015 0.085
-0.007 0.009 0.087
-0.011 0.013 0.083
-0.011 0.015 0.089
0.007 -0.037 0.045
0.009 -0.037 0.045
0.011 -0.035 0.045
0.009 -0.039 0.045
0.011 -0.029 0.049
0.013 -0.029 0.055
0.017 -0.025 0.057
0.023 -0.035 0.055
0.023 -0.035 0.057
0.023 -0.031 0.067
0.025 -0.033 0.065
0.021 -0.029 0.067
0.007 -0.023 0.049
-0.001 -0.021 0.037
0.005 -0.019 0.047
0.011 -0.031 0.047
0.003 -0.019 0.043
0.011 -0.021 0.053
-0.001 -0.009 0.045
0.001 -0.005 0.061
0.005 -0.013 0.051
0.009 -0.027 0.051
0.019 -0.021 0.059
0.003 -0.011 0.053
0.003 -0.011 0.051
0.003 -0.009 0.055
0.003 -0.003 0.073
0.003 -0.005 0.063
-0.001 -0.001 0.065
-0.001 0.001 0.065
-0.001 -0.001 0.071
0.001 0.001 0.081
0.015 -0.011 0.075
0.007 0.001 0.081
0.001 0.009 0.089
0.005 -0.001 0.079
0.007 -0.001 0.079
0.015 -0.015 0.075
0.015 -0.013 0.077
0.009 -0.005 0.093
0.009 -0.003 0.089
0.007 0.007 0.089
0.007 0.007 0.089
0.003 0.011 0.091
0.017 0.001 0.085
0.009 0.001 0.097
0.013 -0.013 0.095
0.011 -0.009 0.101
0.017 -0.001 0.091
0.023 -0.037 0.099
0.027 -0.035 0.101
0.025 -0.029 0.103
0.031 -0.037 0.103
0.031 -0.039 0.103
0.017 -0.023 0.085
0.019 -0.023 0.089
0.017 -0.019 0.075
0.015 -0.019 0.087
0.017 -0.023 0.087
0.015 -0.017 0.083
0.013 -0.009 0.103
0.001 -0.001 0.077
0.011 -0.007 0.085
0.007 0.003 0.083
0.009 -0.003 0.087
0.011 -0.001 0.077
0.009 0.001 0.081
0.011 0.003 0.085
0.017 0.001 0.087
0.019 0.001 0.093
0.015 -0.019 0.091
0.021 -0.031 0.085
0.015 -0.017 0.105
0.017 -0.021 0.091
0.015 -0.019 0.091
0.021 -0.027 0.091
0.019 -0.025 0.099
0.015 -0.017 0.105
0.011 -0.011 0.091
0.013 -0.007 0.103
0.019 -0.007 0.101
0.025 0.001 0.093
0.015 0.005 0.111
0.017 0.005 0.111
0.013 -0.013 0.101
0.013 -0.009 0.103
0.015 -0.005 0.101
0.017 -0.013 0.107
0.031 -0.023 0.105
0.023 -0.011 0.111
0.023 -0.009 0.113
0.017 -0.001 0.109
0.021 -0.003 0.109
0.019 0.003 0.111
0.029 -0.043 0.103
0.031 -0.035 0.105
0.037 -0.035 0.107
0.031 -0.029 0.105
0.023 -0.025 0.105
0.009 -0.003 0.103
0.013 -0.003 0.101
0.019 -0.003 0.099
0.017 -0.001 0.107
0.019 -0.007 0.101
0.015 -0.011 0.109
0.019 0.001 0.111
0.023 -0.007 0.111
0.021 -0.003 0.109
0.031 -0.027 0.105
0.031 -0.027 0.105
0.031 -0.019 0.105
0.023 -0.007 0.115
0.025 -0.005 0.111
0.023 -0.001 0.109
-0.037 0.029 0.061
-0.029 0.033 0.071
-0.041 0.027 0.049
-0.039 0.017 0.045
-0.035 0.025 0.061
-0.029 0.011 0.043
-0.033 0.013 0.045
-0.029 0.011 0.051
-0.025 0.013 0.045
-0.031 0.007 0.057
-0.029 0.009 0.061
-0.027 0.011 0.051
-0.023 0.013 0.057
-0.023 0.009 0.065
-0.021 0.013 0.047
-0.017 0.017 0.067
-0.019 0.019 0.071
-0.029 0.025 0.061
-0.039 0.031 0.053
-0.037 0.033 0.059
-0.031 0.037 0.065
-0.033 0.019 0.053
-0.031 0.019 0.051
-0.027 0.017 0.047
-0.037 0.039 0.087
-0.031 0.029 0.067
-0.029 0.039 0.087
-0.029 0.039 0.087
-0.029 0.005 0.059
-0.027 0.007 0.061
-0.025 0.013 0.061
-0.023 0.013 0.061
-0.025 0.013 0.061
-0.025 0.007 0.063
-0.019 0.019 0.071
-0.017 0.021 0.087
-0.017 0.021 0.049
-0.021 0.023 0.065
-0.031 0.023 0.059
-0.019 0.019 0.067
-0.019 0.021 0.073
-0.029 0.035 0.087
-0.015 0.033 0.087
-0.035 0.035 0.057
-0.029 0.033 0.035
-0.037 0.043 0.079
-0.037 0.043 0.081
-0.031 0.037 0.065
-0.037 0.039 0.087
-0.013 0.037 0.075
-0.023 0.013 0.067
-0.019 0.019 0.079
-0.019 0.019 0.075
-0.019 0.019 0.079
-0.017 0.025 0.087
-0.013 0.033 0.085
-0.011 0.013 0.087
-0.007 0.013 0.091
-0.013 0.031 0.089
-0.007 0.023 0.095
-0.011 0.031 0.089
-0.035 0.043 0.087
-0.029 0.037 0.067
-0.037 0.041 0.087
-0.035 0.039 0.087
-0.033 0.041 0.087
-0.031 0.035 0.087
-0.027 0.035 0.087
-0.035 0.043 0.085
-0.029 0.035 0.087
-0.033 0.039 0.087
-0.017 0.035 0.081
-0.017 0.033 0.087
-0.031 0.041 0.085
-0.015 0.017 0.087
-0.019 0.027 0.083
-0.013 0.019 0.089
-0.017 0.027 0.087
-0.011 0.021 0.091
-0.007 0.021 0.093
-0.001 0.017 0.095
-0.005 0.023 0.095
-0.021 0.029 0.079
-0.019 0.033 0.083
-0.013 0.035 0.079
-0.017 0.033 0.087
-0.001 0.001 0.061
-0.013 0.021 0.089
-0.011 0.021 0.091
-0.009 0.021 0.091
0.001 0.011 0.091
-0.001 0.017 0.095
-0.017 0.025 0.087
-0.015 0.025 0.089
-0.007 0.023 0.095
-0.001 0.003 0.081
0.005 0.017 0.091
-0.007 0.025 0.095
-0.005 0.025 0.093
0.009 0.013 0.089
-0.001 0.011 0.091
-0.001 0.015 0.093
0.001 0.015 0.095
0.017 0.001 0.091
0.005 0.021 0.089
-0.003 0.027 0.091
0.015 0.007 0.113
0.017 0.011 0.113
0.017 0.009 0.113
0.015 0.005 0.111
0.019 0.005 0.111
0.017 0.011 0.113
