0.017 -0.035 0.031
0.019 -0.035 0.033
0.035 -0.025 0.033
0.027 -0.037 0.043
0.019 -0.037 0.033
0.023 -0.035 0.037
0.015 -0.033 0.047
0.037 -0.047 0.085
0.037 -0.049 0.093
0.029 -0.029 0.071
0.035 -0.023 0.073
0.043 -0.041 0.085
0.035 -0.019 0.071
0.023 -0.035 0.037
0.033 -0.035 0.037
0.009 -0.031 0.047
0.035 -0.037 0.049
0.031 -0.037 0.047
-0.021 0.005 0.055
0.035 -0.035 0.061
0.041 -0.025 0.053
0.031 -0.037 0.041
0.033 -0.035 0.063
0.021 -0.023 0.077
0.027 -0.031 0.069
0.035 -0.041 0.083
0.033 -0.025 0.073
0.035 -0.021 0.071
0.041 -0.031 0.049
0.041 -0.031 0.051
0.041 -0.023 0.053
0.041 -0.023 0.053
-0.017 -0.005 0.037
0.001 -0.013 0.049
0.007 -0.015 0.051
0.025 -0.027 0.105
0.033 -0.019 0.105
0.043 -0.015 0.051
0.037 -0.015 0.095
0.033 -0.025 0.105
0.023 -0.023 0.105
0.025 -0.031 0.099
0.011 -0.009 0.101
0.037 -0.021 0.103
0.037 -0.017 0.103
0.035 -0.003 0.107
0.021 -0.027 0.103
0.027 -0.029 0.103
0.011 -0.003 0.103
0.021 -0.009 0.109
-0.011 0.017 0.089
-0.023 0.011 0.067
-0.029 0.007 0.061
0.003 0.003 0.083
0.001 0.023 0.091
0.003 0.025 0.089
-0.013 0.015 0.087
-0.013 0.015 0.087
-0.031 0.037 0.089
-0.033 0.043 0.085
-0.025 0.033 0.083
0.029 -0.009 0.105
0.015 0.005 0.111
0.019 -0.001 0.109
0.015 0.011 0.113
0.017 0.001 0.109
0.001 -0.005 0.049
0.007 -0.037 0.033
0.013 -0.031 0.053
0.015 -0.027 0.057
0.019 -0.025 0.069
-0.001 -0.009 0.043
0.029 -0.043 0.089
0.029 -0.039 0.089
0.025 -0.029 0.103
0.005 -0.003 0.075
-0.005 0.005 0.077
0.015 -0.015 0.083
0.027 -0.029 0.103
0.023 -0.027 0.103
0.009 0.001 0.103
0.021 -0.009 0.109
-0.037 0.015 0.043
-0.031 0.007 0.049
-0.027 0.011 0.049
-0.029 0.029 0.069
-0.029 0.033 0.035
-0.011 0.013 0.083
-0.033 0.039 0.077
-0.021 0.029 0.075
0.017 0.005 0.107
0.005 0.005 0.045
0.011 0.005 0.039
0.033 0.003 0.033
0.037 -0.017 0.067
0.011 0.001 0.035
0.021 -0.005 0.059
0.023 -0.013 0.059
0.025 -0.007 0.067
0.043 -0.015 0.041
0.043 -0.015 0.035
0.037 -0.013 0.055
0.043 -0.037 0.085
0.017 0.005 0.073
0.019 0.001 0.081
0.033 -0.003 0.087
0.031 0.001 0.085
0.031 0.005 0.097
0.035 -0.007 0.093
0.033 -0.001 0.093
0.017 0.001 0.089
0.035 -0.015 0.091
0.035 -0.003 0.107
0.011 -0.001 0.099
0.023 -0.003 0.103
-0.037 0.031 0.043
0.001 0.033 0.041
-0.025 0.025 0.045
-0.011 0.033 0.043
-0.021 0.037 0.071
-0.029 0.043 0.079
0.009 0.031 0.041
0.017 0.011 0.055
0.017 0.011 0.073
0.009 0.017 0.069
0.003 0.027 0.083
0.005 0.025 0.087
0.029 0.007 0.103
0.021 0.005 0.109
0.043 -0.013 0.039
0.031 -0.011 0.063
0.039 -0.011 0.041
0.037 -0.029 0.067
0.039 -0.019 0.093
0.033 -0.007 0.089
0.031 0.003 0.099
0.031 -0.013 0.105
0.035 -0.003 0.105
0.007 0.031 0.037
0.005 0.035 0.037
-0.001 0.031 0.059
-0.011 0.035 0.037
-0.025 0.035 0.061
-0.001 0.025 0.073
-0.001 0.029 0.075
0.003 0.017 0.093
-0.011 0.037 0.069
-0.005 0.035 0.071
-0.023 0.039 0.081
0.009 0.021 0.079
0.037 -0.035 0.055
0.041 -0.025 0.049
0.037 -0.005 0.035
0.041 -0.011 0.045
0.043 -0.037 0.085
0.029 -0.005 0.075
0.037 -0.011 0.095
0.033 -0.011 0.069
0.037 -0.021 0.085
0.039 -0.021 0.095
0.035 -0.011 0.089
0.025 0.005 0.053
0.019 0.007 0.067
0.003 0.025 0.051
0.017 -0.001 0.069
0.029 0.003 0.039
0.017 0.011 0.055
0.025 0.001 0.049
0.005 0.035 0.037
0.019 0.005 0.065
0.007 -0.037 0.041
0.005 -0.033 0.043
0.015 -0.007 0.063
0.013 -0.031 0.053
0.015 -0.007 0.063
0.021 -0.031 0.085
0.001 -0.001 0.075
0.023 -0.023 0.105
0.025 -0.007 0.115
0.023 -0.007 0.115
-0.027 0.015 0.045
-0.021 0.025 0.079
-0.003 0.029 0.089
-0.035 0.043 0.087
-0.017 0.029 0.087
-0.005 0.013 0.059
-0.011 0.019 0.091
-0.009 0.021 0.091
0.039 -0.029 0.041
0.051 -0.019 0.035
0.017 -0.039 0.037
0.033 -0.037 0.053
0.033 -0.037 0.057
0.037 -0.035 0.041
0.039 -0.035 0.051
0.049 -0.025 0.035
0.041 -0.025 0.045
0.049 -0.015 0.037
0.039 -0.009 0.037
0.037 -0.019 0.067
0.029 -0.025 0.091
0.035 -0.007 0.093
0.033 -0.003 0.095
0.035 -0.009 0.103
0.025 0.001 0.051
0.021 0.005 0.063
0.041 -0.015 0.053
0.021 -0.007 0.057
0.025 0.005 0.049
0.019 0.003 0.067
0.033 -0.001 0.091
-0.001 0.029 0.065
0.031 0.001 0.041
0.025 0.003 0.045
0.009 0.023 0.041
0.017 0.013 0.071
0.033 -0.009 0.085
0.033 -0.001 0.091
0.033 -0.003 0.109
-0.005 -0.017 0.035
-0.029 0.007 0.061
0.007 -0.037 0.045
0.021 -0.029 0.065
0.005 -0.001 0.079
-0.001 0.015 0.093
0.017 0.001 0.085
0.021 -0.031 0.097
0.025 -0.037 0.101
0.005 -0.001 0.079
0.013 -0.013 0.099
0.023 -0.031 0.089
0.015 -0.009 0.109
0.013 -0.011 0.103
0.023 -0.007 0.113
0.013 -0.013 0.107
-0.029 0.011 0.043
-0.025 0.011 0.065
-0.023 0.011 0.067
-0.039 0.025 0.057
-0.033 0.023 0.059
-0.019 0.019 0.075
-0.017 0.031 0.089
-0.013 0.031 0.089
-0.009 0.031 0.089
-0.023 0.037 0.085
-0.031 0.035 0.087
-0.013 0.017 0.089
-0.005 0.019 0.093
-0.015 0.035 0.071
-0.011 0.021 0.091
0.003 0.015 0.095
0.015 -0.035 0.045
0.037 -0.031 0.037
0.011 -0.037 0.045
0.023 -0.037 0.053
0.041 -0.031 0.047
0.013 -0.031 0.051
0.041 -0.027 0.039
0.045 -0.025 0.039
0.051 -0.017 0.037
0.039 -0.025 0.065
0.041 -0.025 0.059
0.041 -0.043 0.089
0.029 -0.031 0.089
0.037 -0.031 0.065
0.043 -0.029 0.097
0.041 -0.041 0.103
0.033 -0.019 0.105
-0.027 0.003 0.055
-0.027 0.005 0.059
-0.025 0.009 0.065
-0.013 0.005 0.049
-0.013 0.005 0.047
-0.017 0.007 0.053
-0.027 0.025 0.051
0.019 -0.027 0.089
-0.013 0.017 0.073
-0.011 0.019 0.091
-0.015 0.021 0.089
0.035 -0.027 0.071
0.037 -0.035 0.089
0.027 -0.027 0.105
-0.015 -0.007 0.033
0.019 -0.021 0.059
0.005 -0.007 0.063
0.017 -0.033 0.049
0.025 -0.041 0.085
0.029 -0.033 0.067
0.003 -0.003 0.071
0.015 -0.007 0.081
0.029 -0.027 0.105
0.023 -0.013 0.107
-0.029 0.011 0.043
-0.023 0.003 0.043
-0.041 0.023 0.051
-0.033 0.019 0.053
-0.029 0.005 0.061
-0.017 0.025 0.057
-0.037 0.021 0.053
-0.023 0.013 0.067
-0.019 0.029 0.083
-0.029 0.003 0.055
-0.029 0.009 0.061
-0.031 0.021 0.053
-0.003 0.005 0.079
-0.001 -0.001 0.059
0.003 -0.029 0.035
-0.003 -0.015 0.037
-0.005 -0.013 0.037
0.017 -0.033 0.055
0.001 -0.021 0.039
0.001 -0.021 0.039
0.021 -0.031 0.061
0.017 -0.021 0.069
0.015 -0.017 0.087
0.019 -0.023 0.091
0.017 -0.021 0.095
0.009 -0.005 0.095
0.011 -0.011 0.093
0.017 -0.013 0.071
0.011 -0.007 0.085
0.021 -0.031 0.097
0.009 -0.003 0.097
-0.041 0.023 0.041
-0.025 0.009 0.035
-0.027 0.013 0.057
-0.029 0.033 0.037
-0.031 0.033 0.045
-0.023 0.013 0.067
-0.001 0.001 0.069
-0.003 0.003 0.071
-0.017 0.021 0.087
-0.031 0.037 0.089
-0.039 0.031 0.057
0.015 0.007 0.109
0.011 -0.043 0.043
-0.019 0.011 0.071
-0.017 0.017 0.081
0.007 -0.019 0.049
0.015 -0.029 0.057
-0.017 0.021 0.087
0.023 0.007 0.041
-0.005 0.033 0.083
0.021 -0.027 0.091
0.023 -0.019 0.105
0.021 -0.027 0.071
0.017 -0.019 0.077
-0.009 0.015 0.091
0.019 -0.027 0.089
0.011 -0.001 0.089
0.029 -0.027 0.105
0.021 -0.025 0.103
0.023 -0.015 0.105
0.025 -0.005 0.109
-0.025 0.035 0.035
-0.037 0.031 0.045
-0.041 0.027 0.053
-0.035 0.033 0.061
-0.031 0.037 0.061
-0.031 0.035 0.053
-0.029 0.043 0.081
-0.027 0.039 0.087
-0.031 0.041 0.085
-0.001 0.029 0.087
-0.001 0.029 0.087
0.047 -0.025 0.039
0.039 -0.031 0.059
0.019 -0.029 0.085
0.031 -0.039 0.105
0.025 -0.029 0.103
0.037 -0.037 0.107
0.037 -0.037 0.107
-0.033 0.013 0.045
-0.033 0.021 0.055
-0.039 0.027 0.057
-0.011 -0.003 0.039
-0.007 0.003 0.039
-0.009 0.005 0.045
-0.001 0.011 0.049
-0.017 0.021 0.087
-0.003 0.005 0.083
-0.023 0.035 0.083
0.009 -0.007 0.063
0.025 -0.015 0.105
0.005 0.009 0.091
0.009 -0.043 0.039
0.001 -0.019 0.041
0.005 -0.033 0.039
0.003 -0.007 0.059
0.003 -0.007 0.061
0.015 -0.007 0.063
0.033 -0.035 0.037
0.019 -0.025 0.069
0.021 -0.031 0.097
-0.005 -0.011 0.039
-0.011 0.013 0.051
-0.017 0.005 0.051
-0.001 -0.001 0.057
-0.025 0.031 0.073
-0.023 0.031 0.073
-0.007 0.009 0.083
-0.005 -0.011 0.039
0.009 -0.039 0.045
0.019 -0.033 0.049
0.015 -0.029 0.057
-0.003 0.005 0.079
0.007 0.005 0.085
0.011 0.003 0.083
0.009 -0.043 0.041
0.003 -0.011 0.053
0.033 -0.037 0.051
0.035 -0.041 0.083
0.017 -0.019 0.077
0.027 -0.047 0.083
0.025 -0.039 0.097
-0.029 0.011 0.035
-0.005 -0.015 0.035
-0.017 0.003 0.047
0.013 -0.041 0.043
-0.025 0.003 0.051
-0.017 0.013 0.069
-0.007 0.009 0.087
-0.005 0.013 0.091
0.003 -0.005 0.067
-0.007 0.013 0.075
0.019 -0.037 0.041
0.019 -0.021 0.077
0.001 0.005 0.085
0.009 -0.001 0.087
0.029 -0.043 0.103
-0.003 -0.017 0.037
0.001 -0.019 0.041
0.015 -0.023 0.055
0.037 -0.043 0.093
0.013 -0.015 0.095
0.029 -0.033 0.089
0.031 -0.029 0.105
0.025 -0.027 0.105
0.021 -0.021 0.105
-0.033 0.017 0.049
-0.035 0.021 0.055
-0.009 0.005 0.047
-0.009 0.005 0.047
-0.037 0.015 0.045
-0.025 0.007 0.063
-0.021 0.009 0.067
-0.019 0.027 0.057
-0.031 0.023 0.059
-0.021 0.013 0.071
-0.021 0.013 0.071
-0.019 0.019 0.069
-0.021 0.029 0.077
0.009 -0.015 0.053
0.005 0.005 0.087
-0.007 0.013 0.091
-0.039 0.031 0.049
0.017 -0.023 0.057
-0.041 0.023 0.051
-0.041 0.021 0.047
-0.015 0.025 0.047
-0.005 0.007 0.077
-0.017 0.023 0.085
-0.021 0.023 0.079
-0.019 0.021 0.083
0.015 -0.009 0.107
0.015 -0.017 0.099
-0.037 0.027 0.059
-0.037 0.029 0.041
-0.035 0.027 0.037
-0.039 0.025 0.057
-0.039 0.031 0.057
-0.037 0.033 0.057
-0.033 0.029 0.065
-0.031 0.035 0.069
-0.035 0.035 0.053
-0.015 0.033 0.063
-0.029 0.035 0.077
-0.029 0.043 0.081
-0.007 0.031 0.089
0.031 -0.009 0.051
0.035 -0.015 0.059
0.039 -0.017 0.057
0.041 -0.025 0.059
0.037 -0.027 0.067
0.021 -0.011 0.057
0.021 -0.009 0.057
0.029 -0.011 0.061
0.043 -0.043 0.087
0.041 -0.035 0.089
0.031 -0.011 0.079
0.029 -0.005 0.077
0.035 -0.011 0.085
0.035 -0.011 0.101
0.041 -0.023 0.095
0.035 -0.005 0.097
0.035 -0.035 0.107
0.027 -0.025 0.105
0.029 -0.021 0.105
0.035 -0.013 0.101
-0.017 0.035 0.067
0.005 0.019 0.043
-0.007 0.033 0.047
-0.023 0.033 0.061
0.011 0.019 0.077
-0.009 0.027 0.093
-0.027 0.039 0.085
0.029 0.003 0.043
0.013 0.015 0.061
0.001 0.029 0.055
0.033 0.003 0.035
0.011 0.019 0.083
0.021 0.005 0.109
