0.005 0.015 0.063
0.025 0.005 0.043
0.005 -0.005 0.035
0.017 0.001 0.033
0.027 0.007 0.037
0.019 0.007 0.047
0.037 -0.007 0.047
0.041 -0.011 0.051
0.025 0.005 0.043
0.023 0.007 0.045
0.019 0.007 0.043
0.027 0.001 0.043
0.021 0.005 0.037
0.029 0.003 0.039
0.021 0.005 0.061
0.013 0.013 0.057
0.013 0.015 0.061
0.023 -0.001 0.057
0.025 -0.001 0.051
0.021 -0.001 0.059
0.043 -0.017 0.041
0.041 -0.011 0.037
0.047 -0.015 0.037
0.043 -0.015 0.041
0.045 -0.017 0.039
0.039 -0.009 0.043
0.035 -0.001 0.035
0.047 -0.015 0.039
0.039 -0.009 0.041
0.039 -0.025 0.085
0.039 -0.043 0.091
0.021 -0.005 0.069
0.021 -0.001 0.075
0.031 -0.007 0.075
0.033 -0.003 0.087
0.031 0.001 0.093
0.035 -0.007 0.093
0.017 -0.003 0.093
0.015 -0.003 0.089
0.019 0.003 0.091
0.011 0.007 0.089
0.037 -0.019 0.069
0.035 -0.027 0.071
0.037 -0.017 0.067
0.033 -0.013 0.073
0.039 -0.023 0.083
0.035 -0.015 0.103
0.045 -0.037 0.101
0.035 -0.033 0.105
0.037 -0.035 0.107
0.029 0.007 0.103
0.035 -0.015 0.105
0.035 -0.003 0.107
0.015 -0.005 0.099
0.011 -0.001 0.097
0.021 -0.001 0.099
0.025 -0.005 0.107
0.033 -0.001 0.107
-0.013 0.035 0.035
-0.011 0.035 0.035
-0.009 0.025 0.031
-0.029 0.029 0.045
-0.027 0.033 0.039
-0.027 0.033 0.055
-0.031 0.037 0.061
-0.007 0.033 0.045
-0.023 0.031 0.041
-0.021 0.021 0.047
-0.015 0.025 0.051
-0.001 0.031 0.055
0.001 0.029 0.053
-0.027 0.033 0.037
-0.023 0.033 0.039
-0.021 0.023 0.045
-0.021 0.027 0.041
-0.013 0.031 0.045
0.005 0.037 0.037
-0.007 0.033 0.061
-0.027 0.011 0.049
-0.021 0.029 0.059
-0.019 0.033 0.063
0.003 0.025 0.057
-0.017 0.031 0.061
-0.007 0.035 0.063
-0.033 0.035 0.057
0.003 0.017 0.069
-0.009 0.035 0.069
-0.025 0.037 0.067
-0.015 0.035 0.081
-0.003 0.029 0.067
-0.001 0.031 0.079
-0.001 0.031 0.085
-0.009 0.033 0.087
-0.007 0.033 0.087
-0.009 0.029 0.091
-0.003 0.027 0.091
-0.027 0.037 0.067
-0.021 0.037 0.071
-0.027 0.039 0.087
-0.013 0.035 0.081
-0.007 0.033 0.085
0.011 0.005 0.041
0.005 0.019 0.049
0.017 0.001 0.033
0.005 0.009 0.053
0.009 0.011 0.051
0.015 0.011 0.051
0.013 0.015 0.063
0.001 0.019 0.061
0.009 0.021 0.077
0.013 0.017 0.069
0.009 0.021 0.079
0.011 0.013 0.085
0.011 0.009 0.087
0.007 0.013 0.093
0.029 0.007 0.089
0.007 0.023 0.087
-0.005 -0.017 0.035
-0.015 -0.003 0.037
0.007 -0.041 0.041
0.007 -0.039 0.043
0.017 -0.033 0.051
0.017 -0.033 0.055
0.025 -0.037 0.053
0.025 -0.035 0.061
0.005 -0.027 0.045
-0.003 -0.009 0.039
0.003 -0.003 0.039
0.001 -0.017 0.041
0.001 -0.003 0.047
0.001 -0.017 0.041
0.005 -0.011 0.053
0.009 -0.021 0.051
0.003 -0.013 0.051
0.007 -0.011 0.055
0.005 -0.007 0.061
0.011 -0.011 0.057
0.021 -0.013 0.065
0.017 -0.033 0.049
0.013 -0.033 0.047
0.009 -0.027 0.049
0.021 -0.035 0.049
0.015 -0.023 0.055
0.009 -0.021 0.051
0.011 -0.023 0.053
0.017 -0.025 0.059
0.019 -0.025 0.063
0.019 -0.017 0.057
0.015 -0.013 0.055
0.025 -0.043 0.083
0.027 -0.043 0.085
0.023 -0.035 0.085
0.031 -0.045 0.089
0.025 -0.039 0.099
0.025 -0.039 0.101
0.027 -0.023 0.077
0.017 -0.007 0.075
0.021 -0.033 0.085
0.017 -0.021 0.097
0.011 -0.009 0.087
0.013 -0.015 0.095
0.011 -0.011 0.093
0.009 -0.005 0.093
0.011 -0.007 0.099
0.023 -0.033 0.087
0.025 -0.033 0.089
0.027 -0.029 0.103
0.017 -0.019 0.097
0.017 -0.017 0.105
0.013 -0.013 0.101
0.013 -0.013 0.101
0.015 -0.013 0.103
0.009 -0.003 0.099
0.013 -0.009 0.103
0.021 -0.005 0.103
0.019 -0.017 0.105
0.013 -0.013 0.107
0.023 -0.013 0.107
0.019 -0.003 0.109
0.031 -0.027 0.105
0.015 -0.009 0.109
0.023 -0.007 0.111
-0.037 0.017 0.049
-0.041 0.027 0.053
-0.039 0.029 0.055
-0.021 0.001 0.033
-0.025 0.003 0.043
-0.029 0.003 0.051
-0.025 0.003 0.049
-0.027 0.011 0.043
-0.027 0.013 0.045
-0.031 0.009 0.051
-0.025 0.003 0.039
-0.015 0.001 0.037
-0.023 0.003 0.051
-0.011 0.005 0.049
-0.031 0.009 0.055
-0.025 0.003 0.049
-0.015 0.005 0.051
-0.041 0.021 0.049
-0.035 0.015 0.047
-0.039 0.021 0.053
-0.033 0.019 0.051
-0.037 0.021 0.055
-0.017 0.023 0.053
-0.031 0.007 0.057
-0.033 0.019 0.053
-0.035 0.023 0.057
-0.037 0.027 0.059
-0.021 0.025 0.065
-0.027 0.013 0.057
-0.037 0.033 0.055
-0.003 0.007 0.069
-0.003 0.003 0.075
-0.007 0.009 0.077
-0.021 0.023 0.065
-0.031 0.027 0.065
-0.027 0.029 0.067
-0.027 0.031 0.073
-0.019 0.013 0.073
-0.017 0.017 0.075
-0.017 0.017 0.079
-0.017 0.019 0.083
-0.003 0.007 0.087
-0.019 0.021 0.083
-0.011 0.025 0.093
-0.029 0.031 0.069
-0.023 0.033 0.077
-0.027 0.033 0.079
-0.023 0.033 0.079
-0.025 0.033 0.083
-0.029 0.035 0.083
-0.029 0.003 0.053
0.001 0.001 0.049
0.003 -0.005 0.045
0.001 0.005 0.053
0.001 0.005 0.055
0.003 -0.007 0.061
-0.033 0.019 0.053
-0.001 0.005 0.085
0.005 0.003 0.083
0.007 0.001 0.081
-0.003 0.009 0.089
0.001 0.009 0.089
0.009 -0.003 0.093
-0.003 -0.019 0.033
-0.003 -0.019 0.033
-0.003 -0.013 0.043
0.013 -0.041 0.033
0.007 -0.039 0.035
0.019 -0.037 0.035
0.023 -0.031 0.033
0.021 -0.035 0.037
0.017 -0.039 0.039
0.007 -0.039 0.043
0.023 -0.035 0.039
0.029 -0.035 0.035
0.021 -0.037 0.045
0.031 -0.035 0.063
0.009 -0.043 0.039
0.003 -0.033 0.035
0.029 -0.035 0.035
0.001 -0.023 0.037
0.001 -0.023 0.039
0.003 -0.025 0.039
0.013 -0.027 0.055
0.017 -0.031 0.057
0.019 -0.031 0.057
0.005 -0.011 0.053
0.001 -0.009 0.051
0.001 -0.005 0.057
0.015 -0.029 0.057
0.017 -0.027 0.059
0.017 -0.027 0.059
0.017 -0.033 0.055
0.019 -0.031 0.059
0.017 -0.027 0.059
0.033 -0.037 0.039
0.035 -0.037 0.043
0.035 -0.037 0.045
0.023 -0.035 0.049
0.029 -0.035 0.063
0.025 -0.041 0.085
0.043 -0.045 0.085
0.039 -0.037 0.095
0.029 -0.031 0.069
0.027 -0.029 0.073
0.021 -0.023 0.075
0.007 -0.005 0.067
0.003 -0.003 0.069
0.011 -0.005 0.067
0.011 -0.005 0.069
0.019 -0.023 0.069
0.017 -0.021 0.071
0.017 -0.017 0.079
0.027 -0.021 0.079
0.021 -0.019 0.081
0.027 -0.031 0.089
0.027 -0.031 0.089
0.021 -0.025 0.093
0.027 -0.027 0.091
0.015 -0.017 0.087
0.009 -0.003 0.087
0.011 -0.009 0.087
0.015 -0.017 0.087
0.023 -0.029 0.093
0.033 -0.031 0.069
0.031 -0.023 0.075
0.029 -0.041 0.089
0.027 -0.047 0.085
0.039 -0.027 0.091
0.027 -0.043 0.087
0.027 -0.019 0.093
0.029 -0.041 0.097
0.031 -0.043 0.101
0.023 -0.029 0.103
0.027 -0.039 0.097
0.025 -0.029 0.103
0.013 -0.013 0.099
0.019 -0.023 0.099
0.023 -0.029 0.103
0.023 -0.011 0.111
0.035 -0.041 0.101
0.029 -0.043 0.103
-0.027 0.011 0.035
-0.025 0.005 0.035
-0.037 0.015 0.041
-0.037 0.015 0.037
-0.033 0.021 0.055
-0.039 0.025 0.057
-0.027 0.009 0.039
-0.027 0.003 0.045
-0.019 0.005 0.043
-0.029 0.005 0.045
-0.029 0.003 0.049
-0.001 0.009 0.041
-0.019 0.003 0.039
-0.025 0.003 0.049
-0.019 0.005 0.051
-0.031 0.005 0.051
-0.017 0.005 0.041
-0.017 0.005 0.041
-0.011 -0.003 0.039
-0.015 0.005 0.051
-0.017 0.007 0.053
-0.001 -0.001 0.063
-0.011 0.015 0.057
-0.031 0.009 0.051
-0.021 0.009 0.065
-0.017 0.005 0.051
-0.017 0.005 0.051
-0.015 0.017 0.055
-0.013 0.015 0.055
-0.015 0.003 0.045
-0.009 0.015 0.061
-0.017 0.011 0.069
-0.005 0.007 0.075
-0.021 0.011 0.071
-0.031 0.029 0.067
-0.019 0.019 0.077
-0.021 0.023 0.077
-0.019 0.019 0.079
-0.021 0.023 0.079
-0.033 0.039 0.077
-0.035 0.039 0.087
-0.021 0.029 0.073
-0.015 0.017 0.079
-0.009 0.011 0.079
0.009 -0.027 0.049
-0.003 -0.011 0.043
0.011 -0.021 0.053
0.017 -0.011 0.057
-0.001 -0.001 0.061
0.021 -0.037 0.045
-0.003 -0.011 0.041
-0.003 0.009 0.043
0.013 -0.001 0.075
0.015 -0.003 0.071
-0.003 0.003 0.077
0.009 -0.001 0.077
0.001 0.001 0.081
0.003 0.003 0.083
0.019 -0.023 0.091
0.019 -0.025 0.091
0.003 0.013 0.093
0.013 -0.011 0.109
0.035 -0.031 0.065
0.037 -0.031 0.065
0.039 -0.033 0.049
0.039 -0.023 0.041
0.019 -0.035 0.035
0.033 -0.037 0.039
0.029 -0.039 0.051
0.037 -0.035 0.045
0.029 -0.037 0.057
0.027 -0.037 0.057
0.033 -0.035 0.063
0.039 -0.029 0.059
0.035 -0.033 0.063
0.033 -0.033 0.065
0.041 -0.015 0.045
0.031 -0.035 0.063
0.029 -0.033 0.065
0.023 -0.033 0.061
0.029 -0.033 0.065
0.033 -0.031 0.069
0.033 -0.031 0.069
0.033 -0.031 0.069
0.033 -0.029 0.071
0.035 -0.023 0.073
0.047 -0.025 0.037
0.049 -0.025 0.037
0.043 -0.015 0.041
0.041 -0.031 0.055
0.037 -0.017 0.063
0.043 -0.043 0.087
0.041 -0.035 0.085
0.039 -0.045 0.093
0.043 -0.037 0.083
0.041 -0.035 0.081
0.039 -0.027 0.085
0.039 -0.025 0.091
0.039 -0.025 0.083
0.037 -0.019 0.085
0.035 -0.017 0.069
0.037 -0.021 0.087
0.037 -0.019 0.089
0.035 -0.029 0.087
0.043 -0.035 0.095
0.041 -0.041 0.103
0.043 -0.039 0.103
0.037 -0.025 0.099
0.035 -0.027 0.101
0.035 -0.027 0.101
0.033 -0.027 0.103
0.035 -0.013 0.085
0.033 -0.005 0.087
0.037 -0.027 0.087
0.037 -0.021 0.089
0.035 -0.013 0.085
0.045 -0.037 0.101
0.037 -0.037 0.107
0.027 -0.027 0.105
0.027 -0.019 0.105
0.031 -0.013 0.105
0.033 -0.009 0.105
0.029 -0.017 0.105
0.033 -0.027 0.103
0.039 -0.021 0.063
0.037 -0.017 0.059
0.035 -0.017 0.071
0.035 -0.015 0.071
0.021 0.001 0.059
0.031 -0.009 0.067
0.039 -0.031 0.085
0.043 -0.031 0.095
0.041 -0.023 0.093
0.043 -0.031 0.099
0.041 -0.027 0.097
0.041 -0.027 0.097
0.043 -0.037 0.081
0.031 -0.027 0.073
0.043 -0.037 0.085
0.041 -0.033 0.085
0.039 -0.031 0.087
0.031 -0.025 0.075
0.035 -0.019 0.071
0.035 -0.017 0.073
0.039 -0.025 0.085
0.023 0.005 0.053
0.021 0.007 0.057
0.007 0.023 0.043
0.041 -0.037 0.089
0.041 -0.035 0.087
0.041 -0.035 0.089
0.039 -0.031 0.087
0.035 -0.013 0.089
0.037 -0.013 0.095
0.037 -0.019 0.083
0.017 0.013 0.067
0.033 -0.005 0.087
0.033 -0.005 0.089
0.039 -0.019 0.101
0.017 0.013 0.063
0.033 -0.003 0.089
0.041 -0.025 0.095
0.039 -0.021 0.095
0.035 -0.007 0.093
0.037 -0.011 0.095
0.025 -0.003 0.107
0.035 -0.011 0.101
0.035 -0.013 0.103
0.035 -0.007 0.101
0.035 -0.007 0.099
0.025 -0.005 0.105
0.033 -0.003 0.109
0.031 0.003 0.089
0.023 -0.001 0.109
0.035 -0.015 0.069
0.037 -0.007 0.049
0.025 0.003 0.051
0.035 -0.021 0.073
0.035 -0.017 0.071
0.021 0.003 0.057
0.023 0.003 0.053
0.021 0.003 0.057
0.003 0.025 0.053
0.007 0.031 0.041
0.039 -0.019 0.093
0.033 -0.001 0.089
0.039 -0.023 0.103
0.035 -0.007 0.097
