-0.005 -0.013 0.035
0.023 -0.037 0.051
0.021 -0.035 0.053
0.023 -0.035 0.057
0.009 -0.041 0.039
0.005 -0.031 0.043
0.005 -0.009 0.059
0.019 -0.027 0.067
0.025 -0.035 0.061
0.027 -0.037 0.057
0.021 -0.029 0.067
0.017 -0.021 0.067
0.019 -0.023 0.073
0.015 -0.013 0.077
0.021 -0.031 0.087
0.021 -0.029 0.095
0.021 -0.033 0.097
0.023 -0.033 0.099
0.009 -0.005 0.089
0.011 -0.011 0.093
0.031 -0.025 0.075
0.025 -0.033 0.089
0.021 -0.029 0.089
0.021 -0.033 0.097
0.015 -0.011 0.109
0.021 -0.007 0.109
0.027 -0.041 0.101
0.021 -0.027 0.103
0.021 -0.019 0.105
-0.035 0.015 0.047
-0.039 0.029 0.057
-0.019 -0.001 0.033
-0.023 0.003 0.037
-0.025 0.009 0.039
-0.027 0.005 0.043
-0.011 0.003 0.043
-0.035 0.017 0.049
-0.013 0.003 0.039
-0.031 0.007 0.057
-0.031 0.009 0.057
-0.033 0.013 0.045
-0.017 0.011 0.071
-0.001 0.001 0.073
-0.019 0.019 0.071
-0.021 0.029 0.079
-0.011 0.025 0.093
-0.031 0.037 0.079
-0.033 0.037 0.081
-0.017 0.027 0.085
-0.001 -0.015 0.043
-0.011 0.005 0.047
-0.005 0.009 0.049
0.003 -0.007 0.061
0.003 -0.005 0.065
0.009 -0.009 0.059
0.013 -0.007 0.063
0.001 0.015 0.057
0.003 -0.001 0.079
0.013 -0.005 0.069
0.011 -0.005 0.069
-0.005 0.007 0.077
0.013 -0.013 0.101
-0.009 0.013 0.089
0.011 -0.009 0.101
0.015 -0.011 0.109
0.025 -0.027 0.105
0.037 -0.035 0.107
0.013 -0.033 0.047
0.027 -0.041 0.101
0.035 -0.041 0.105
0.041 -0.039 0.105
0.011 -0.029 0.053
0.017 -0.017 0.105
0.035 -0.011 0.103
0.033 -0.011 0.103
0.023 -0.029 0.103
0.003 -0.005 0.067
0.005 -0.005 0.069
0.039 -0.019 0.101
0.037 -0.047 0.093
0.041 -0.035 0.101
0.025 -0.027 0.105
0.025 -0.027 0.105
0.015 -0.015 0.107
0.003 -0.003 0.073
0.021 -0.017 0.105
0.011 -0.009 0.101
0.003 -0.001 0.079
0.023 -0.011 0.111
0.021 -0.027 0.103
0.033 -0.029 0.103
0.017 -0.015 0.107
0.033 -0.011 0.103
0.023 -0.007 0.115
0.037 -0.033 0.105
0.035 -0.013 0.101
0.037 -0.037 0.107
0.015 -0.009 0.109
0.027 -0.015 0.105
0.033 -0.007 0.105
0.003 0.001 0.081
-0.019 0.009 0.065
-0.037 0.025 0.059
-0.015 0.003 0.047
-0.015 0.005 0.049
-0.025 0.003 0.047
-0.021 0.005 0.057
0.001 -0.001 0.077
-0.011 0.017 0.089
0.001 0.007 0.089
-0.021 0.009 0.067
-0.005 0.007 0.085
-0.019 0.019 0.079
-0.013 0.015 0.087
0.001 0.017 0.095
-0.013 0.015 0.087
-0.009 0.013 0.089
-0.011 0.025 0.093
-0.027 0.033 0.081
-0.017 0.029 0.087
-0.007 0.027 0.093
0.037 -0.011 0.095
0.009 -0.005 0.101
0.027 -0.003 0.101
0.027 -0.009 0.111
0.007 0.009 0.091
0.007 0.011 0.091
0.001 0.007 0.089
0.005 0.015 0.045
0.029 0.005 0.041
0.031 0.001 0.039
0.035 -0.001 0.037
0.029 -0.011 0.053
0.033 -0.015 0.057
0.019 0.009 0.057
0.033 0.001 0.035
0.021 -0.011 0.057
0.015 0.013 0.057
0.015 0.013 0.061
0.009 0.017 0.067
0.027 -0.001 0.049
0.037 -0.005 0.037
0.037 -0.017 0.087
0.035 -0.013 0.087
0.043 -0.037 0.085
0.043 -0.029 0.095
0.031 -0.007 0.077
0.033 -0.011 0.077
0.021 -0.003 0.071
0.017 0.001 0.089
0.033 -0.003 0.087
0.031 -0.001 0.085
0.037 -0.015 0.095
0.041 -0.023 0.093
0.037 -0.013 0.097
0.039 -0.019 0.095
0.033 -0.003 0.103
0.037 -0.013 0.099
0.035 -0.033 0.105
0.027 -0.007 0.105
0.033 -0.001 0.107
0.019 -0.007 0.101
0.013 -0.003 0.099
0.013 -0.003 0.101
0.021 -0.003 0.101
0.031 -0.001 0.107
-0.011 0.033 0.039
-0.021 0.035 0.035
-0.025 0.031 0.041
-0.035 0.033 0.049
-0.033 0.033 0.045
-0.011 0.031 0.045
-0.007 0.033 0.043
-0.011 0.029 0.051
0.005 0.029 0.045
0.003 0.027 0.053
-0.027 0.033 0.037
-0.023 0.023 0.047
-0.001 0.035 0.039
-0.005 0.033 0.057
-0.011 0.035 0.067
-0.009 0.035 0.069
-0.001 0.031 0.057
-0.003 0.031 0.055
-0.001 0.031 0.055
-0.027 0.027 0.051
-0.025 0.029 0.057
-0.015 0.035 0.065
-0.007 0.033 0.059
-0.013 0.033 0.061
-0.007 0.035 0.071
-0.019 0.035 0.069
-0.019 0.035 0.071
-0.005 0.033 0.077
-0.003 0.027 0.091
-0.023 0.041 0.079
-0.007 0.035 0.079
-0.029 0.041 0.083
0.007 0.007 0.045
0.021 0.007 0.045
0.005 0.015 0.063
0.003 0.017 0.055
0.001 0.023 0.061
0.033 0.001 0.035
0.017 0.007 0.073
0.029 0.005 0.087
0.007 0.023 0.085
0.029 0.003 0.043
-0.005 0.001 0.037
0.019 0.007 0.045
0.017 0.007 0.045
0.037 -0.035 0.045
0.039 -0.035 0.049
0.037 -0.033 0.059
0.041 -0.011 0.045
0.025 0.005 0.049
0.031 -0.015 0.057
0.037 -0.017 0.061
0.037 -0.013 0.055
0.033 -0.013 0.063
0.049 -0.023 0.039
0.041 -0.013 0.037
0.043 -0.041 0.087
0.035 -0.023 0.073
0.033 -0.025 0.073
0.035 -0.011 0.085
0.037 -0.021 0.091
0.033 -0.003 0.091
0.043 -0.033 0.099
0.043 -0.037 0.103
0.041 -0.039 0.105
0.035 -0.015 0.105
0.025 -0.005 0.111
0.033 -0.029 0.103
0.035 -0.005 0.097
-0.015 0.035 0.033
-0.027 0.033 0.055
0.005 0.017 0.043
0.005 0.019 0.051
-0.003 0.003 0.035
0.003 0.015 0.037
0.007 0.029 0.043
0.009 0.029 0.039
0.001 0.029 0.051
-0.001 0.031 0.049
0.001 0.015 0.057
-0.003 0.019 0.067
0.001 0.021 0.073
-0.003 0.019 0.065
-0.001 0.029 0.065
0.005 0.023 0.075
0.009 0.021 0.075
0.005 0.025 0.083
0.003 0.027 0.087
-0.003 0.023 0.095
-0.007 0.031 0.089
-0.013 0.037 0.073
-0.003 0.033 0.071
-0.007 0.035 0.079
-0.029 0.043 0.081
0.023 0.007 0.045
0.003 0.013 0.051
0.015 0.013 0.057
0.019 0.009 0.063
0.003 0.017 0.053
0.019 0.009 0.067
0.011 0.013 0.087
0.007 0.013 0.093
0.029 0.003 0.091
0.019 0.007 0.109
-0.005 -0.013 0.035
0.005 -0.035 0.037
-0.005 -0.011 0.039
0.009 -0.041 0.043
0.001 -0.021 0.033
0.003 -0.025 0.039
0.003 -0.023 0.041
-0.003 -0.017 0.037
0.019 -0.019 0.061
0.017 -0.007 0.061
0.021 -0.031 0.063
0.019 -0.023 0.063
0.025 -0.033 0.065
0.023 -0.035 0.083
0.029 -0.047 0.087
0.007 -0.005 0.071
0.015 -0.015 0.083
0.015 -0.005 0.083
0.021 -0.033 0.085
0.019 -0.025 0.087
0.019 -0.025 0.091
0.017 -0.021 0.091
0.031 -0.041 0.097
0.025 -0.039 0.101
0.013 -0.007 0.103
0.027 -0.035 0.101
0.021 -0.027 0.101
0.027 -0.023 0.105
0.031 -0.025 0.105
0.019 -0.017 0.105
-0.039 0.019 0.037
-0.039 0.019 0.037
-0.025 0.005 0.039
-0.023 0.003 0.033
-0.027 0.009 0.037
-0.027 0.009 0.039
-0.029 0.007 0.045
-0.033 0.019 0.051
-0.041 0.025 0.049
-0.029 0.007 0.059
-0.027 0.009 0.063
-0.031 0.007 0.057
-0.025 0.007 0.063
-0.041 0.027 0.053
-0.031 0.023 0.059
-0.017 0.025 0.057
-0.033 0.021 0.055
-0.005 0.013 0.073
-0.025 0.031 0.071
-0.021 0.029 0.077
-0.029 0.035 0.085
-0.001 -0.009 0.045
0.001 -0.001 0.047
0.003 0.003 0.047
0.001 -0.003 0.051
0.001 0.011 0.065
-0.001 -0.001 0.067
-0.005 0.011 0.073
0.001 0.003 0.083
-0.005 0.005 0.077
-0.007 0.009 0.085
0.009 -0.003 0.099
0.009 0.001 0.101
-0.001 -0.021 0.035
-0.027 0.005 0.043
0.007 -0.035 0.043
-0.001 -0.021 0.037
0.003 -0.021 0.041
0.021 -0.013 0.063
0.015 -0.027 0.057
0.025 -0.039 0.085
0.001 -0.003 0.065
0.021 -0.011 0.065
-0.001 0.001 0.067
0.015 -0.011 0.081
0.017 -0.003 0.079
0.019 -0.025 0.091
0.021 -0.031 0.095
0.015 -0.019 0.091
0.019 -0.025 0.071
0.019 -0.025 0.095
0.011 -0.009 0.093
0.009 0.001 0.095
0.025 -0.039 0.097
0.031 -0.037 0.105
0.009 -0.003 0.101
0.019 -0.005 0.105
-0.037 0.025 0.035
-0.039 0.019 0.037
-0.041 0.027 0.045
-0.027 0.003 0.033
-0.039 0.017 0.041
-0.039 0.029 0.045
-0.037 0.033 0.049
-0.017 0.019 0.063
-0.015 0.017 0.053
-0.035 0.033 0.063
-0.021 0.011 0.069
-0.013 0.015 0.065
-0.033 0.029 0.065
-0.029 0.031 0.069
-0.007 0.011 0.089
-0.011 0.025 0.093
-0.035 0.043 0.075
-0.035 0.041 0.079
-0.029 0.035 0.071
-0.031 0.009 0.057
-0.029 0.009 0.047
-0.009 0.035 0.039
-0.017 0.017 0.067
-0.001 0.005 0.085
0.001 0.005 0.087
-0.015 0.017 0.085
-0.009 0.011 0.087
-0.013 0.015 0.087
0.015 0.005 0.109
0.013 -0.027 0.055
-0.023 0.013 0.063
-0.021 0.013 0.065
-0.021 0.013 0.067
0.005 -0.027 0.045
0.003 -0.023 0.041
-0.011 0.037 0.069
-0.011 0.035 0.079
-0.019 0.033 0.083
-0.005 0.033 0.081
0.027 -0.043 0.087
0.023 -0.035 0.085
0.025 -0.039 0.085
0.015 -0.017 0.099
0.023 -0.011 0.109
-0.017 0.019 0.085
-0.011 0.021 0.091
0.019 0.001 0.083
0.015 -0.019 0.087
0.009 -0.005 0.091
0.011 -0.003 0.091
0.025 0.005 0.093
0.009 0.001 0.101
0.011 -0.001 0.099
0.033 -0.033 0.105
0.027 -0.025 0.105
0.021 -0.021 0.105
0.023 -0.019 0.105
0.009 -0.003 0.099
0.009 -0.001 0.101
0.015 0.007 0.113
0.023 -0.005 0.113
-0.031 0.033 0.045
-0.041 0.023 0.043
-0.039 0.025 0.055
-0.039 0.023 0.053
-0.039 0.029 0.057
-0.017 0.031 0.041
-0.037 0.043 0.081
-0.033 0.033 0.067
-0.035 0.043 0.075
-0.031 0.035 0.069
-0.031 0.037 0.063
-0.017 0.021 0.085
-0.017 0.019 0.085
-0.017 0.021 0.087
-0.015 0.017 0.087
-0.009 0.015 0.091
-0.005 0.033 0.085
-0.037 0.043 0.081
-0.023 0.039 0.081
-0.015 0.035 0.071
-0.031 0.037 0.087
-0.013 0.037 0.075
-0.007 0.033 0.057
-0.007 0.035 0.077
-0.005 0.029 0.089
-0.003 0.017 0.093
0.027 0.009 0.095
-0.003 0.023 0.095
0.007 -0.039 0.039
0.021 -0.035 0.053
0.025 -0.035 0.059
0.035 -0.035 0.059
0.003 -0.033 0.035
0.023 -0.033 0.035
0.009 -0.031 0.047
0.031 -0.037 0.045
0.017 -0.033 0.055
0.021 -0.031 0.063
0.037 -0.029 0.035
0.041 -0.031 0.055
0.041 -0.029 0.053
0.037 -0.035 0.051
0.027 -0.041 0.081
0.027 -0.047 0.085
0.027 -0.047 0.083
0.041 -0.043 0.089
0.001 -0.001 0.073
0.021 -0.025 0.073
0.023 -0.029 0.093
0.027 -0.027 0.095
0.019 -0.019 0.081
0.037 -0.029 0.067
0.035 -0.037 0.083
0.041 -0.043 0.089
0.031 -0.041 0.097
0.021 -0.031 0.095
0.039 -0.039 0.097
-0.015 -0.007 0.033
-0.037 0.017 0.035
-0.031 0.011 0.041
-0.029 0.003 0.051
-0.021 0.005 0.047
-0.005 -0.017 0.035
-0.023 0.005 0.055
-0.009 0.013 0.055
-0.017 0.017 0.061
-0.007 0.011 0.053
-0.009 0.013 0.059
-0.021 0.009 0.067
0.003 -0.005 0.067
-0.003 0.003 0.075
-0.003 0.003 0.073
-0.007 0.009 0.079
0.001 -0.003 0.067
-0.017 0.019 0.083
-0.013 0.015 0.085
0.001 0.007 0.089
-0.009 0.011 0.087
0.015 -0.035 0.045
0.015 -0.039 0.043
0.007 -0.007 0.061
0.023 -0.033 0.059
0.027 -0.037 0.057
0.029 -0.035 0.061
0.027 -0.033 0.063
0.019 -0.037 0.041
0.017 -0.037 0.043
0.013 -0.005 0.065
0.023 -0.029 0.069
0.021 -0.023 0.075
0.021 -0.023 0.075
0.001 0.005 0.087
0.009 -0.001 0.087
0.035 -0.047 0.089
