-0.005 -0.017 0.035
-0.003 -0.013 0.043
0.007 -0.039 0.039
0.009 -0.043 0.041
0.011 -0.043 0.041
0.005 -0.033 0.043
0.005 -0.027 0.045
0.015 -0.021 0.055
0.013 -0.025 0.055
0.007 -0.025 0.049
0.007 -0.025 0.049
0.007 -0.015 0.051
0.009 -0.011 0.057
0.017 -0.011 0.057
0.033 -0.037 0.043
0.031 -0.037 0.053
0.019 -0.027 0.095
0.013 -0.009 0.097
0.023 -0.037 0.099
0.021 -0.031 0.087
0.023 -0.031 0.099
0.041 -0.041 0.103
0.039 -0.041 0.105
0.029 -0.023 0.105
0.013 -0.013 0.101
0.029 -0.041 0.103
-0.033 0.013 0.041
-0.009 0.001 0.039
-0.007 0.003 0.039
-0.027 0.003 0.055
-0.025 0.005 0.057
-0.029 0.007 0.061
-0.009 0.007 0.049
-0.013 0.007 0.051
-0.033 0.019 0.053
-0.017 0.011 0.067
-0.021 0.023 0.065
-0.003 0.003 0.075
-0.011 0.013 0.083
-0.017 0.023 0.085
0.007 -0.025 0.047
0.007 -0.015 0.051
-0.011 0.005 0.047
-0.001 0.003 0.063
0.005 -0.001 0.079
0.005 -0.003 0.073
-0.005 0.007 0.075
0.007 0.007 0.089
-0.001 0.011 0.091
0.003 0.013 0.093
0.017 -0.039 0.033
0.015 -0.041 0.037
0.021 -0.035 0.039
0.023 -0.037 0.047
0.029 -0.029 0.031
0.019 -0.033 0.033
0.035 -0.025 0.033
0.021 -0.033 0.035
0.023 -0.037 0.053
0.021 -0.035 0.037
0.025 -0.037 0.047
0.029 -0.039 0.045
0.027 -0.037 0.053
0.029 -0.037 0.053
0.037 -0.035 0.059
0.037 -0.033 0.061
0.051 -0.021 0.035
0.023 -0.025 0.075
0.031 -0.033 0.065
0.035 -0.025 0.071
0.033 -0.025 0.073
0.031 -0.015 0.079
0.031 -0.013 0.079
0.033 -0.013 0.077
0.031 -0.045 0.083
0.035 -0.041 0.083
0.023 -0.021 0.081
0.035 -0.023 0.073
0.033 -0.005 0.091
0.035 -0.043 0.105
0.023 -0.011 0.109
0.037 -0.025 0.103
0.043 -0.035 0.095
0.037 -0.031 0.037
0.015 -0.035 0.045
0.031 -0.039 0.049
0.033 -0.037 0.041
0.033 -0.037 0.045
-0.027 0.005 0.057
-0.021 0.007 0.057
-0.021 0.007 0.059
0.033 -0.035 0.063
0.023 -0.025 0.075
0.025 -0.031 0.067
0.037 -0.029 0.065
0.035 -0.029 0.069
0.027 -0.019 0.081
0.041 -0.027 0.047
0.041 -0.021 0.055
0.035 -0.023 0.071
0.033 -0.013 0.075
0.041 -0.033 0.085
0.039 -0.027 0.083
0.035 -0.005 0.099
-0.015 -0.003 0.037
0.037 -0.033 0.105
0.015 -0.041 0.033
0.027 -0.039 0.101
0.039 -0.039 0.105
0.037 -0.013 0.099
0.021 -0.027 0.099
0.005 -0.009 0.059
0.037 -0.011 0.053
0.041 -0.043 0.089
0.039 -0.035 0.105
0.021 -0.021 0.105
0.023 -0.011 0.111
0.023 -0.033 0.099
0.031 -0.029 0.105
0.017 -0.017 0.105
0.043 -0.031 0.099
0.039 -0.023 0.103
0.027 -0.009 0.111
-0.019 0.011 0.071
-0.021 0.001 0.033
-0.009 0.003 0.039
-0.015 0.017 0.087
-0.005 0.013 0.091
-0.013 0.015 0.087
-0.009 0.015 0.091
-0.007 0.013 0.091
0.009 0.007 0.089
0.003 -0.001 0.079
-0.009 0.015 0.091
-0.013 0.023 0.089
-0.009 0.029 0.091
-0.031 0.035 0.069
-0.015 0.031 0.089
0.035 -0.007 0.105
0.009 0.009 0.091
0.027 -0.003 0.101
0.015 0.013 0.113
0.005 0.019 0.091
0.021 0.003 0.109
0.013 0.011 0.113
0.005 0.015 0.047
0.025 0.005 0.047
0.029 0.003 0.043
0.015 0.011 0.053
0.005 0.007 0.049
0.021 0.007 0.061
0.023 -0.011 0.063
0.023 -0.011 0.063
0.017 0.013 0.067
0.021 -0.009 0.063
0.035 -0.005 0.033
0.043 -0.015 0.051
0.037 -0.017 0.061
0.035 -0.009 0.051
0.039 -0.011 0.053
0.009 0.019 0.071
0.021 -0.001 0.075
0.027 0.009 0.097
0.019 0.001 0.093
0.031 -0.011 0.081
0.031 0.001 0.085
0.039 -0.029 0.081
0.039 -0.025 0.091
0.027 -0.007 0.105
0.027 0.009 0.103
0.037 -0.013 0.097
-0.035 0.033 0.047
-0.035 0.035 0.055
-0.027 0.035 0.057
0.005 0.025 0.049
-0.007 0.033 0.041
-0.009 0.035 0.037
-0.011 0.031 0.045
-0.019 0.033 0.063
-0.017 0.033 0.063
-0.009 0.035 0.069
-0.005 0.033 0.057
-0.023 0.037 0.065
-0.023 0.039 0.081
0.011 0.007 0.045
0.027 0.007 0.037
0.009 0.027 0.039
0.009 0.025 0.043
0.005 0.021 0.053
0.019 0.009 0.059
0.003 0.019 0.055
0.003 0.023 0.059
0.007 0.017 0.089
0.007 0.013 0.091
0.019 0.007 0.109
0.031 0.003 0.035
0.033 -0.005 0.031
0.019 0.003 0.065
0.039 -0.009 0.045
0.039 -0.025 0.097
0.037 -0.019 0.069
0.033 -0.019 0.077
0.033 -0.017 0.077
0.017 0.003 0.071
0.021 -0.001 0.079
0.037 -0.011 0.095
0.029 0.007 0.097
0.031 0.005 0.097
0.039 -0.027 0.065
0.033 -0.013 0.065
0.043 -0.035 0.101
0.039 -0.029 0.099
0.035 -0.027 0.101
0.035 -0.005 0.105
0.025 -0.011 0.111
0.023 -0.001 0.105
0.003 0.019 0.037
0.007 0.033 0.039
0.009 0.029 0.037
-0.029 0.031 0.045
0.001 0.029 0.057
-0.001 0.031 0.051
-0.001 0.017 0.061
0.001 0.019 0.061
0.001 0.015 0.057
0.001 0.017 0.057
0.003 0.019 0.055
0.003 0.015 0.053
0.003 0.013 0.049
0.003 0.015 0.055
0.001 0.021 0.061
-0.027 0.027 0.051
-0.033 0.033 0.049
-0.027 0.037 0.061
-0.003 0.035 0.041
0.003 0.017 0.069
-0.003 0.033 0.071
0.005 0.025 0.081
0.003 0.027 0.083
0.001 0.027 0.089
-0.025 0.039 0.073
-0.021 0.039 0.079
-0.023 0.041 0.079
0.009 0.031 0.041
0.005 0.021 0.073
0.011 0.019 0.077
0.005 0.017 0.091
0.019 0.001 0.111
0.041 -0.023 0.045
0.033 -0.031 0.033
0.051 -0.021 0.035
0.017 -0.039 0.041
0.033 -0.035 0.037
0.031 -0.037 0.047
0.049 -0.019 0.039
0.035 -0.037 0.051
0.041 -0.027 0.053
0.023 -0.005 0.055
0.027 -0.001 0.049
0.049 -0.023 0.039
0.049 -0.021 0.039
0.041 -0.021 0.051
0.043 -0.041 0.083
0.043 -0.043 0.087
0.043 -0.037 0.081
0.043 -0.037 0.081
0.043 -0.037 0.083
0.031 -0.027 0.073
0.033 -0.023 0.075
0.031 -0.009 0.075
0.033 -0.011 0.075
0.031 -0.007 0.077
0.039 -0.027 0.085
0.043 -0.037 0.097
0.037 -0.025 0.103
0.037 -0.013 0.099
0.035 -0.007 0.097
0.041 -0.033 0.101
0.041 -0.017 0.053
0.041 -0.021 0.053
0.043 -0.015 0.051
0.037 -0.007 0.041
0.027 0.007 0.039
0.005 0.021 0.041
0.025 0.005 0.047
0.027 0.007 0.039
0.021 0.001 0.061
0.019 0.003 0.063
0.017 0.011 0.065
0.031 -0.011 0.067
0.031 -0.007 0.079
0.015 0.005 0.077
0.033 -0.005 0.089
0.033 -0.003 0.089
0.011 0.015 0.085
0.003 0.027 0.079
0.035 -0.005 0.041
0.021 -0.001 0.061
0.021 0.007 0.061
0.003 0.025 0.057
0.001 0.027 0.061
0.011 0.019 0.075
-0.005 -0.013 0.037
0.003 -0.017 0.043
0.027 -0.037 0.049
0.005 -0.031 0.039
0.007 -0.007 0.065
0.005 -0.005 0.065
0.007 -0.031 0.047
0.013 -0.031 0.049
0.001 -0.013 0.049
0.025 -0.037 0.085
0.031 -0.035 0.089
0.003 -0.005 0.065
0.015 -0.013 0.075
0.017 -0.021 0.083
0.021 -0.027 0.093
0.017 -0.023 0.097
0.015 -0.019 0.091
0.023 -0.035 0.085
0.013 -0.013 0.099
0.031 -0.037 0.105
0.019 -0.023 0.101
0.019 -0.005 0.109
0.031 -0.027 0.105
-0.039 0.017 0.039
-0.037 0.017 0.049
-0.039 0.021 0.053
-0.037 0.021 0.053
-0.039 0.023 0.053
-0.039 0.027 0.057
-0.027 0.009 0.037
-0.029 0.005 0.045
-0.023 0.003 0.051
-0.041 0.025 0.043
-0.031 0.015 0.047
-0.023 0.017 0.045
-0.027 0.005 0.059
-0.017 0.023 0.055
-0.027 0.027 0.063
-0.019 0.021 0.069
-0.041 0.023 0.049
-0.017 0.025 0.051
-0.011 0.013 0.087
-0.027 0.031 0.073
-0.029 0.035 0.077
-0.027 0.033 0.087
-0.027 0.005 0.059
0.001 -0.005 0.055
0.001 0.005 0.057
-0.001 0.001 0.059
-0.017 0.019 0.063
0.009 -0.003 0.099
0.009 -0.005 0.101
0.017 0.001 0.107
-0.001 -0.021 0.037
0.007 -0.039 0.041
0.005 -0.035 0.035
-0.001 -0.001 0.063
0.019 -0.013 0.057
0.021 -0.011 0.063
0.003 -0.021 0.043
0.007 -0.015 0.051
0.003 -0.005 0.045
0.001 -0.007 0.047
-0.031 0.005 0.053
0.017 -0.019 0.067
0.017 -0.021 0.073
0.017 -0.017 0.079
0.001 -0.003 0.069
0.019 -0.025 0.089
0.015 -0.007 0.081
0.019 -0.027 0.089
0.015 -0.019 0.087
0.015 -0.017 0.095
0.031 -0.039 0.103
0.023 -0.035 0.099
0.023 -0.033 0.099
0.021 -0.025 0.101
0.015 -0.017 0.105
0.013 -0.011 0.097
0.021 -0.007 0.109
-0.029 0.011 0.033
-0.035 0.015 0.035
-0.025 0.009 0.035
-0.029 0.005 0.047
-0.025 0.011 0.047
-0.039 0.031 0.049
-0.025 0.013 0.063
-0.017 0.017 0.063
-0.037 0.027 0.059
-0.037 0.033 0.055
-0.029 0.033 0.039
-0.031 0.029 0.067
-0.021 0.025 0.073
-0.021 0.029 0.079
-0.021 0.027 0.075
-0.007 0.009 0.081
-0.037 0.039 0.087
-0.033 0.039 0.081
-0.025 0.011 0.047
-0.039 0.029 0.051
-0.029 0.009 0.061
-0.015 0.017 0.059
0.003 0.013 0.093
0.025 0.005 0.095
-0.035 0.025 0.061
0.003 -0.025 0.041
-0.023 0.041 0.077
0.007 -0.025 0.049
0.011 -0.025 0.053
0.017 -0.021 0.071
-0.003 0.011 0.091
-0.019 0.013 0.069
0.015 -0.031 0.055
-0.017 0.017 0.081
0.015 -0.025 0.055
-0.011 0.033 0.087
-0.015 0.033 0.083
-0.015 0.031 0.089
-0.007 0.033 0.087
-0.011 0.021 0.091
0.001 0.019 0.095
-0.009 0.025 0.095
0.017 -0.023 0.087
0.009 0.001 0.095
0.019 -0.025 0.091
0.011 -0.007 0.103
0.011 -0.003 0.091
0.019 -0.005 0.105
0.021 0.001 0.093
0.025 -0.037 0.101
0.027 -0.025 0.105
0.031 -0.035 0.103
0.023 -0.007 0.111
0.013 0.011 0.113
-0.035 0.035 0.057
-0.027 0.033 0.035
-0.019 0.029 0.041
-0.041 0.023 0.043
-0.039 0.029 0.055
-0.039 0.025 0.055
-0.037 0.021 0.055
-0.039 0.027 0.057
-0.029 0.011 0.051
-0.031 0.037 0.063
-0.035 0.035 0.057
-0.017 0.009 0.053
-0.033 0.031 0.065
-0.033 0.033 0.067
-0.035 0.041 0.083
-0.037 0.033 0.057
-0.015 0.035 0.079
-0.019 0.023 0.081
-0.029 0.043 0.081
-0.035 0.045 0.081
-0.017 0.035 0.067
-0.009 0.033 0.059
-0.019 0.035 0.081
-0.009 0.035 0.083
-0.003 0.031 0.087
0.027 0.007 0.089
0.015 0.007 0.113
0.013 0.011 0.111
-0.011 -0.009 0.035
0.027 -0.029 0.031
0.025 -0.035 0.037
0.021 -0.035 0.051
0.033 -0.035 0.063
0.017 -0.039 0.033
0.011 -0.041 0.035
0.001 -0.013 0.049
0.039 -0.031 0.063
0.037 -0.035 0.051
0.039 -0.045 0.085
0.029 -0.031 0.069
0.017 -0.021 0.071
0.029 -0.019 0.079
0.035 -0.031 0.065
0.025 -0.027 0.073
0.029 -0.039 0.095
0.041 -0.045 0.085
0.037 -0.049 0.093
0.039 -0.045 0.089
0.021 -0.027 0.101
0.021 -0.027 0.103
-0.039 0.025 0.057
-0.025 0.003 0.045
-0.017 0.003 0.045
-0.023 0.003 0.049
-0.017 0.005 0.051
-0.019 0.009 0.063
-0.013 0.015 0.053
-0.005 -0.011 0.039
0.013 -0.041 0.043
-0.017 0.011 0.065
-0.001 -0.001 0.065
0.005 -0.005 0.065
-0.009 0.015 0.075
-0.007 0.009 0.083
-0.009 0.011 0.087
-0.019 0.019 0.077
-0.001 -0.001 0.071
-0.025 0.033 0.085
0.035 -0.037 0.043
0.011 -0.009 0.061
0.031 -0.037 0.053
0.029 -0.037 0.057
0.017 -0.021 0.067
0.009 -0.003 0.075
0.017 -0.019 0.075
0.011 -0.009 0.087
