-0.003 0.031 0.047
-0.001 0.031 0.047
0.013 0.001 0.035
0.035 -0.001 0.035
0.025 0.005 0.035
0.025 0.005 0.051
0.021 0.007 0.053
0.023 0.005 0.053
0.023 0.003 0.055
0.025 -0.001 0.053
0.027 -0.001 0.049
0.025 0.005 0.045
0.019 0.007 0.049
0.017 0.007 0.043
0.015 0.011 0.051
0.037 -0.007 0.041
0.023 0.007 0.041
0.031 0.001 0.039
0.015 0.003 0.037
0.021 0.005 0.061
0.051 -0.017 0.037
0.037 -0.005 0.035
0.039 -0.009 0.047
0.035 -0.015 0.057
0.039 -0.031 0.085
0.039 -0.031 0.087
0.041 -0.031 0.093
0.033 -0.013 0.071
0.013 0.017 0.075
0.011 0.019 0.083
0.021 -0.005 0.069
0.021 -0.001 0.075
0.021 -0.001 0.075
0.027 -0.003 0.077
0.023 -0.001 0.097
0.027 -0.001 0.081
0.035 -0.021 0.071
0.035 -0.019 0.073
0.039 -0.023 0.083
0.037 -0.011 0.095
0.033 -0.003 0.103
0.037 -0.031 0.103
0.039 -0.023 0.103
0.013 -0.003 0.099
0.019 -0.005 0.101
0.029 0.005 0.103
0.033 -0.003 0.103
0.027 -0.007 0.109
0.037 -0.017 0.099
0.033 -0.003 0.103
0.035 -0.003 0.107
-0.009 0.035 0.039
-0.017 0.035 0.037
-0.033 0.033 0.051
-0.027 0.035 0.057
-0.037 0.033 0.057
-0.033 0.035 0.063
-0.005 0.033 0.049
-0.025 0.023 0.049
0.007 0.029 0.043
0.003 0.027 0.047
-0.001 0.035 0.039
0.005 0.027 0.045
-0.027 0.033 0.039
-0.019 0.023 0.047
-0.007 0.035 0.039
-0.009 0.035 0.065
-0.005 0.033 0.059
-0.027 0.027 0.051
-0.029 0.027 0.049
-0.025 0.029 0.057
-0.017 0.031 0.059
-0.013 0.035 0.063
-0.001 0.031 0.051
-0.003 0.031 0.053
-0.013 0.037 0.071
-0.011 0.037 0.073
-0.009 0.035 0.075
-0.007 0.035 0.075
-0.009 0.035 0.077
0.005 0.023 0.077
-0.003 0.033 0.081
0.001 0.029 0.083
-0.009 0.035 0.081
-0.003 0.027 0.069
0.001 0.025 0.075
0.001 0.027 0.079
0.007 0.023 0.085
-0.011 0.033 0.087
-0.005 0.027 0.091
-0.003 0.027 0.091
-0.033 0.043 0.077
-0.027 0.037 0.067
-0.025 0.037 0.065
-0.029 0.037 0.069
-0.023 0.041 0.077
-0.025 0.041 0.075
-0.021 0.039 0.077
-0.007 0.035 0.065
-0.023 0.039 0.083
0.019 0.007 0.043
0.023 0.007 0.041
0.005 0.033 0.039
0.007 0.033 0.041
0.007 0.025 0.045
0.005 0.009 0.053
0.007 0.015 0.063
0.019 0.009 0.055
0.021 0.003 0.057
0.019 0.009 0.059
0.001 0.029 0.055
0.005 0.035 0.033
0.009 0.021 0.081
0.011 0.007 0.089
0.021 0.001 0.093
0.005 0.023 0.089
0.021 0.001 0.109
0.033 -0.003 0.041
0.011 0.005 0.039
-0.005 0.003 0.039
0.031 0.001 0.041
0.013 0.005 0.039
0.025 0.003 0.051
0.043 -0.019 0.041
0.041 -0.011 0.037
0.041 -0.027 0.043
0.041 -0.027 0.041
0.041 -0.023 0.057
0.041 -0.011 0.045
0.041 -0.011 0.047
0.035 -0.005 0.041
0.033 -0.007 0.049
0.043 -0.015 0.041
0.039 -0.009 0.039
0.031 0.001 0.041
0.027 0.007 0.041
0.031 -0.013 0.055
0.025 -0.013 0.055
0.039 -0.023 0.065
0.021 0.007 0.055
0.025 -0.011 0.061
0.021 -0.005 0.059
0.049 -0.021 0.039
0.039 -0.031 0.039
0.051 -0.017 0.037
0.051 -0.017 0.037
0.051 -0.017 0.035
0.041 -0.011 0.037
0.037 -0.005 0.035
0.041 -0.011 0.047
0.039 -0.021 0.063
0.043 -0.039 0.085
0.035 -0.025 0.071
0.019 0.001 0.067
0.021 -0.003 0.071
0.035 -0.011 0.085
0.035 -0.013 0.085
0.037 -0.019 0.085
0.039 -0.021 0.093
0.033 -0.005 0.087
0.031 0.003 0.089
0.029 0.005 0.093
0.031 0.001 0.085
0.031 -0.003 0.085
0.037 -0.029 0.087
0.041 -0.023 0.093
0.037 -0.015 0.093
0.035 -0.015 0.091
0.035 -0.015 0.091
0.041 -0.039 0.105
0.043 -0.035 0.101
0.035 -0.027 0.101
0.033 -0.027 0.105
0.031 0.001 0.101
0.031 -0.001 0.107
0.035 -0.003 0.107
0.043 -0.031 0.097
0.037 -0.015 0.101
0.037 -0.015 0.101
-0.003 0.013 0.031
-0.009 0.035 0.035
-0.029 0.027 0.047
-0.031 0.031 0.041
-0.027 0.027 0.051
0.003 0.013 0.045
0.001 0.011 0.039
0.003 0.013 0.049
-0.001 0.029 0.053
0.001 0.029 0.053
-0.025 0.031 0.043
-0.009 0.033 0.045
-0.001 0.031 0.045
0.009 0.015 0.061
0.001 0.023 0.061
-0.021 0.007 0.057
0.017 0.013 0.065
-0.001 0.025 0.065
-0.005 0.033 0.061
-0.017 0.035 0.037
-0.011 0.035 0.033
-0.005 0.033 0.057
-0.007 0.035 0.063
0.005 0.021 0.073
0.007 0.019 0.073
0.005 0.021 0.073
0.013 0.015 0.081
0.011 0.019 0.081
-0.011 0.037 0.071
-0.003 0.027 0.069
-0.001 0.031 0.079
-0.005 0.029 0.089
-0.007 0.031 0.089
-0.009 0.035 0.069
-0.011 0.037 0.073
-0.027 0.039 0.087
0.017 0.009 0.047
0.005 0.015 0.047
0.009 0.027 0.037
0.009 0.029 0.041
0.013 0.011 0.055
0.017 0.011 0.057
0.005 0.033 0.039
0.013 0.015 0.067
0.017 0.007 0.075
0.015 0.011 0.079
0.013 0.017 0.077
0.011 0.019 0.077
0.011 0.007 0.085
0.011 0.013 0.087
0.009 0.013 0.089
0.005 0.015 0.091
0.009 0.013 0.089
0.029 0.003 0.103
0.029 0.007 0.103
0.019 0.007 0.111
-0.001 -0.013 0.045
-0.001 -0.019 0.037
0.007 -0.017 0.047
0.001 -0.005 0.055
-0.001 0.001 0.077
0.017 -0.011 0.057
0.009 -0.037 0.045
0.007 -0.035 0.045
0.011 -0.035 0.045
0.025 -0.033 0.065
0.015 -0.017 0.087
0.017 -0.023 0.087
0.001 -0.023 0.039
0.001 -0.005 0.061
-0.001 0.001 0.057
0.003 0.003 0.045
-0.001 0.007 0.089
-0.013 0.015 0.087
0.013 -0.029 0.055
0.009 -0.023 0.051
0.009 -0.017 0.051
0.013 -0.023 0.053
0.017 -0.025 0.059
0.003 -0.013 0.051
0.007 -0.013 0.055
0.003 -0.011 0.053
0.009 -0.007 0.067
0.007 -0.007 0.065
0.021 -0.009 0.057
0.017 -0.019 0.073
0.009 -0.003 0.099
0.017 0.001 0.083
0.009 -0.005 0.101
0.009 0.001 0.097
0.009 -0.001 0.097
0.021 -0.031 0.097
0.021 -0.027 0.103
0.025 -0.039 0.101
0.023 -0.027 0.073
0.003 -0.001 0.079
0.009 0.001 0.103
0.009 -0.005 0.089
0.007 -0.001 0.095
0.011 0.003 0.085
0.017 0.001 0.087
0.013 -0.009 0.103
0.019 -0.027 0.097
0.019 -0.021 0.103
0.019 -0.015 0.105
0.007 -0.001 0.095
0.011 -0.009 0.095
0.019 0.001 0.095
0.019 -0.017 0.105
0.015 -0.009 0.109
0.015 -0.011 0.109
0.021 -0.013 0.105
0.029 -0.021 0.105
0.027 -0.017 0.105
0.027 -0.039 0.101
0.021 -0.025 0.103
0.015 -0.015 0.105
0.023 -0.023 0.105
0.023 -0.023 0.105
0.031 -0.021 0.105
0.031 -0.003 0.107
0.033 -0.015 0.105
-0.035 0.019 0.051
-0.037 0.033 0.057
-0.041 0.021 0.049
-0.039 0.027 0.057
-0.039 0.031 0.057
-0.029 0.011 0.059
-0.037 0.017 0.049
-0.025 0.013 0.045
-0.027 0.013 0.055
-0.015 0.013 0.049
-0.015 0.013 0.049
-0.025 0.011 0.065
-0.019 0.019 0.079
-0.031 0.027 0.065
-0.021 0.021 0.047
-0.035 0.035 0.061
-0.027 0.041 0.083
-0.033 0.037 0.085
-0.019 0.035 0.079
-0.031 0.007 0.057
-0.025 0.013 0.063
-0.021 0.013 0.071
-0.017 0.019 0.083
-0.019 0.019 0.079
-0.019 0.019 0.077
-0.027 0.037 0.087
-0.013 0.035 0.081
-0.021 0.037 0.081
-0.013 0.021 0.089
-0.017 0.021 0.087
-0.019 0.019 0.079
-0.013 0.017 0.089
-0.007 0.031 0.089
-0.009 0.031 0.089
-0.033 0.041 0.087
-0.037 0.041 0.087
-0.013 0.037 0.075
-0.029 0.039 0.087
-0.009 0.033 0.087
-0.021 0.023 0.079
-0.015 0.017 0.085
-0.007 0.021 0.093
-0.003 0.017 0.093
-0.027 0.035 0.087
-0.023 0.041 0.079
-0.013 0.037 0.075
-0.001 0.003 0.059
-0.015 0.019 0.087
-0.017 0.025 0.087
-0.005 0.019 0.093
-0.017 0.031 0.089
-0.015 0.033 0.087
-0.001 0.021 0.095
0.001 0.013 0.091
0.025 0.003 0.093
-0.001 0.025 0.091
0.003 0.025 0.089
-0.003 0.029 0.089
-0.015 -0.007 0.033
-0.001 -0.001 0.067
0.021 -0.033 0.035
0.007 -0.039 0.035
0.007 -0.035 0.045
0.009 -0.037 0.045
0.017 -0.039 0.035
0.029 -0.037 0.039
0.017 -0.037 0.043
0.003 -0.031 0.037
-0.001 -0.021 0.035
0.007 -0.023 0.049
0.017 -0.023 0.061
0.019 -0.027 0.065
0.013 -0.009 0.059
0.025 -0.035 0.057
0.019 -0.031 0.057
0.017 -0.025 0.059
0.043 -0.027 0.035
0.039 -0.033 0.041
0.047 -0.025 0.039
0.035 -0.037 0.043
0.029 -0.037 0.043
0.037 -0.035 0.055
0.027 -0.037 0.053
0.029 -0.037 0.057
0.029 -0.045 0.087
0.027 -0.039 0.089
0.039 -0.047 0.087
0.033 -0.047 0.089
0.033 -0.047 0.089
0.023 -0.029 0.071
0.017 -0.021 0.069
0.025 -0.027 0.073
0.027 -0.023 0.077
0.013 -0.005 0.065
0.017 -0.019 0.075
0.015 -0.015 0.077
0.019 -0.021 0.077
0.025 -0.021 0.079
0.025 -0.035 0.087
0.027 -0.031 0.089
0.019 -0.027 0.095
0.023 -0.037 0.097
0.013 -0.013 0.089
0.013 -0.015 0.095
0.015 -0.015 0.093
0.035 -0.031 0.067
0.027 -0.047 0.085
0.029 -0.047 0.083
0.027 -0.047 0.085
0.029 -0.047 0.087
0.027 -0.043 0.087
0.033 -0.043 0.091
0.041 -0.037 0.095
0.035 -0.031 0.095
0.037 -0.033 0.095
0.029 -0.039 0.095
0.027 -0.019 0.093
0.031 -0.043 0.105
0.019 -0.027 0.097
0.025 -0.029 0.101
0.011 -0.009 0.099
0.011 -0.009 0.099
0.015 -0.011 0.109
0.017 -0.019 0.101
0.037 -0.035 0.097
0.023 -0.037 0.099
0.025 -0.039 0.101
-0.019 -0.001 0.033
-0.029 0.011 0.035
-0.013 -0.007 0.037
-0.037 0.021 0.053
-0.037 0.027 0.061
-0.021 0.001 0.033
-0.019 -0.001 0.035
-0.021 0.003 0.039
-0.023 0.003 0.039
-0.017 -0.005 0.037
-0.009 -0.003 0.039
-0.005 0.007 0.041
-0.007 0.005 0.041
-0.003 0.009 0.041
-0.003 0.009 0.045
-0.031 0.007 0.049
-0.029 0.005 0.047
-0.025 0.003 0.047
-0.017 -0.005 0.037
-0.005 0.005 0.043
-0.015 0.005 0.051
-0.015 0.005 0.051
-0.007 0.009 0.049
-0.005 0.009 0.049
-0.017 0.005 0.049
-0.031 0.005 0.051
-0.027 0.009 0.063
-0.013 0.005 0.049
-0.011 0.007 0.049
-0.003 0.011 0.051
-0.027 0.027 0.063
-0.017 0.007 0.053
-0.005 0.011 0.055
-0.015 0.017 0.059
-0.015 0.017 0.061
-0.003 0.017 0.063
-0.003 0.017 0.063
-0.007 0.005 0.043
-0.013 0.015 0.063
-0.009 0.015 0.065
-0.021 0.009 0.067
-0.023 0.011 0.067
-0.017 0.013 0.073
-0.003 0.003 0.071
-0.001 0.001 0.075
-0.009 0.013 0.077
-0.021 0.023 0.073
-0.021 0.023 0.079
-0.015 0.017 0.079
-0.007 0.013 0.075
-0.005 0.007 0.075
-0.007 0.009 0.081
-0.005 0.007 0.085
-0.013 0.017 0.089
-0.015 0.021 0.089
-0.015 0.021 0.089
-0.013 0.021 0.089
-0.033 0.039 0.087
-0.033 0.037 0.085
-0.021 0.029 0.073
-0.025 0.033 0.075
-0.021 0.033 0.079
-0.021 0.029 0.079
-0.027 0.033 0.087
-0.023 0.035 0.083
-0.031 0.035 0.083
0.001 0.011 0.043
0.009 -0.037 0.045
0.011 -0.029 0.049
0.015 -0.031 0.049
-0.003 -0.011 0.043
-0.001 0.009 0.045
0.001 0.011 0.047
0.001 -0.013 0.049
-0.001 -0.001 0.057
0.007 -0.011 0.057
-0.001 -0.001 0.065
0.013 -0.005 0.069
0.001 -0.001 0.075
0.001 0.001 0.081
0.011 0.003 0.083
0.015 -0.019 0.091
0.019 -0.021 0.093
0.019 0.001 0.111
