0.033 -0.003 0.043
0.041 -0.011 0.039
0.041 -0.027 0.041
0.041 -0.027 0.043
0.041 -0.019 0.053
0.039 -0.023 0.059
0.041 -0.027 0.059
0.039 -0.033 0.041
0.037 -0.033 0.061
0.039 -0.031 0.061
0.041 -0.011 0.051
0.041 -0.013 0.053
0.043 -0.015 0.041
0.043 -0.015 0.035
0.041 -0.017 0.053
0.027 0.007 0.037
0.027 -0.005 0.051
0.027 -0.005 0.051
0.031 0.003 0.037
0.037 -0.017 0.059
0.035 -0.015 0.059
0.031 -0.013 0.055
0.029 -0.013 0.057
0.025 -0.013 0.057
0.023 -0.001 0.057
0.019 0.001 0.065
0.027 -0.009 0.053
0.031 -0.013 0.055
0.023 -0.007 0.055
0.025 -0.013 0.057
0.029 -0.009 0.065
0.021 -0.005 0.057
0.021 -0.003 0.059
0.049 -0.015 0.037
0.045 -0.019 0.039
0.049 -0.025 0.035
0.039 -0.011 0.035
0.039 -0.009 0.035
0.035 -0.001 0.035
0.035 -0.015 0.059
0.035 -0.031 0.089
0.043 -0.037 0.085
0.043 -0.041 0.087
0.041 -0.037 0.089
0.043 -0.029 0.095
0.041 -0.035 0.089
0.037 -0.025 0.067
0.035 -0.027 0.071
0.035 -0.015 0.081
0.017 -0.001 0.071
0.013 0.005 0.079
0.021 -0.005 0.069
0.031 -0.007 0.075
0.037 -0.019 0.085
0.035 -0.011 0.085
0.035 -0.011 0.087
0.035 -0.011 0.089
0.035 -0.013 0.087
0.039 -0.025 0.091
0.035 -0.015 0.089
0.023 -0.001 0.081
0.031 0.001 0.085
0.031 0.003 0.097
0.035 -0.023 0.071
0.033 -0.013 0.065
0.039 -0.025 0.083
0.037 -0.019 0.085
0.037 -0.017 0.085
0.043 -0.029 0.095
0.035 -0.023 0.089
0.041 -0.023 0.093
0.037 -0.013 0.095
0.033 -0.003 0.091
0.037 -0.025 0.101
0.039 -0.033 0.103
0.043 -0.033 0.099
0.041 -0.033 0.101
0.041 -0.039 0.105
0.037 -0.035 0.107
0.041 -0.039 0.105
0.035 -0.011 0.099
0.035 -0.015 0.103
0.033 -0.025 0.105
0.033 -0.021 0.105
0.023 -0.003 0.103
0.027 -0.007 0.107
0.033 -0.003 0.103
0.033 -0.005 0.107
0.031 -0.013 0.105
0.033 -0.009 0.105
0.037 -0.027 0.099
0.041 -0.027 0.097
0.037 -0.031 0.103
0.037 -0.015 0.099
0.035 -0.011 0.103
0.035 -0.007 0.101
0.003 0.023 0.039
-0.001 0.033 0.041
0.001 0.029 0.055
-0.005 0.033 0.057
-0.031 0.033 0.051
0.005 0.017 0.039
0.003 0.013 0.047
0.003 0.013 0.049
0.003 0.013 0.049
0.001 0.011 0.051
0.001 0.011 0.037
0.001 0.011 0.043
0.003 0.015 0.037
0.005 0.015 0.041
0.009 0.011 0.051
-0.003 0.033 0.043
0.003 0.027 0.047
0.003 0.027 0.049
-0.001 0.031 0.045
-0.001 0.031 0.047
0.007 0.033 0.039
0.005 0.015 0.065
-0.003 0.017 0.063
-0.003 0.021 0.065
0.017 0.011 0.067
0.001 0.029 0.055
0.001 0.027 0.061
-0.031 0.033 0.049
-0.007 0.035 0.037
-0.009 0.033 0.041
-0.001 0.033 0.041
0.015 0.013 0.079
0.011 0.019 0.081
0.009 0.021 0.081
0.013 0.015 0.081
-0.003 0.025 0.071
-0.009 0.035 0.069
-0.003 0.033 0.081
-0.003 0.021 0.071
0.009 0.021 0.075
0.011 0.013 0.087
0.005 0.017 0.091
0.005 0.015 0.091
-0.001 0.023 0.093
-0.003 0.027 0.091
-0.031 0.043 0.077
-0.025 0.041 0.079
-0.011 0.037 0.071
-0.027 0.037 0.087
-0.009 0.035 0.083
-0.027 0.041 0.083
0.033 0.001 0.031
0.031 0.003 0.031
0.017 0.007 0.045
0.023 0.007 0.043
0.031 0.001 0.041
0.003 0.019 0.037
0.005 0.019 0.045
0.005 0.021 0.045
0.007 0.029 0.043
0.015 0.013 0.057
0.013 0.011 0.053
0.013 0.013 0.059
0.023 0.001 0.053
0.021 0.007 0.053
0.021 0.005 0.063
0.019 0.009 0.059
0.003 0.017 0.053
0.005 0.021 0.053
0.003 0.027 0.055
0.005 0.037 0.037
0.013 0.017 0.069
0.013 0.005 0.079
0.017 0.011 0.065
0.009 0.021 0.077
0.015 0.003 0.081
0.003 0.015 0.095
0.009 0.011 0.089
0.031 0.001 0.087
0.027 0.005 0.091
0.031 0.001 0.091
0.029 0.005 0.089
-0.005 -0.013 0.037
0.007 -0.035 0.041
0.017 -0.015 0.055
-0.003 -0.009 0.041
-0.001 0.003 0.059
0.007 -0.037 0.045
0.007 -0.035 0.043
0.007 -0.037 0.045
0.009 -0.035 0.045
0.013 -0.025 0.055
0.023 -0.035 0.055
0.017 -0.021 0.087
0.017 -0.023 0.087
0.017 -0.021 0.091
0.005 -0.023 0.047
0.001 -0.023 0.039
0.007 -0.017 0.047
0.007 -0.023 0.049
0.001 0.001 0.047
0.001 0.001 0.051
-0.001 0.007 0.089
0.019 -0.025 0.063
0.001 -0.003 0.051
0.009 -0.007 0.067
0.005 -0.003 0.075
-0.001 -0.001 0.067
0.001 0.009 0.089
0.011 -0.009 0.087
0.007 0.001 0.095
0.007 0.001 0.095
0.009 -0.001 0.097
0.015 0.001 0.081
0.015 0.001 0.081
0.013 -0.013 0.097
0.009 -0.003 0.103
0.013 -0.015 0.095
0.017 0.001 0.089
0.009 0.001 0.103
0.027 -0.039 0.087
0.019 -0.027 0.097
0.021 -0.033 0.097
0.021 -0.027 0.103
0.025 -0.039 0.101
0.029 -0.033 0.101
0.029 -0.031 0.101
0.013 -0.009 0.103
0.005 0.001 0.081
0.009 -0.003 0.075
0.015 -0.009 0.077
0.009 0.001 0.101
0.017 -0.023 0.087
0.015 -0.019 0.091
0.021 -0.029 0.097
0.017 -0.019 0.103
0.015 -0.017 0.105
0.017 -0.013 0.107
0.011 -0.011 0.093
0.007 -0.001 0.095
0.007 -0.001 0.095
0.019 -0.003 0.099
0.009 0.001 0.097
0.019 0.001 0.095
0.019 -0.001 0.097
0.019 -0.001 0.099
0.033 -0.021 0.105
0.023 -0.013 0.107
0.021 -0.009 0.109
0.033 -0.035 0.105
0.037 -0.037 0.107
0.015 -0.017 0.105
0.021 -0.025 0.103
0.031 -0.031 0.101
0.031 -0.021 0.105
0.011 -0.007 0.103
0.009 0.001 0.103
0.023 -0.007 0.115
0.013 -0.005 0.103
0.021 -0.003 0.109
0.017 -0.015 0.107
0.023 -0.009 0.113
0.031 -0.027 0.105
0.033 -0.021 0.105
0.033 -0.017 0.105
0.025 -0.007 0.115
0.031 -0.005 0.107
-0.031 0.015 0.047
-0.021 0.013 0.047
-0.021 0.033 0.037
-0.037 0.033 0.049
-0.041 0.021 0.049
-0.039 0.019 0.049
-0.041 0.025 0.051
-0.031 0.009 0.049
-0.025 0.009 0.065
-0.027 0.009 0.063
-0.027 0.013 0.061
-0.025 0.011 0.065
-0.021 0.013 0.071
-0.019 0.021 0.079
-0.037 0.023 0.057
-0.037 0.023 0.057
-0.039 0.031 0.053
-0.037 0.033 0.059
-0.037 0.033 0.055
-0.019 0.021 0.047
-0.031 0.007 0.057
-0.031 0.011 0.057
-0.027 0.005 0.061
-0.025 0.007 0.063
-0.025 0.011 0.065
-0.019 0.019 0.079
-0.033 0.023 0.059
-0.027 0.031 0.073
-0.033 0.033 0.067
-0.015 0.017 0.051
-0.027 0.031 0.073
-0.021 0.029 0.067
-0.035 0.035 0.053
-0.037 0.033 0.059
-0.031 0.037 0.059
-0.031 0.037 0.063
-0.023 0.041 0.079
-0.013 0.019 0.089
-0.003 0.003 0.077
-0.019 0.019 0.073
-0.019 0.019 0.079
-0.015 0.029 0.089
-0.011 0.027 0.093
-0.017 0.019 0.085
-0.017 0.025 0.087
-0.017 0.029 0.087
-0.015 0.019 0.087
-0.015 0.017 0.087
-0.017 0.021 0.087
-0.001 0.017 0.095
-0.013 0.027 0.091
-0.037 0.041 0.087
-0.035 0.045 0.081
-0.033 0.043 0.083
-0.013 0.037 0.075
-0.031 0.035 0.087
-0.029 0.039 0.087
-0.023 0.037 0.085
-0.023 0.037 0.085
-0.031 0.043 0.083
-0.007 0.019 0.093
-0.019 0.025 0.083
-0.003 0.019 0.095
-0.003 0.019 0.095
-0.013 0.037 0.071
-0.017 0.023 0.085
-0.015 0.017 0.087
-0.009 0.023 0.093
-0.007 0.023 0.095
-0.005 0.019 0.093
-0.001 0.015 0.093
-0.005 0.021 0.095
-0.017 0.031 0.089
0.001 0.035 0.039
0.009 0.003 0.083
0.003 0.011 0.091
0.025 0.003 0.093
0.025 0.003 0.093
-0.011 -0.009 0.035
0.011 -0.039 0.033
0.027 -0.033 0.033
0.007 -0.039 0.037
0.007 -0.039 0.039
0.019 -0.037 0.033
0.017 -0.039 0.041
0.029 -0.037 0.039
0.019 -0.037 0.043
0.031 -0.037 0.059
0.033 -0.037 0.039
0.003 -0.025 0.039
0.011 -0.041 0.037
0.017 -0.039 0.035
0.003 -0.021 0.043
0.009 -0.043 0.039
0.017 -0.033 0.049
0.009 -0.027 0.051
0.015 -0.029 0.057
0.005 -0.013 0.051
0.003 -0.007 0.057
0.003 -0.007 0.059
0.003 -0.007 0.061
0.023 -0.035 0.057
0.019 -0.027 0.065
0.019 -0.031 0.059
0.025 -0.033 0.065
0.045 -0.029 0.035
0.045 -0.027 0.037
0.033 -0.037 0.041
0.041 -0.027 0.037
0.037 -0.035 0.043
0.025 -0.037 0.039
0.025 -0.037 0.049
0.025 -0.037 0.049
0.027 -0.047 0.083
0.025 -0.043 0.083
0.031 -0.049 0.085
0.023 -0.025 0.075
0.025 -0.025 0.075
0.015 -0.005 0.067
0.013 -0.003 0.071
0.015 -0.013 0.079
0.009 -0.003 0.075
0.009 -0.001 0.077
0.015 -0.015 0.077
0.019 -0.029 0.085
0.019 -0.027 0.087
0.027 -0.031 0.089
0.025 -0.037 0.095
0.011 -0.011 0.091
0.011 -0.009 0.093
0.009 -0.005 0.095
0.023 -0.035 0.083
0.023 -0.035 0.085
0.019 -0.027 0.083
0.035 -0.029 0.069
0.031 -0.023 0.075
0.027 -0.029 0.071
0.031 -0.019 0.079
0.027 -0.047 0.083
0.033 -0.041 0.091
0.035 -0.031 0.095
0.037 -0.033 0.095
0.027 -0.027 0.091
0.043 -0.041 0.101
0.017 -0.021 0.099
0.023 -0.025 0.105
0.017 -0.017 0.105
0.011 -0.007 0.103
0.017 -0.021 0.099
0.023 -0.013 0.107
0.023 -0.025 0.105
0.029 -0.043 0.101
0.029 -0.043 0.103
0.031 -0.043 0.101
0.025 -0.039 0.099
0.023 -0.037 0.099
-0.015 -0.007 0.035
-0.015 -0.007 0.035
-0.009 -0.003 0.035
-0.013 -0.007 0.037
-0.009 -0.003 0.037
-0.033 0.021 0.055
-0.017 -0.003 0.035
-0.019 -0.001 0.035
-0.017 0.001 0.037
-0.019 0.003 0.041
-0.031 0.013 0.033
-0.019 -0.001 0.035
-0.021 0.003 0.037
-0.017 0.003 0.047
-0.029 0.003 0.047
-0.015 -0.007 0.037
-0.013 -0.005 0.039
-0.009 0.001 0.039
-0.007 -0.003 0.037
-0.005 -0.013 0.037
-0.007 0.001 0.039
-0.005 0.001 0.035
-0.007 0.005 0.043
-0.031 0.013 0.035
-0.019 0.003 0.041
-0.017 0.001 0.037
-0.011 0.013 0.051
-0.021 0.005 0.057
-0.029 0.003 0.051
-0.031 0.005 0.055
-0.029 0.003 0.053
-0.033 0.019 0.051
-0.021 0.009 0.063
-0.013 0.013 0.051
-0.013 0.015 0.055
-0.015 0.017 0.055
-0.011 0.013 0.053
-0.003 0.017 0.063
-0.007 0.013 0.059
-0.037 0.023 0.057
-0.009 0.005 0.045
-0.009 0.005 0.047
-0.033 0.027 0.063
-0.023 0.029 0.065
-0.003 0.003 0.075
-0.015 0.017 0.073
-0.003 0.003 0.075
-0.009 0.011 0.085
-0.009 0.013 0.089
-0.001 0.011 0.091
-0.019 0.021 0.081
-0.003 0.017 0.093
-0.001 0.015 0.093
-0.033 0.039 0.077
-0.035 0.041 0.081
-0.029 0.033 0.071
-0.023 0.035 0.085
-0.013 0.015 0.085
0.003 -0.013 0.045
0.001 -0.005 0.049
0.009 -0.023 0.051
-0.001 -0.009 0.045
0.001 -0.001 0.047
0.011 -0.029 0.049
0.011 -0.029 0.049
0.019 -0.033 0.049
0.015 -0.033 0.047
-0.005 -0.011 0.039
-0.005 -0.011 0.039
-0.001 0.009 0.041
-0.003 0.011 0.051
0.001 -0.007 0.053
0.001 -0.001 0.053
0.003 -0.007 0.059
0.017 -0.027 0.059
0.013 -0.011 0.057
-0.001 -0.001 0.057
0.001 0.001 0.053
-0.001 0.007 0.063
0.011 -0.005 0.067
0.013 0.001 0.079
0.011 0.001 0.081
-0.003 0.003 0.075
0.005 0.011 0.093
0.017 -0.025 0.085
0.019 -0.027 0.095
-0.001 0.007 0.089
0.003 0.007 0.089
0.003 0.011 0.091
-0.001 0.011 0.091
0.017 -0.017 0.105
0.017 0.003 0.111
0.017 0.003 0.111
