0.017 -0.037 0.031
0.017 -0.039 0.037
0.041 -0.021 0.047
0.037 -0.035 0.059
0.041 -0.019 0.055
0.033 -0.019 0.077
0.041 -0.033 0.083
0.027 -0.039 0.095
0.033 -0.043 0.101
0.031 -0.035 0.097
0.039 -0.023 0.103
0.021 -0.035 0.039
0.035 -0.037 0.051
0.035 -0.037 0.055
0.037 -0.033 0.039
0.035 -0.021 0.073
0.001 -0.001 0.077
-0.013 0.015 0.081
0.041 -0.025 0.049
0.037 -0.023 0.087
-0.013 -0.005 0.039
0.035 -0.041 0.105
0.041 -0.041 0.103
0.005 -0.019 0.047
0.007 -0.017 0.049
0.023 -0.037 0.099
0.025 -0.035 0.099
0.015 -0.017 0.105
0.005 -0.009 0.059
0.033 -0.021 0.105
0.041 -0.027 0.059
0.031 -0.043 0.091
0.041 -0.037 0.103
0.041 -0.039 0.105
0.025 -0.033 0.099
0.029 -0.027 0.105
0.011 -0.003 0.103
0.039 -0.035 0.105
0.017 -0.015 0.107
-0.023 0.013 0.067
0.009 -0.003 0.103
-0.027 0.023 0.051
-0.021 0.007 0.061
-0.029 0.009 0.061
-0.005 0.005 0.077
-0.013 0.017 0.089
0.005 0.023 0.089
-0.019 0.013 0.073
0.001 0.021 0.091
-0.001 0.015 0.093
-0.029 0.033 0.071
-0.001 0.027 0.089
-0.003 0.029 0.089
-0.005 0.031 0.087
-0.003 0.029 0.089
0.001 0.015 0.095
0.005 0.019 0.091
0.001 -0.005 0.047
0.001 -0.003 0.047
0.009 -0.029 0.047
0.027 -0.043 0.087
0.017 -0.001 0.081
0.019 -0.025 0.089
0.015 -0.017 0.101
0.009 0.001 0.101
0.019 -0.021 0.077
0.017 -0.023 0.097
0.015 -0.017 0.099
0.021 -0.019 0.105
0.011 -0.009 0.101
0.029 -0.035 0.101
0.017 -0.001 0.107
-0.039 0.031 0.051
-0.037 0.033 0.049
-0.039 0.025 0.057
-0.033 0.035 0.065
-0.009 0.013 0.057
-0.015 0.015 0.081
-0.015 0.015 0.081
-0.019 0.019 0.067
-0.027 0.033 0.083
-0.017 0.031 0.089
-0.037 0.041 0.087
-0.027 0.035 0.087
-0.009 0.033 0.045
-0.029 0.037 0.067
-0.003 0.035 0.041
-0.019 0.019 0.079
0.003 0.013 0.093
0.009 0.001 0.103
0.027 0.005 0.099
0.015 0.009 0.113
0.019 0.001 0.035
0.029 -0.007 0.051
0.013 0.009 0.047
0.019 0.005 0.039
0.025 -0.011 0.061
0.039 -0.009 0.039
0.027 -0.001 0.083
0.021 -0.001 0.097
0.035 -0.011 0.093
0.033 -0.005 0.095
0.033 -0.001 0.101
-0.019 0.023 0.047
-0.013 0.027 0.047
0.001 0.025 0.063
0.015 0.005 0.039
0.005 0.017 0.067
0.005 0.023 0.075
0.013 0.015 0.083
0.035 -0.001 0.035
0.043 -0.015 0.041
0.041 -0.011 0.039
0.041 -0.033 0.085
0.039 -0.029 0.085
0.027 -0.003 0.075
0.035 -0.015 0.087
0.039 -0.017 0.093
0.031 0.003 0.095
0.029 0.005 0.095
0.029 0.007 0.095
0.037 -0.021 0.067
0.039 -0.027 0.083
0.033 -0.001 0.099
0.009 0.029 0.037
0.003 0.027 0.049
0.003 0.013 0.045
0.007 0.027 0.045
0.005 0.019 0.045
0.005 0.019 0.053
-0.007 0.035 0.063
-0.005 0.033 0.061
-0.017 0.035 0.035
0.027 0.007 0.037
0.027 -0.005 0.051
0.017 -0.003 0.067
0.029 -0.005 0.079
0.041 -0.031 0.045
0.041 -0.017 0.045
0.039 -0.007 0.037
0.029 -0.039 0.051
0.039 -0.035 0.053
0.039 -0.033 0.055
0.037 -0.035 0.059
0.039 -0.035 0.049
0.041 -0.021 0.049
0.039 -0.019 0.043
0.019 -0.007 0.061
0.025 -0.001 0.051
0.031 -0.011 0.063
0.043 -0.037 0.085
0.043 -0.037 0.085
0.031 -0.007 0.081
0.029 -0.005 0.073
0.035 -0.009 0.093
0.031 -0.003 0.083
0.037 -0.019 0.091
0.033 -0.027 0.105
0.027 -0.011 0.107
0.021 0.003 0.059
0.025 -0.003 0.053
0.021 0.003 0.061
-0.001 0.027 0.067
0.001 0.017 0.095
-0.001 0.031 0.077
0.005 0.015 0.047
0.003 0.027 0.055
0.033 -0.001 0.093
0.017 -0.011 0.057
0.021 -0.029 0.097
0.013 -0.011 0.095
0.009 -0.005 0.097
0.019 -0.005 0.101
0.019 -0.005 0.109
-0.021 0.009 0.067
-0.033 0.017 0.049
-0.041 0.023 0.051
-0.033 0.023 0.059
-0.029 0.009 0.061
-0.003 0.001 0.035
-0.019 0.019 0.067
-0.019 0.019 0.075
-0.019 0.023 0.083
-0.023 0.037 0.085
0.007 0.001 0.081
0.009 -0.003 0.089
0.003 0.007 0.089
-0.007 0.013 0.091
-0.007 0.017 0.091
0.009 0.011 0.091
0.001 0.011 0.091
0.007 0.017 0.089
0.019 0.001 0.111
0.017 -0.033 0.031
0.035 -0.031 0.035
0.037 -0.027 0.035
0.041 -0.027 0.047
0.021 -0.007 0.057
0.051 -0.019 0.037
0.041 -0.017 0.053
0.043 -0.035 0.095
0.035 -0.021 0.073
0.037 -0.021 0.083
0.037 -0.029 0.067
0.043 -0.015 0.049
0.039 -0.023 0.041
0.049 -0.021 0.039
0.023 0.001 0.057
0.021 0.005 0.059
0.019 0.009 0.065
0.035 -0.011 0.083
-0.001 0.027 0.073
-0.001 0.029 0.075
-0.003 0.033 0.071
0.007 0.023 0.083
0.021 -0.001 0.061
-0.001 -0.015 0.043
0.005 -0.031 0.039
0.009 -0.035 0.045
0.015 -0.039 0.043
0.015 -0.031 0.055
0.017 -0.031 0.057
0.019 -0.027 0.067
0.005 -0.031 0.043
0.001 -0.007 0.053
0.027 -0.033 0.099
0.015 -0.013 0.079
-0.037 0.025 0.059
-0.023 0.013 0.059
-0.027 0.013 0.061
-0.025 0.013 0.063
-0.019 0.019 0.065
-0.023 0.041 0.079
-0.013 0.035 0.077
-0.019 0.025 0.081
-0.007 0.019 0.093
-0.019 0.035 0.079
-0.001 0.017 0.095
-0.003 0.035 0.041
0.015 0.005 0.111
0.013 -0.041 0.033
0.009 -0.043 0.043
0.011 -0.037 0.045
0.011 -0.037 0.045
0.009 -0.033 0.045
0.019 -0.037 0.037
0.021 -0.035 0.051
0.037 -0.029 0.067
0.045 -0.027 0.037
0.039 -0.033 0.043
0.041 -0.031 0.047
0.041 -0.031 0.045
0.043 -0.021 0.041
0.043 -0.019 0.051
0.041 -0.045 0.087
0.039 -0.047 0.093
0.029 -0.043 0.103
0.035 -0.027 0.087
0.031 -0.041 0.099
0.027 -0.041 0.101
0.033 -0.041 0.105
0.043 -0.035 0.095
0.043 -0.037 0.097
0.035 -0.043 0.105
-0.021 0.001 0.035
-0.007 0.005 0.047
-0.007 0.009 0.085
0.039 -0.033 0.057
0.037 -0.029 0.067
0.029 -0.035 0.063
0.043 -0.045 0.085
0.041 -0.041 0.103
0.033 -0.043 0.105
0.023 -0.037 0.051
0.027 -0.037 0.059
0.003 -0.033 0.035
0.001 -0.021 0.039
0.017 -0.023 0.061
0.009 -0.027 0.051
0.009 -0.017 0.051
0.023 -0.035 0.097
0.035 -0.047 0.093
0.017 -0.015 0.069
0.017 -0.011 0.073
0.023 -0.025 0.075
0.015 -0.017 0.093
0.021 -0.033 0.097
0.031 -0.037 0.105
0.011 -0.007 0.099
0.011 -0.007 0.103
0.013 -0.011 0.109
-0.037 0.015 0.043
-0.035 0.019 0.051
-0.031 0.007 0.057
-0.021 0.023 0.065
-0.041 0.023 0.051
-0.023 0.011 0.067
-0.003 0.011 0.091
-0.025 0.031 0.073
-0.031 0.035 0.087
0.001 -0.007 0.051
0.001 0.013 0.091
0.011 -0.003 0.103
0.005 -0.031 0.043
0.007 -0.035 0.045
0.003 -0.005 0.063
0.003 -0.005 0.041
-0.029 0.003 0.049
0.017 -0.021 0.067
0.015 -0.017 0.089
0.035 -0.035 0.107
0.023 -0.007 0.115
-0.029 0.029 0.033
-0.039 0.019 0.039
-0.029 0.011 0.051
-0.027 0.033 0.079
-0.029 0.037 0.075
-0.013 0.015 0.085
0.017 0.001 0.085
-0.035 0.029 0.063
-0.035 0.041 0.081
-0.035 0.045 0.081
-0.019 0.013 0.065
0.007 -0.019 0.049
-0.017 0.033 0.083
-0.007 0.033 0.085
-0.007 0.035 0.079
0.031 -0.049 0.087
0.017 -0.021 0.099
-0.009 0.019 0.091
0.023 0.001 0.089
0.015 -0.009 0.107
0.023 -0.017 0.105
-0.035 0.035 0.053
-0.039 0.025 0.057
-0.031 0.009 0.049
-0.037 0.031 0.061
-0.031 0.009 0.049
-0.027 0.041 0.083
-0.015 0.029 0.055
-0.013 0.033 0.085
-0.009 0.021 0.091
-0.035 0.043 0.077
-0.023 0.037 0.085
-0.001 0.033 0.043
0.001 0.035 0.039
0.001 0.017 0.095
0.001 0.019 0.095
0.007 -0.039 0.035
0.007 -0.037 0.037
0.015 -0.027 0.057
0.017 -0.027 0.059
0.017 -0.021 0.057
0.027 -0.037 0.039
0.025 -0.037 0.039
0.045 -0.027 0.037
0.029 -0.035 0.063
0.027 -0.033 0.065
0.041 -0.037 0.095
0.017 -0.021 0.071
0.023 -0.027 0.073
0.021 -0.033 0.085
0.031 -0.025 0.089
0.029 -0.041 0.097
0.025 -0.039 0.101
0.025 -0.011 0.109
-0.041 0.019 0.043
-0.019 -0.001 0.035
-0.021 0.005 0.047
-0.019 0.003 0.047
-0.021 0.005 0.055
-0.005 0.015 0.061
-0.033 0.029 0.065
-0.009 0.015 0.091
-0.007 0.019 0.093
0.005 0.001 0.081
0.023 -0.027 0.091
0.015 0.005 0.109
0.013 0.011 0.111
0.031 -0.035 0.061
0.013 -0.041 0.037
0.003 -0.013 0.051
0.041 -0.031 0.045
0.041 -0.031 0.055
0.021 -0.033 0.083
0.039 -0.047 0.093
-0.015 -0.007 0.033
-0.007 0.005 0.047
-0.013 0.003 0.041
-0.003 -0.019 0.035
-0.007 0.005 0.047
-0.019 0.007 0.053
-0.023 0.005 0.057
0.011 -0.031 0.047
-0.017 0.011 0.065
-0.009 0.013 0.089
-0.031 0.039 0.075
0.011 -0.009 0.087
0.025 -0.037 0.055
0.037 -0.027 0.069
0.039 -0.021 0.063
0.043 -0.015 0.041
0.041 -0.023 0.049
0.037 -0.041 0.101
0.043 -0.039 0.087
0.031 -0.007 0.077
0.031 -0.007 0.083
0.043 -0.035 0.097
0.045 -0.037 0.101
0.039 -0.029 0.085
0.039 -0.025 0.083
0.037 -0.019 0.081
0.035 -0.013 0.103
0.035 -0.011 0.103
0.037 -0.017 0.067
0.043 -0.037 0.083
0.041 -0.035 0.089
0.037 -0.025 0.069
0.033 -0.029 0.071
0.045 -0.037 0.101
0.037 -0.019 0.081
0.037 -0.019 0.083
0.037 -0.025 0.087
0.033 -0.011 0.077
0.031 0.001 0.085
0.039 -0.019 0.101
0.023 -0.001 0.109
0.035 -0.001 0.037
0.037 -0.019 0.069
0.023 0.003 0.053
0.031 0.001 0.085
0.005 -0.029 0.045
-0.021 0.013 0.061
0.001 0.003 0.057
0.027 -0.043 0.087
0.015 -0.017 0.085
0.009 -0.003 0.091
0.019 -0.025 0.099
0.017 -0.021 0.099
0.009 -0.001 0.097
-0.039 0.019 0.037
-0.041 0.029 0.047
-0.033 0.029 0.065
-0.005 0.033 0.041
-0.031 0.037 0.063
-0.035 0.043 0.079
-0.009 0.033 0.085
-0.011 0.029 0.047
-0.029 0.037 0.065
-0.031 0.037 0.063
-0.021 0.027 0.075
-0.007 0.021 0.093
0.027 0.005 0.103
0.033 -0.009 0.051
0.027 0.007 0.039
0.037 -0.013 0.055
0.035 -0.015 0.061
0.035 -0.005 0.045
0.023 0.001 0.057
0.029 -0.009 0.065
0.023 -0.007 0.055
0.041 -0.011 0.039
0.049 -0.015 0.037
0.037 -0.005 0.037
0.039 -0.031 0.085
0.041 -0.023 0.095
0.039 -0.017 0.093
0.033 -0.021 0.105
0.013 -0.003 0.101
0.025 -0.003 0.105
0.027 -0.007 0.109
0.039 -0.023 0.103
0.007 0.027 0.043
0.003 0.031 0.041
0.005 0.017 0.051
-0.003 0.003 0.035
-0.025 0.031 0.041
0.009 0.029 0.041
-0.001 0.019 0.063
-0.019 0.035 0.035
-0.009 0.033 0.041
0.001 0.027 0.079
0.009 0.019 0.087
-0.029 0.041 0.075
-0.019 0.025 0.043
-0.015 0.027 0.045
-0.009 0.033 0.043
-0.015 0.033 0.063
0.029 0.003 0.043
0.021 0.007 0.059
0.003 0.027 0.087
-0.011 0.033 0.083
-0.015 0.031 0.089
-0.005 0.023 0.095
0.001 0.019 0.095
-0.001 0.023 0.093
0.019 0.003 0.091
0.021 -0.011 0.105
-0.035 0.029 0.039
-0.037 0.033 0.049
-0.033 0.033 0.043
-0.037 0.029 0.041
-0.033 0.033 0.047
-0.035 0.035 0.053
-0.029 0.031 0.041
-0.019 0.023 0.047
-0.037 0.033 0.053
-0.031 0.033 0.069
-0.033 0.043 0.085
-0.005 0.033 0.081
-0.001 0.031 0.081
0.019 0.001 0.105
