0.011 -0.043 0.041
0.019 -0.037 0.041
0.027 -0.035 0.061
0.015 -0.033 0.047
0.033 -0.037 0.055
0.027 -0.047 0.083
0.037 -0.047 0.087
0.035 -0.047 0.089
0.025 -0.029 0.071
0.031 -0.013 0.079
0.039 -0.047 0.093
0.039 -0.029 0.085
0.041 -0.037 0.095
0.037 -0.019 0.091
0.037 -0.017 0.091
0.037 -0.039 0.099
0.045 -0.037 0.101
0.033 -0.037 0.049
0.033 -0.037 0.049
-0.027 0.003 0.053
0.031 -0.037 0.051
0.027 -0.037 0.053
0.041 -0.025 0.057
0.027 -0.023 0.077
0.037 -0.041 0.083
0.023 -0.023 0.077
0.029 -0.029 0.071
0.049 -0.027 0.035
0.039 -0.027 0.063
0.041 -0.025 0.055
0.039 -0.023 0.061
0.037 -0.017 0.067
0.033 -0.017 0.075
0.033 -0.017 0.075
-0.003 -0.013 0.043
0.039 -0.027 0.097
0.027 -0.025 0.105
0.031 -0.041 0.103
0.029 -0.041 0.103
0.025 -0.031 0.099
0.039 -0.037 0.105
0.045 -0.039 0.101
0.023 -0.023 0.105
0.003 -0.003 0.073
0.025 -0.025 0.105
0.019 -0.017 0.105
0.021 -0.017 0.105
0.025 -0.009 0.113
0.037 -0.037 0.107
0.039 -0.041 0.105
0.009 -0.005 0.101
0.019 -0.011 0.103
0.023 -0.005 0.115
0.039 -0.023 0.097
-0.009 0.019 0.091
-0.015 0.005 0.049
0.001 -0.003 0.069
-0.013 0.003 0.045
0.011 -0.003 0.103
-0.017 0.013 0.073
-0.029 0.003 0.055
-0.019 0.005 0.051
-0.015 0.021 0.089
-0.031 0.031 0.067
0.005 0.021 0.089
-0.007 0.031 0.089
0.007 0.029 0.045
0.029 0.005 0.101
-0.003 -0.009 0.039
0.001 -0.013 0.049
0.013 -0.027 0.055
0.019 -0.029 0.059
0.003 -0.019 0.043
0.005 -0.023 0.047
-0.001 -0.011 0.047
0.015 -0.023 0.055
0.019 -0.019 0.061
0.005 -0.007 0.063
-0.001 0.001 0.077
0.017 -0.007 0.075
0.011 -0.007 0.103
0.025 -0.037 0.101
0.031 -0.035 0.103
0.013 -0.009 0.103
0.017 0.003 0.107
-0.031 0.011 0.041
-0.039 0.021 0.051
-0.031 0.009 0.051
-0.039 0.027 0.057
-0.039 0.025 0.057
-0.021 0.013 0.061
-0.019 0.019 0.071
-0.035 0.029 0.063
-0.035 0.023 0.059
-0.031 0.037 0.061
-0.019 0.019 0.079
-0.021 0.025 0.079
-0.037 0.039 0.087
-0.019 0.021 0.081
-0.013 0.031 0.089
-0.037 0.041 0.087
-0.023 0.013 0.063
-0.029 0.035 0.071
-0.019 0.021 0.081
0.005 0.017 0.069
0.035 -0.001 0.037
0.013 0.013 0.059
0.023 -0.001 0.077
0.033 -0.001 0.093
0.035 -0.015 0.067
0.039 -0.023 0.103
0.043 -0.029 0.097
0.043 -0.035 0.101
0.035 -0.033 0.105
0.019 -0.007 0.101
0.011 -0.001 0.101
0.023 -0.001 0.109
0.001 0.035 0.037
0.005 0.037 0.037
-0.013 0.033 0.041
-0.015 0.031 0.043
-0.001 0.035 0.039
-0.009 0.031 0.047
-0.003 0.031 0.057
0.001 0.025 0.063
-0.025 0.035 0.061
-0.021 0.031 0.063
-0.007 0.031 0.051
-0.001 0.031 0.085
-0.027 0.037 0.087
0.007 0.027 0.045
0.025 0.003 0.045
0.005 0.037 0.037
0.005 0.025 0.047
0.009 0.015 0.061
0.003 0.027 0.055
0.005 0.025 0.079
0.007 0.013 0.091
0.011 0.019 0.081
0.029 0.007 0.101
0.025 0.001 0.047
0.047 -0.015 0.039
0.041 -0.021 0.051
0.047 -0.019 0.039
0.029 -0.001 0.041
0.031 -0.013 0.055
0.023 -0.007 0.055
0.039 -0.021 0.045
0.041 -0.011 0.051
0.043 -0.041 0.083
0.023 -0.003 0.075
0.035 -0.011 0.091
0.029 0.005 0.093
0.027 -0.001 0.081
0.033 0.001 0.097
0.041 -0.023 0.093
0.003 0.017 0.037
0.001 0.021 0.035
-0.001 0.023 0.033
0.003 0.017 0.055
0.005 0.037 0.037
-0.029 0.033 0.053
-0.007 0.033 0.087
0.007 0.025 0.041
0.029 0.003 0.087
0.003 0.027 0.083
0.033 0.001 0.097
0.041 -0.023 0.053
0.035 -0.037 0.043
0.039 -0.033 0.043
0.039 -0.033 0.041
0.037 -0.033 0.063
0.041 -0.029 0.057
0.037 -0.029 0.067
0.033 -0.011 0.069
0.041 -0.023 0.053
0.037 -0.023 0.099
0.039 -0.025 0.097
0.031 -0.001 0.085
0.033 -0.003 0.091
0.043 -0.037 0.103
0.043 -0.041 0.103
0.043 -0.033 0.099
0.033 -0.009 0.105
0.003 0.023 0.055
0.003 0.025 0.057
0.017 0.009 0.069
0.013 0.017 0.077
0.023 0.001 0.053
0.013 0.015 0.063
0.003 0.025 0.057
-0.001 0.031 0.059
0.001 0.029 0.047
0.015 0.011 0.075
0.007 0.013 0.093
-0.001 0.029 0.075
-0.003 0.033 0.077
-0.007 0.031 0.089
0.003 0.017 0.055
0.015 0.015 0.071
0.011 0.009 0.085
0.031 0.003 0.101
0.007 -0.039 0.043
0.029 -0.037 0.059
0.029 -0.037 0.059
0.007 -0.029 0.045
0.021 -0.031 0.063
0.003 -0.013 0.051
0.001 -0.009 0.051
0.013 -0.029 0.055
0.011 -0.023 0.053
0.027 -0.033 0.067
0.023 -0.029 0.103
0.031 -0.043 0.105
0.023 -0.025 0.105
0.021 -0.021 0.105
0.023 -0.023 0.105
0.033 -0.033 0.105
0.029 -0.021 0.105
0.027 -0.017 0.105
0.027 -0.025 0.105
0.023 -0.019 0.105
-0.037 0.015 0.045
-0.021 0.005 0.049
-0.019 0.005 0.051
-0.007 0.009 0.085
-0.019 0.021 0.083
-0.009 0.017 0.091
-0.007 0.025 0.095
-0.027 0.033 0.073
-0.007 0.011 0.089
-0.001 -0.001 0.063
-0.003 0.007 0.087
0.021 -0.001 0.109
0.037 -0.033 0.063
0.041 -0.029 0.049
0.033 -0.035 0.059
0.035 -0.005 0.039
0.035 -0.027 0.071
0.031 -0.007 0.077
0.029 -0.005 0.075
0.041 -0.025 0.095
0.039 -0.025 0.065
0.035 -0.015 0.071
0.031 0.001 0.039
0.043 -0.021 0.041
0.041 -0.011 0.047
0.047 -0.023 0.041
0.039 -0.021 0.045
0.041 -0.015 0.043
0.035 -0.005 0.041
0.025 0.005 0.049
0.035 -0.015 0.059
0.037 -0.017 0.065
0.015 0.013 0.061
0.037 -0.017 0.067
0.029 -0.007 0.073
0.009 0.019 0.087
0.017 0.011 0.071
0.009 0.021 0.075
-0.003 0.033 0.071
0.025 0.005 0.047
0.009 0.027 0.037
0.033 -0.005 0.091
-0.027 0.009 0.063
-0.001 -0.009 0.045
0.015 -0.029 0.057
0.009 -0.029 0.047
0.011 -0.025 0.053
-0.005 0.009 0.087
0.009 0.001 0.097
0.013 -0.013 0.101
0.009 -0.001 0.103
0.009 -0.001 0.097
0.023 -0.035 0.099
0.029 -0.031 0.101
0.019 -0.021 0.101
0.009 -0.001 0.103
0.013 -0.013 0.101
0.021 -0.011 0.105
0.033 -0.041 0.105
0.015 -0.015 0.101
0.015 -0.009 0.107
0.037 -0.031 0.103
0.035 -0.007 0.105
-0.033 0.029 0.065
-0.029 0.011 0.051
-0.025 0.019 0.047
-0.019 0.019 0.047
-0.037 0.041 0.087
-0.021 0.013 0.069
-0.017 0.019 0.057
-0.025 0.039 0.085
-0.035 0.045 0.081
-0.023 0.013 0.067
-0.017 0.025 0.087
-0.035 0.039 0.087
-0.011 0.023 0.091
-0.003 0.019 0.095
-0.011 0.023 0.091
0.001 0.009 0.089
-0.007 0.025 0.095
0.017 0.003 0.111
-0.017 -0.005 0.037
0.005 -0.035 0.035
0.027 -0.037 0.039
0.023 -0.037 0.051
0.013 -0.027 0.055
0.029 -0.045 0.087
0.025 -0.041 0.085
0.017 -0.021 0.069
0.015 -0.019 0.085
0.021 -0.029 0.089
0.013 -0.011 0.085
0.011 -0.007 0.089
0.023 -0.023 0.077
0.027 -0.027 0.091
0.015 -0.015 0.089
0.031 -0.043 0.105
0.019 -0.021 0.103
-0.033 0.013 0.041
-0.039 0.023 0.037
-0.019 0.001 0.037
-0.027 0.009 0.039
-0.029 0.005 0.057
-0.019 0.021 0.067
-0.033 0.019 0.053
-0.035 0.033 0.063
-0.017 0.023 0.085
-0.035 0.041 0.079
-0.015 0.021 0.051
-0.003 0.005 0.069
0.007 -0.003 0.075
-0.015 0.015 0.081
-0.009 0.011 0.085
0.017 -0.001 0.109
-0.021 0.001 0.035
0.007 -0.039 0.035
0.005 -0.029 0.041
0.003 -0.007 0.061
0.003 -0.007 0.061
-0.001 -0.007 0.043
0.001 -0.003 0.053
0.001 -0.003 0.053
0.017 -0.023 0.085
0.017 0.001 0.087
0.015 -0.013 0.085
0.025 -0.039 0.101
0.033 -0.033 0.105
0.021 -0.027 0.099
0.023 -0.025 0.105
0.017 -0.001 0.109
-0.039 0.031 0.049
-0.023 0.003 0.037
-0.033 0.033 0.045
-0.019 0.021 0.063
-0.025 0.009 0.065
-0.013 0.015 0.077
-0.033 0.029 0.065
-0.017 0.019 0.083
-0.029 0.035 0.071
-0.031 0.037 0.089
-0.031 0.009 0.051
-0.031 0.011 0.057
-0.003 0.005 0.069
-0.019 0.019 0.073
0.015 0.009 0.113
0.029 -0.039 0.051
0.035 -0.037 0.043
0.029 -0.035 0.035
0.009 -0.043 0.039
0.015 -0.007 0.061
0.033 -0.035 0.037
0.043 -0.027 0.037
0.029 -0.035 0.037
0.039 -0.033 0.043
0.047 -0.025 0.039
0.035 -0.035 0.061
0.031 -0.037 0.055
0.029 -0.029 0.073
0.015 -0.015 0.077
0.019 -0.029 0.085
0.019 -0.025 0.095
0.023 -0.031 0.089
0.029 -0.031 0.069
0.031 -0.047 0.089
0.029 -0.043 0.103
-0.025 0.009 0.037
-0.025 0.003 0.039
-0.031 0.013 0.045
-0.013 -0.007 0.037
-0.013 -0.007 0.037
-0.031 0.007 0.049
-0.027 0.003 0.045
-0.021 0.005 0.047
-0.031 0.005 0.051
-0.011 0.015 0.059
-0.035 0.027 0.061
-0.027 0.031 0.073
-0.023 0.031 0.073
-0.005 0.007 0.081
-0.013 0.027 0.091
-0.033 0.039 0.087
-0.023 0.033 0.079
-0.025 0.033 0.085
-0.021 0.033 0.081
0.013 -0.017 0.055
0.017 -0.005 0.065
-0.001 0.017 0.061
-0.001 -0.001 0.067
0.007 -0.005 0.067
0.013 0.001 0.081
0.019 -0.025 0.095
0.015 -0.041 0.033
0.017 -0.039 0.033
0.029 -0.033 0.033
0.039 -0.033 0.055
0.023 -0.033 0.035
0.015 -0.031 0.053
0.019 -0.031 0.057
0.007 -0.009 0.059
0.001 -0.005 0.061
0.027 -0.037 0.055
0.033 -0.031 0.033
0.041 -0.031 0.051
0.029 -0.047 0.085
0.029 -0.033 0.065
0.023 -0.029 0.093
0.021 -0.029 0.089
0.035 -0.031 0.065
0.037 -0.041 0.101
0.037 -0.039 0.099
0.027 -0.041 0.101
-0.033 0.013 0.035
-0.023 0.003 0.037
-0.029 0.011 0.035
-0.025 0.003 0.047
-0.021 0.001 0.033
-0.015 0.003 0.047
-0.005 0.007 0.075
-0.009 0.011 0.083
-0.001 0.007 0.089
-0.017 0.013 0.073
0.025 -0.037 0.041
0.033 -0.037 0.049
0.017 -0.037 0.043
0.017 -0.033 0.053
0.033 -0.049 0.085
-0.003 -0.019 0.031
-0.041 0.021 0.047
0.005 -0.027 0.045
-0.019 0.019 0.067
-0.035 0.035 0.055
0.015 -0.015 0.097
0.017 -0.019 0.073
0.013 -0.013 0.087
0.015 -0.017 0.095
0.031 -0.035 0.105
0.019 -0.023 0.099
0.015 -0.009 0.105
0.011 -0.009 0.099
-0.039 0.019 0.037
-0.041 0.023 0.041
-0.031 0.005 0.051
-0.033 0.031 0.065
-0.009 0.013 0.089
-0.033 0.039 0.077
-0.029 0.043 0.081
-0.013 0.031 0.043
-0.003 0.035 0.037
0.021 0.007 0.047
0.021 0.005 0.059
0.021 -0.011 0.061
0.015 0.013 0.063
0.025 -0.001 0.053
0.043 -0.017 0.051
0.041 -0.013 0.051
0.037 -0.027 0.087
0.039 -0.019 0.095
0.033 -0.007 0.087
0.017 0.003 0.071
0.027 -0.003 0.077
0.035 -0.009 0.101
0.025 0.007 0.097
0.025 -0.001 0.081
0.039 -0.023 0.091
0.037 -0.021 0.091
0.037 -0.023 0.087
-0.007 0.033 0.041
-0.023 0.037 0.065
0.003 0.025 0.057
0.003 0.027 0.047
-0.011 0.035 0.063
-0.001 0.031 0.063
0.013 0.017 0.079
0.007 0.023 0.079
-0.001 0.031 0.077
-0.013 0.035 0.079
-0.001 0.029 0.087
-0.009 0.031 0.089
-0.001 0.023 0.093
0.001 0.019 0.095
-0.007 0.029 0.091
-0.015 0.033 0.087
-0.011 0.035 0.081
-0.009 0.035 0.083
0.009 0.031 0.041
0.005 0.017 0.043
0.005 0.021 0.049
0.009 0.021 0.075
0.017 0.007 0.073
0.033 0.001 0.097
