-0.011 -0.007 0.035
0.011 -0.043 0.041
0.007 -0.039 0.041
0.019 -0.033 0.049
0.015 -0.019 0.055
0.007 -0.011 0.057
0.003 -0.007 0.059
0.017 -0.021 0.067
0.025 -0.037 0.039
0.031 -0.039 0.049
0.029 -0.043 0.089
0.019 -0.025 0.071
0.023 -0.035 0.085
0.023 -0.035 0.097
0.019 -0.025 0.097
0.009 -0.003 0.089
0.031 -0.031 0.089
0.019 -0.025 0.099
-0.033 0.013 0.039
-0.039 0.019 0.039
-0.041 0.021 0.045
-0.039 0.019 0.049
-0.033 0.019 0.053
-0.039 0.025 0.055
-0.021 0.001 0.035
-0.025 0.009 0.035
-0.029 0.005 0.045
-0.019 0.003 0.039
-0.009 0.011 0.051
-0.033 0.023 0.059
-0.027 0.009 0.063
-0.023 0.029 0.061
-0.021 0.029 0.061
-0.009 0.013 0.077
-0.005 0.009 0.087
-0.015 0.017 0.087
-0.011 0.019 0.091
-0.029 0.033 0.071
-0.013 0.017 0.075
-0.021 0.023 0.077
0.007 -0.019 0.049
-0.009 0.005 0.047
-0.001 0.003 0.059
-0.001 0.013 0.055
0.007 -0.001 0.077
0.017 -0.039 0.039
0.013 -0.041 0.039
0.015 -0.041 0.039
0.029 -0.037 0.055
0.031 -0.037 0.059
0.025 -0.035 0.037
0.029 -0.039 0.051
0.029 -0.037 0.053
0.037 -0.027 0.035
0.041 -0.031 0.047
0.041 -0.017 0.043
0.033 -0.043 0.083
0.027 -0.033 0.065
0.023 -0.029 0.071
0.027 -0.031 0.069
0.027 -0.033 0.067
0.037 -0.029 0.067
0.033 -0.025 0.073
0.035 -0.023 0.073
0.033 -0.017 0.075
0.033 -0.043 0.083
0.039 -0.025 0.091
0.033 -0.031 0.069
0.037 -0.021 0.085
0.041 -0.029 0.093
0.031 -0.027 0.095
0.019 -0.035 0.035
0.023 -0.035 0.037
0.017 -0.037 0.043
0.025 -0.037 0.043
-0.021 0.009 0.057
-0.023 0.003 0.047
0.029 -0.037 0.043
0.035 -0.037 0.045
-0.019 0.009 0.061
0.033 -0.037 0.055
0.035 -0.035 0.059
0.023 -0.037 0.053
0.037 -0.033 0.061
0.031 -0.037 0.059
-0.017 0.011 0.065
0.023 -0.031 0.067
0.043 -0.045 0.085
0.033 -0.031 0.069
0.033 -0.031 0.069
0.029 -0.029 0.071
0.035 -0.021 0.071
0.023 -0.021 0.081
0.037 -0.037 0.049
0.041 -0.031 0.049
0.035 -0.035 0.059
0.035 -0.015 0.071
0.033 -0.019 0.075
0.019 -0.019 0.079
0.023 -0.001 0.109
0.017 -0.037 0.043
0.029 -0.041 0.103
0.035 -0.043 0.091
0.037 -0.041 0.105
0.019 -0.017 0.105
0.019 -0.027 0.097
0.003 -0.013 0.051
0.017 -0.017 0.105
0.029 -0.039 0.101
0.013 -0.007 0.103
0.029 -0.019 0.105
0.035 -0.017 0.103
0.031 -0.009 0.103
0.027 -0.027 0.105
0.033 -0.007 0.105
0.039 -0.025 0.097
0.041 -0.039 0.105
0.015 -0.015 0.107
0.035 -0.003 0.107
-0.035 0.015 0.047
-0.031 0.023 0.057
-0.039 0.019 0.049
-0.021 0.003 0.045
-0.007 0.009 0.085
-0.019 0.019 0.079
-0.009 0.013 0.089
-0.023 0.011 0.067
0.003 0.011 0.091
-0.031 0.029 0.067
0.001 0.023 0.091
0.001 -0.001 0.077
0.001 0.001 0.081
-0.013 0.017 0.089
0.023 -0.005 0.115
0.029 -0.011 0.105
0.035 -0.007 0.105
0.017 0.007 0.113
0.015 0.009 0.113
0.007 0.007 0.089
0.015 0.009 0.113
0.013 -0.001 0.095
0.001 0.009 0.089
0.025 -0.005 0.115
0.001 0.021 0.091
0.033 -0.001 0.109
0.001 -0.009 0.035
0.027 -0.001 0.045
0.027 0.001 0.043
0.043 -0.015 0.051
0.015 0.003 0.037
0.013 0.011 0.051
0.027 0.007 0.039
0.029 0.005 0.039
0.015 0.013 0.063
0.041 -0.025 0.059
0.035 -0.011 0.091
0.035 -0.009 0.093
0.015 0.013 0.077
0.013 -0.003 0.091
0.021 0.001 0.095
0.037 -0.021 0.069
0.039 -0.025 0.085
0.037 -0.013 0.097
0.033 -0.005 0.095
0.039 -0.019 0.101
0.031 -0.001 0.105
0.015 -0.007 0.103
0.017 -0.005 0.099
0.021 0.003 0.107
0.021 0.001 0.105
0.019 -0.001 0.099
0.023 -0.001 0.105
0.021 0.005 0.109
-0.029 0.029 0.047
-0.033 0.031 0.041
-0.005 0.031 0.051
-0.029 0.031 0.047
-0.007 0.033 0.057
-0.003 0.031 0.057
-0.001 0.031 0.055
-0.001 0.031 0.059
0.001 0.021 0.061
-0.013 0.031 0.057
0.003 0.019 0.071
-0.001 0.023 0.065
-0.001 0.029 0.073
0.005 0.025 0.085
-0.005 0.029 0.089
-0.011 0.037 0.069
0.027 0.003 0.031
0.019 0.007 0.043
0.005 0.021 0.053
0.003 0.025 0.057
0.011 0.019 0.077
0.019 0.001 0.089
0.029 0.007 0.089
0.029 0.003 0.043
0.043 -0.019 0.041
0.041 -0.021 0.055
0.039 -0.021 0.057
0.041 -0.031 0.055
0.041 -0.029 0.057
0.031 -0.007 0.047
0.029 -0.009 0.051
0.031 -0.001 0.039
0.023 -0.001 0.057
0.019 -0.005 0.061
0.021 -0.005 0.057
0.039 -0.019 0.043
0.035 -0.005 0.039
0.043 -0.019 0.049
0.041 -0.037 0.087
0.039 -0.033 0.087
0.039 -0.033 0.081
0.035 -0.015 0.071
0.017 -0.003 0.069
0.021 -0.005 0.069
0.021 -0.001 0.075
0.029 -0.003 0.081
0.029 -0.005 0.081
0.037 -0.029 0.087
0.037 -0.029 0.101
0.001 0.021 0.033
-0.023 0.031 0.041
0.005 0.019 0.047
0.003 0.013 0.039
-0.001 0.031 0.049
-0.017 0.011 0.063
-0.005 0.017 0.065
0.001 0.015 0.057
-0.003 0.035 0.041
0.003 0.019 0.091
-0.029 0.041 0.083
-0.021 0.037 0.073
0.013 0.015 0.061
0.019 0.009 0.057
0.011 0.017 0.071
0.017 0.013 0.069
0.003 0.027 0.083
0.033 0.001 0.097
0.031 0.003 0.099
0.021 0.005 0.109
0.041 -0.027 0.041
0.037 -0.029 0.035
0.019 -0.037 0.037
0.033 -0.037 0.047
0.039 -0.035 0.051
0.035 -0.035 0.059
0.035 -0.003 0.035
0.037 -0.017 0.061
0.041 -0.013 0.051
0.041 -0.045 0.087
0.043 -0.043 0.083
0.043 -0.039 0.085
0.035 -0.015 0.073
0.035 -0.015 0.073
0.043 -0.039 0.085
0.041 -0.035 0.085
0.035 -0.031 0.089
0.029 -0.003 0.081
0.035 -0.023 0.089
0.037 -0.041 0.101
0.043 -0.041 0.103
0.043 -0.035 0.099
0.033 -0.023 0.105
0.037 -0.019 0.103
0.033 -0.019 0.105
0.039 -0.011 0.041
0.041 -0.025 0.043
0.025 -0.001 0.053
0.019 0.003 0.065
0.025 0.005 0.051
0.021 0.005 0.061
0.005 0.027 0.039
0.001 0.025 0.063
0.019 0.001 0.067
0.015 0.013 0.073
0.013 0.011 0.083
0.003 0.021 0.091
-0.003 0.031 0.069
0.025 0.005 0.053
0.003 0.025 0.051
0.009 0.029 0.037
0.031 -0.011 0.081
0.033 -0.005 0.087
0.033 -0.003 0.091
0.003 0.023 0.091
-0.013 -0.005 0.039
-0.003 -0.009 0.041
-0.001 0.007 0.063
-0.009 0.011 0.087
0.003 -0.019 0.043
0.009 -0.003 0.097
0.013 -0.005 0.103
0.027 -0.027 0.105
0.021 -0.025 0.073
0.011 -0.009 0.087
0.017 0.001 0.091
0.015 -0.017 0.089
0.019 -0.025 0.097
0.015 -0.017 0.105
0.037 -0.037 0.107
0.013 -0.005 0.103
0.043 -0.031 0.099
0.033 -0.023 0.105
-0.031 0.035 0.087
-0.037 0.033 0.049
-0.033 0.013 0.045
-0.021 0.011 0.069
-0.037 0.033 0.051
-0.033 0.039 0.087
-0.023 0.013 0.067
-0.019 0.019 0.065
-0.021 0.023 0.071
-0.015 0.025 0.089
-0.017 0.023 0.085
-0.013 0.015 0.087
-0.017 0.021 0.087
-0.019 0.031 0.083
-0.013 0.035 0.083
-0.027 0.039 0.087
-0.015 0.017 0.087
-0.003 0.017 0.093
-0.019 0.029 0.083
-0.013 0.019 0.089
-0.003 0.017 0.093
0.015 0.009 0.113
-0.001 0.019 0.095
0.019 0.001 0.111
-0.005 -0.015 0.035
0.005 -0.029 0.039
0.005 -0.033 0.039
-0.003 -0.015 0.037
-0.001 -0.019 0.037
0.013 -0.031 0.049
0.007 -0.015 0.049
0.013 -0.015 0.055
0.011 -0.011 0.057
0.013 -0.019 0.053
0.019 -0.031 0.059
0.033 -0.049 0.085
0.027 -0.041 0.087
0.031 -0.041 0.089
0.025 -0.039 0.101
0.015 -0.007 0.083
0.017 -0.021 0.089
0.021 -0.033 0.097
0.021 -0.029 0.087
0.013 -0.015 0.095
0.029 -0.031 0.101
0.013 -0.011 0.103
-0.041 0.027 0.053
-0.035 0.029 0.063
-0.031 0.011 0.037
-0.023 0.003 0.043
-0.015 0.001 0.037
-0.031 0.015 0.047
-0.013 0.027 0.047
-0.039 0.021 0.053
-0.021 0.011 0.069
-0.031 0.027 0.065
-0.005 0.007 0.083
-0.009 0.017 0.091
-0.007 0.023 0.095
-0.029 0.035 0.071
-0.025 0.013 0.063
-0.035 0.019 0.051
-0.005 0.011 0.073
0.001 0.015 0.093
0.025 0.007 0.097
0.017 0.001 0.109
-0.005 -0.013 0.035
-0.003 -0.009 0.037
0.007 -0.039 0.043
0.003 -0.025 0.041
-0.003 -0.013 0.039
0.007 -0.021 0.049
0.019 -0.023 0.063
0.007 -0.011 0.057
0.023 -0.027 0.073
0.001 -0.001 0.073
0.001 0.001 0.081
0.017 -0.021 0.091
0.017 -0.021 0.095
0.017 -0.021 0.095
0.017 -0.021 0.091
0.017 -0.019 0.101
0.009 -0.005 0.099
0.017 -0.001 0.107
-0.035 0.017 0.033
-0.037 0.033 0.051
-0.029 0.011 0.059
-0.033 0.033 0.045
-0.033 0.033 0.049
-0.013 0.015 0.065
-0.017 0.017 0.071
-0.017 0.021 0.085
-0.035 0.043 0.087
-0.031 0.009 0.053
-0.027 0.011 0.053
-0.019 0.021 0.073
-0.021 0.023 0.077
0.003 0.013 0.093
-0.011 0.037 0.069
-0.007 0.035 0.069
0.007 -0.035 0.045
0.019 -0.027 0.065
-0.025 0.011 0.065
-0.013 0.019 0.089
-0.011 0.033 0.085
-0.017 0.031 0.087
-0.003 0.029 0.089
0.025 -0.039 0.085
0.015 -0.019 0.091
0.015 0.007 0.113
0.021 -0.033 0.097
0.015 -0.015 0.103
0.023 -0.011 0.111
0.017 0.009 0.113
-0.039 0.025 0.039
-0.039 0.027 0.055
-0.029 0.011 0.055
-0.039 0.031 0.049
-0.035 0.033 0.049
-0.031 0.035 0.069
-0.007 0.013 0.091
-0.029 0.043 0.081
-0.009 0.033 0.087
-0.007 0.033 0.047
-0.005 0.031 0.053
-0.015 0.035 0.081
-0.007 0.025 0.095
-0.005 0.021 0.095
-0.001 0.017 0.095
0.025 0.007 0.097
0.001 0.027 0.089
0.025 -0.035 0.037
0.029 -0.039 0.051
0.001 -0.013 0.047
0.021 -0.035 0.049
0.011 -0.017 0.053
0.017 -0.009 0.059
0.037 -0.047 0.085
0.017 -0.021 0.069
0.023 -0.033 0.087
0.023 -0.031 0.089
0.021 -0.027 0.091
0.035 -0.031 0.067
0.017 -0.019 0.103
0.023 -0.025 0.105
0.027 -0.009 0.111
-0.025 0.003 0.033
-0.041 0.019 0.043
-0.037 0.015 0.045
-0.017 -0.005 0.035
-0.027 0.003 0.045
-0.015 -0.007 0.037
-0.013 0.007 0.051
-0.031 0.005 0.051
-0.031 0.005 0.055
-0.013 0.015 0.057
-0.019 0.009 0.061
-0.035 0.023 0.059
-0.017 0.021 0.087
-0.011 0.015 0.089
-0.023 0.033 0.079
-0.027 0.033 0.085
0.007 -0.025 0.049
0.005 -0.005 0.067
0.013 0.001 0.079
0.015 -0.019 0.091
0.003 0.013 0.093
0.033 -0.031 0.033
0.007 -0.041 0.041
0.005 -0.035 0.035
0.009 -0.031 0.047
0.015 -0.031 0.055
0.033 -0.037 0.049
0.033 -0.035 0.061
0.027 -0.037 0.057
0.041 -0.025 0.045
0.041 -0.031 0.051
0.029 -0.047 0.087
0.001 -0.003 0.069
0.017 -0.021 0.069
0.033 -0.023 0.075
0.029 -0.045 0.089
0.021 -0.021 0.079
0.025 -0.021 0.079
0.039 -0.049 0.091
0.027 -0.041 0.099
0.035 -0.043 0.103
0.043 -0.037 0.097
0.039 -0.039 0.097
-0.035 0.013 0.037
-0.019 -0.001 0.033
-0.017 0.003 0.047
-0.003 -0.017 0.037
-0.017 -0.005 0.035
-0.023 0.003 0.049
-0.023 0.005 0.053
-0.009 0.013 0.055
0.005 -0.009 0.055
-0.015 0.015 0.081
-0.029 0.037 0.075
-0.011 0.015 0.077
-0.009 0.017 0.073
-0.017 0.017 0.081
0.021 -0.037 0.043
0.017 -0.033 0.051
0.017 -0.033 0.055
0.015 -0.013 0.081
