0.035 -0.033 0.037
0.017 -0.033 0.055
0.027 -0.037 0.053
0.023 -0.037 0.051
0.041 -0.015 0.045
0.041 -0.029 0.049
0.039 -0.023 0.061
0.031 -0.029 0.071
0.033 -0.041 0.083
0.039 -0.045 0.089
0.043 -0.041 0.101
0.035 -0.007 0.099
0.021 -0.035 0.037
0.019 -0.037 0.041
0.021 -0.035 0.047
0.025 -0.037 0.039
0.025 -0.037 0.039
0.025 -0.037 0.053
0.033 -0.029 0.071
0.033 -0.025 0.073
0.043 -0.045 0.083
0.043 -0.041 0.083
0.041 -0.035 0.089
0.039 -0.029 0.041
0.039 -0.023 0.041
0.041 -0.027 0.041
0.041 -0.023 0.051
-0.017 -0.005 0.037
0.035 -0.021 0.103
0.009 -0.041 0.043
0.043 -0.041 0.103
0.003 -0.021 0.043
0.017 -0.019 0.103
0.019 -0.027 0.097
0.013 -0.013 0.107
0.003 -0.003 0.071
0.041 -0.039 0.105
0.041 -0.023 0.095
0.033 -0.047 0.089
0.031 -0.033 0.103
0.031 -0.031 0.101
0.025 -0.023 0.105
0.035 -0.017 0.103
0.025 -0.011 0.111
0.025 -0.015 0.105
0.039 -0.023 0.097
0.035 -0.005 0.105
0.037 -0.041 0.105
0.027 -0.021 0.105
-0.015 0.005 0.051
0.011 -0.001 0.103
-0.001 -0.001 0.071
0.005 0.019 0.091
-0.003 0.007 0.087
0.003 0.023 0.091
-0.003 0.005 0.083
-0.015 0.023 0.089
-0.001 0.011 0.091
-0.013 0.015 0.087
-0.017 0.031 0.089
0.023 -0.009 0.113
0.017 0.005 0.111
0.015 0.011 0.113
0.009 0.005 0.087
0.019 0.003 0.111
0.003 -0.001 0.079
0.023 0.001 0.107
0.017 0.009 0.075
0.015 0.011 0.113
0.003 -0.011 0.053
0.023 -0.031 0.065
-0.025 0.007 0.063
0.017 -0.027 0.059
0.019 -0.025 0.063
0.005 -0.009 0.059
-0.003 0.003 0.073
0.017 -0.021 0.083
0.003 -0.003 0.071
0.005 0.001 0.081
0.015 -0.017 0.087
0.015 -0.013 0.103
0.021 -0.023 0.077
0.015 -0.011 0.077
0.015 -0.017 0.097
0.021 -0.021 0.105
0.035 -0.033 0.105
0.017 -0.015 0.107
0.013 -0.013 0.107
-0.037 0.023 0.057
-0.029 0.033 0.037
-0.039 0.031 0.055
-0.041 0.023 0.051
-0.025 0.005 0.039
-0.031 0.017 0.049
-0.033 0.013 0.045
-0.035 0.033 0.063
-0.013 0.015 0.063
-0.029 0.031 0.069
-0.019 0.019 0.065
-0.027 0.035 0.033
-0.025 0.033 0.039
-0.025 0.011 0.065
-0.019 0.019 0.069
-0.019 0.027 0.083
-0.003 0.005 0.081
-0.003 0.013 0.091
-0.005 0.023 0.095
-0.015 0.025 0.089
-0.037 0.041 0.087
-0.037 0.043 0.081
-0.019 0.019 0.079
-0.019 0.019 0.073
-0.019 0.019 0.079
0.019 0.001 0.095
0.017 0.003 0.111
0.013 0.005 0.039
0.023 0.005 0.035
0.041 -0.025 0.043
0.037 -0.013 0.093
0.043 -0.037 0.083
0.039 -0.019 0.095
0.015 0.013 0.077
0.015 0.007 0.077
0.019 0.001 0.097
0.029 0.007 0.087
0.033 -0.013 0.077
0.033 -0.003 0.103
0.023 -0.003 0.103
-0.031 0.031 0.039
-0.025 0.037 0.063
-0.001 0.031 0.045
-0.011 0.035 0.063
-0.035 0.035 0.053
-0.015 0.035 0.069
-0.009 0.035 0.077
-0.015 0.035 0.079
-0.017 0.035 0.077
0.005 0.025 0.087
-0.001 0.031 0.085
-0.021 0.035 0.067
-0.031 0.043 0.083
-0.003 0.033 0.081
0.009 0.015 0.063
0.007 0.023 0.087
0.011 0.013 0.087
0.001 0.029 0.083
-0.003 0.001 0.035
0.031 0.001 0.039
0.049 -0.015 0.035
0.041 -0.023 0.047
0.023 -0.001 0.057
0.049 -0.017 0.039
0.039 -0.009 0.041
0.043 -0.043 0.085
0.025 -0.003 0.077
0.035 -0.011 0.089
0.037 -0.019 0.085
0.035 -0.011 0.093
0.039 -0.031 0.087
0.035 -0.013 0.091
0.037 -0.013 0.093
0.037 -0.019 0.103
0.033 -0.003 0.109
0.023 -0.001 0.107
0.035 -0.009 0.103
0.005 0.033 0.037
0.009 0.023 0.041
0.005 0.019 0.051
-0.003 0.009 0.037
-0.005 0.003 0.039
0.009 0.031 0.039
0.001 0.029 0.047
-0.001 0.031 0.063
-0.009 0.035 0.035
-0.007 0.035 0.067
0.001 0.025 0.091
0.003 0.023 0.091
-0.007 0.029 0.091
-0.011 0.037 0.075
-0.025 0.041 0.075
-0.007 0.035 0.065
0.029 0.005 0.039
0.019 0.009 0.057
0.005 0.033 0.037
0.031 0.003 0.091
0.005 0.025 0.085
-0.017 -0.003 0.037
-0.007 -0.001 0.039
0.009 -0.007 0.067
0.007 -0.039 0.043
0.017 -0.035 0.045
0.023 -0.037 0.099
0.005 -0.027 0.045
0.007 -0.013 0.055
0.017 -0.019 0.099
0.013 -0.015 0.095
0.009 -0.005 0.093
0.025 -0.033 0.099
0.021 -0.033 0.083
0.003 -0.003 0.073
0.013 -0.011 0.097
0.019 -0.005 0.101
0.033 -0.027 0.105
0.037 -0.035 0.107
-0.033 0.017 0.049
-0.027 0.005 0.061
-0.021 0.009 0.067
-0.001 0.009 0.047
-0.019 0.011 0.071
-0.007 0.013 0.059
-0.019 0.021 0.075
-0.023 0.005 0.061
-0.003 0.009 0.049
-0.011 0.013 0.085
-0.005 0.009 0.087
-0.019 0.027 0.083
-0.027 0.033 0.087
-0.007 0.011 0.089
0.009 -0.003 0.101
0.011 -0.007 0.095
0.009 0.007 0.089
0.037 -0.029 0.035
0.033 -0.037 0.055
0.035 -0.037 0.055
0.041 -0.017 0.043
0.041 -0.029 0.049
0.041 -0.021 0.051
0.035 -0.035 0.061
0.049 -0.027 0.035
0.049 -0.025 0.037
0.051 -0.021 0.037
0.043 -0.039 0.083
0.031 -0.027 0.073
0.035 -0.017 0.073
0.035 -0.015 0.065
0.037 -0.025 0.081
0.029 -0.025 0.091
0.035 -0.013 0.087
0.037 -0.021 0.087
0.039 -0.039 0.097
0.037 -0.013 0.099
0.027 -0.007 0.107
0.033 -0.005 0.107
0.043 -0.019 0.041
0.025 0.001 0.049
0.039 -0.019 0.059
0.041 -0.015 0.055
0.019 0.005 0.065
0.019 0.007 0.063
0.033 -0.009 0.087
0.017 0.011 0.067
0.033 -0.003 0.041
0.019 0.009 0.065
0.019 0.001 0.065
0.033 -0.001 0.091
0.017 0.009 0.113
-0.011 -0.009 0.035
-0.001 -0.011 0.045
0.015 -0.031 0.055
0.019 -0.009 0.067
0.005 0.009 0.091
0.017 -0.023 0.087
0.031 -0.047 0.089
0.025 -0.025 0.105
0.027 -0.027 0.105
0.017 -0.019 0.075
0.005 -0.001 0.079
0.009 -0.001 0.103
0.021 -0.019 0.105
0.025 -0.015 0.105
0.019 0.003 0.111
0.031 -0.035 0.105
0.039 -0.033 0.103
0.015 -0.017 0.101
0.013 -0.005 0.103
0.015 -0.011 0.109
0.023 -0.009 0.113
0.027 -0.025 0.105
-0.027 0.017 0.047
-0.029 0.015 0.047
-0.021 0.023 0.075
-0.039 0.029 0.053
-0.025 0.019 0.047
-0.027 0.013 0.061
-0.021 0.023 0.069
-0.027 0.031 0.073
-0.025 0.039 0.085
-0.007 0.009 0.077
-0.011 0.027 0.093
-0.029 0.039 0.087
-0.017 0.025 0.087
-0.011 0.037 0.071
-0.015 0.035 0.081
-0.007 0.023 0.095
-0.007 0.021 0.093
0.003 0.015 0.095
-0.003 -0.019 0.035
0.021 -0.033 0.055
0.019 -0.025 0.061
0.019 -0.027 0.063
0.017 -0.021 0.069
0.019 -0.011 0.067
0.015 -0.011 0.075
0.017 -0.003 0.077
0.015 -0.009 0.079
0.019 -0.029 0.085
0.017 -0.019 0.093
0.011 -0.007 0.085
0.019 -0.021 0.093
0.019 -0.005 0.109
0.033 -0.031 0.103
-0.025 0.005 0.041
-0.035 0.015 0.047
-0.041 0.027 0.047
-0.041 0.025 0.043
-0.029 0.011 0.043
-0.017 0.001 0.037
-0.029 0.013 0.045
-0.025 0.007 0.063
-0.017 0.023 0.053
-0.017 0.021 0.055
-0.017 0.025 0.053
-0.019 0.027 0.055
-0.019 0.025 0.061
-0.021 0.011 0.069
-0.021 0.023 0.065
-0.039 0.021 0.053
-0.003 0.013 0.071
0.003 -0.007 0.055
-0.001 0.001 0.057
-0.001 0.013 0.091
0.001 0.015 0.093
-0.011 0.019 0.091
0.013 0.011 0.113
-0.013 -0.009 0.033
-0.001 -0.021 0.037
0.005 -0.023 0.043
-0.001 -0.017 0.039
-0.027 0.003 0.045
0.019 -0.019 0.063
-0.001 0.001 0.061
0.003 -0.005 0.063
-0.001 0.001 0.063
-0.001 -0.009 0.045
0.013 -0.025 0.055
0.031 -0.049 0.087
0.025 -0.043 0.083
0.025 -0.039 0.085
0.017 -0.015 0.079
0.019 -0.025 0.083
0.017 -0.021 0.095
0.013 -0.013 0.087
0.015 -0.015 0.083
0.015 -0.017 0.087
0.015 -0.019 0.087
0.011 -0.007 0.089
0.035 -0.035 0.107
0.017 0.001 0.107
0.009 -0.003 0.101
-0.039 0.019 0.037
-0.041 0.023 0.049
-0.033 0.029 0.037
-0.031 0.007 0.051
-0.031 0.007 0.053
-0.013 0.015 0.059
-0.033 0.031 0.065
-0.037 0.033 0.059
-0.035 0.033 0.063
-0.021 0.025 0.079
-0.015 0.021 0.089
-0.033 0.037 0.083
-0.031 0.005 0.055
-0.011 0.013 0.055
-0.001 0.003 0.069
0.001 0.005 0.087
0.009 -0.043 0.041
0.019 -0.033 0.051
0.001 -0.005 0.057
0.029 -0.039 0.049
0.019 -0.027 0.067
0.017 -0.021 0.083
0.031 -0.031 0.069
0.029 -0.047 0.085
0.031 -0.033 0.089
0.025 -0.029 0.101
-0.025 0.003 0.049
-0.029 0.003 0.051
-0.027 0.005 0.059
-0.015 0.005 0.051
-0.009 0.011 0.053
-0.015 0.017 0.059
-0.035 0.025 0.061
-0.005 0.007 0.081
-0.003 0.011 0.091
-0.025 0.033 0.081
-0.005 0.019 0.071
0.015 -0.031 0.051
-0.001 -0.001 0.059
-0.001 -0.001 0.069
0.011 0.001 0.081
0.009 0.001 0.079
0.009 0.003 0.083
0.029 -0.033 0.033
0.013 -0.041 0.041
0.027 -0.037 0.039
0.023 -0.037 0.053
0.031 -0.037 0.053
0.035 -0.037 0.053
0.007 -0.039 0.033
0.015 -0.031 0.053
0.003 -0.013 0.051
0.003 -0.011 0.053
0.027 -0.037 0.055
0.039 -0.027 0.037
0.037 -0.035 0.045
0.041 -0.031 0.053
0.037 -0.035 0.057
0.035 -0.041 0.083
0.039 -0.049 0.091
0.023 -0.035 0.083
0.019 -0.019 0.079
0.035 -0.029 0.069
0.037 -0.049 0.093
0.031 -0.043 0.103
0.033 -0.033 0.097
-0.029 0.011 0.039
-0.023 0.003 0.051
0.001 -0.003 0.067
0.003 -0.003 0.069
-0.017 0.017 0.077
0.013 -0.041 0.041
0.019 -0.033 0.055
0.007 -0.007 0.061
0.025 -0.035 0.057
0.017 -0.033 0.053
0.023 -0.031 0.067
0.001 0.001 0.081
0.017 -0.025 0.085
0.011 -0.011 0.089
0.017 -0.039 0.037
0.019 -0.037 0.035
0.037 -0.035 0.043
0.041 -0.027 0.041
0.009 -0.039 0.045
0.029 -0.039 0.051
0.039 -0.031 0.081
0.041 -0.031 0.047
0.041 -0.019 0.045
0.043 -0.041 0.103
0.029 -0.041 0.097
0.025 -0.011 0.111
0.021 -0.017 0.105
0.027 -0.011 0.109
0.039 -0.021 0.063
0.037 -0.019 0.069
0.043 -0.041 0.083
0.041 -0.033 0.085
0.037 -0.029 0.067
0.033 -0.023 0.075
0.035 -0.019 0.073
0.037 -0.025 0.087
0.019 0.003 0.065
0.041 -0.035 0.085
0.043 -0.033 0.097
0.037 -0.013 0.099
0.043 -0.031 0.099
0.037 -0.015 0.097
0.033 -0.017 0.105
0.033 0.001 0.097
0.027 -0.007 0.109
0.035 -0.011 0.101
0.035 -0.009 0.103
0.027 0.003 0.043
0.021 0.001 0.059
0.033 -0.001 0.101
-0.023 0.023 0.045
-0.025 0.041 0.075
-0.025 0.031 0.041
-0.017 0.021 0.049
-0.017 0.025 0.051
-0.017 0.027 0.055
-0.001 0.031 0.061
-0.007 0.035 0.063
0.025 0.007 0.037
0.037 -0.007 0.047
-0.009 0.029 0.091
-0.015 0.035 0.075
-0.013 0.037 0.073
-0.005 0.035 0.071
-0.011 0.033 0.087
0.007 -0.001 0.095
0.011 0.019 0.083
0.015 0.015 0.075
0.019 0.001 0.095
0.025 0.001 0.097
0.023 0.001 0.091
0.009 -0.003 0.099
0.027 -0.005 0.103
-0.023 0.035 0.033
-0.015 0.025 0.047
-0.037 0.033 0.057
-0.031 0.035 0.067
-0.019 0.031 0.059
-0.005 0.033 0.063
-0.027 0.041 0.077
-0.033 0.043 0.075
-0.013 0.037 0.071
-0.011 0.037 0.073
-0.023 0.039 0.083
0.013 0.015 0.061
-0.007 0.035 0.063
0.025 0.007 0.095
