-0.001 0.027 0.073
-0.007 -0.003 0.039
0.021 -0.009 0.057
0.019 -0.001 0.077
0.023 -0.005 0.055
0.039 -0.009 0.039
0.035 -0.003 0.039
0.041 -0.021 0.055
0.043 -0.035 0.101
0.025 -0.003 0.107
0.031 -0.011 0.105
0.023 -0.019 0.105
0.027 -0.019 0.105
0.025 -0.005 0.115
0.027 -0.007 0.107
-0.017 0.035 0.073
-0.013 0.037 0.075
-0.005 0.033 0.045
-0.021 0.039 0.079
-0.001 0.031 0.061
-0.011 0.029 0.091
-0.001 0.029 0.075
-0.007 0.025 0.095
-0.033 0.043 0.085
-0.017 0.033 0.087
0.023 0.007 0.045
0.029 0.003 0.043
0.007 0.015 0.061
0.009 0.015 0.061
0.017 0.009 0.075
0.005 0.025 0.083
0.027 0.009 0.101
0.017 0.009 0.113
0.007 -0.035 0.043
0.005 -0.023 0.045
0.013 -0.017 0.055
0.009 -0.023 0.051
0.011 -0.021 0.053
0.015 -0.023 0.055
0.017 -0.027 0.059
0.033 -0.035 0.061
0.019 -0.027 0.085
0.023 -0.031 0.089
0.011 -0.009 0.091
0.023 -0.037 0.097
0.033 -0.043 0.103
0.017 -0.021 0.097
0.025 -0.011 0.109
0.025 -0.013 0.107
-0.013 0.001 0.037
-0.025 0.003 0.039
-0.025 0.003 0.041
-0.005 0.005 0.043
-0.013 0.015 0.085
-0.025 0.033 0.085
0.001 -0.009 0.051
0.007 0.001 0.081
0.015 0.001 0.081
0.013 -0.013 0.093
0.019 -0.037 0.037
0.035 -0.029 0.033
0.013 -0.041 0.041
0.025 -0.037 0.047
0.033 -0.037 0.039
0.035 -0.033 0.063
0.029 -0.039 0.045
0.013 -0.031 0.051
0.041 -0.023 0.047
0.043 -0.043 0.085
0.043 -0.041 0.087
0.027 -0.029 0.073
0.033 -0.043 0.083
0.043 -0.043 0.083
0.037 -0.031 0.037
-0.021 0.005 0.049
0.029 -0.035 0.037
0.041 -0.025 0.051
0.021 -0.033 0.059
0.033 -0.029 0.071
0.043 -0.045 0.083
0.021 -0.021 0.079
0.027 -0.029 0.073
0.035 -0.041 0.083
0.041 -0.019 0.047
0.041 -0.021 0.051
0.037 -0.031 0.065
0.035 -0.027 0.071
0.037 -0.017 0.067
0.023 -0.021 0.105
0.039 -0.041 0.105
0.009 -0.021 0.051
0.033 -0.011 0.103
0.025 -0.015 0.105
0.025 -0.021 0.105
0.031 -0.019 0.105
0.041 -0.029 0.099
0.037 -0.015 0.101
0.037 -0.017 0.103
0.035 -0.013 0.103
0.041 -0.039 0.105
0.025 -0.029 0.103
0.015 -0.015 0.107
-0.015 0.005 0.051
-0.039 0.019 0.049
-0.033 0.025 0.061
-0.007 0.009 0.087
-0.017 0.021 0.087
-0.025 0.033 0.079
-0.019 0.031 0.083
-0.025 0.033 0.083
0.015 -0.007 0.103
0.035 -0.007 0.105
0.021 0.003 0.107
0.019 0.005 0.111
0.005 0.023 0.089
0.009 -0.023 0.051
0.001 -0.021 0.039
0.001 -0.007 0.049
0.015 -0.009 0.077
0.013 -0.013 0.101
0.013 -0.011 0.095
0.009 -0.005 0.091
0.009 -0.005 0.095
0.011 -0.007 0.085
0.029 -0.043 0.103
0.027 -0.025 0.105
-0.041 0.027 0.053
-0.015 0.033 0.041
-0.029 0.033 0.039
-0.017 0.035 0.037
-0.023 0.011 0.067
-0.031 0.037 0.089
-0.031 0.039 0.073
-0.025 0.011 0.065
-0.017 0.017 0.069
0.007 0.007 0.047
0.029 -0.007 0.051
0.045 -0.015 0.037
0.035 -0.011 0.089
0.035 -0.011 0.099
0.039 -0.025 0.091
0.035 -0.005 0.097
0.039 -0.019 0.095
0.041 -0.029 0.099
0.019 0.001 0.105
-0.015 0.031 0.043
-0.013 0.035 0.063
-0.013 0.035 0.063
0.001 0.025 0.075
-0.009 0.031 0.089
-0.029 0.041 0.075
0.023 0.007 0.047
0.025 0.005 0.047
0.007 0.025 0.041
0.003 0.029 0.045
0.017 0.009 0.049
0.003 0.023 0.059
0.021 0.007 0.051
0.043 -0.039 0.087
0.027 -0.003 0.075
0.031 0.003 0.097
0.037 -0.023 0.081
0.035 -0.013 0.087
0.035 -0.011 0.087
0.031 0.003 0.099
0.031 -0.011 0.105
0.037 -0.015 0.097
0.003 0.025 0.051
-0.027 0.031 0.055
-0.031 0.033 0.049
-0.015 0.033 0.039
-0.003 0.021 0.067
0.005 0.017 0.091
-0.025 0.035 0.087
0.027 0.007 0.039
0.009 0.029 0.039
0.009 0.015 0.087
0.027 0.009 0.095
0.029 0.005 0.103
0.043 -0.015 0.041
0.039 -0.009 0.051
0.041 -0.013 0.053
0.033 -0.033 0.065
0.031 -0.027 0.073
0.035 -0.031 0.089
0.043 -0.031 0.097
0.043 -0.037 0.103
0.035 -0.005 0.103
0.033 -0.003 0.103
0.005 0.019 0.045
0.007 0.029 0.045
0.025 -0.001 0.053
0.017 0.005 0.071
0.017 0.013 0.063
0.003 0.027 0.055
-0.001 0.027 0.063
0.013 0.015 0.077
0.029 0.005 0.099
-0.017 0.033 0.087
0.029 0.007 0.087
0.003 0.027 0.083
0.041 -0.027 0.041
0.035 -0.031 0.035
0.047 -0.025 0.039
0.041 -0.011 0.047
0.039 -0.019 0.057
0.045 -0.029 0.035
0.049 -0.023 0.037
0.035 -0.047 0.089
0.031 -0.031 0.069
0.037 -0.025 0.081
0.037 -0.025 0.101
0.043 -0.019 0.051
0.041 -0.015 0.055
0.025 0.003 0.049
0.041 -0.019 0.055
0.003 0.021 0.059
-0.001 0.029 0.061
0.037 -0.017 0.067
0.017 0.009 0.069
0.029 0.007 0.087
0.027 0.007 0.037
0.017 0.011 0.061
0.011 0.019 0.083
-0.011 -0.003 0.039
0.009 -0.029 0.047
0.019 -0.031 0.059
0.011 -0.019 0.053
0.019 -0.025 0.065
0.009 0.001 0.095
-0.001 0.001 0.075
0.009 -0.003 0.101
0.019 -0.001 0.099
-0.015 0.019 0.049
-0.037 0.017 0.049
-0.031 0.037 0.089
-0.031 0.035 0.067
-0.013 0.015 0.087
-0.017 0.025 0.087
0.001 0.003 0.083
-0.011 0.025 0.093
0.001 0.023 0.091
0.005 0.001 0.081
0.015 0.009 0.113
0.021 -0.037 0.043
0.029 -0.037 0.059
0.015 -0.035 0.045
0.013 -0.017 0.055
0.027 -0.031 0.069
0.041 -0.029 0.043
0.039 -0.031 0.043
0.035 -0.047 0.085
0.039 -0.047 0.087
0.043 -0.045 0.085
0.039 -0.049 0.093
0.025 -0.029 0.071
0.005 -0.005 0.069
0.039 -0.047 0.087
0.043 -0.043 0.083
0.041 -0.039 0.105
0.019 -0.015 0.105
0.027 -0.019 0.105
0.033 -0.009 0.105
0.037 -0.019 0.103
-0.025 0.003 0.041
-0.035 0.023 0.059
0.007 -0.009 0.059
0.003 -0.005 0.065
-0.013 0.015 0.061
0.035 -0.047 0.087
0.003 -0.003 0.069
-0.009 0.011 0.083
0.035 -0.035 0.061
0.025 -0.027 0.073
0.021 -0.027 0.071
0.043 -0.045 0.085
0.039 -0.047 0.093
0.029 -0.027 0.105
0.009 -0.027 0.049
0.013 -0.031 0.051
0.013 -0.031 0.053
0.025 -0.037 0.087
0.003 -0.003 0.073
0.013 -0.015 0.095
0.015 -0.005 0.085
0.019 -0.027 0.097
0.019 -0.005 0.109
0.019 -0.021 0.103
-0.031 0.013 0.035
-0.035 0.013 0.039
-0.041 0.023 0.051
-0.041 0.027 0.045
-0.019 0.017 0.047
-0.025 0.007 0.063
-0.017 0.017 0.063
-0.041 0.023 0.049
-0.021 0.023 0.065
-0.031 0.035 0.081
0.003 -0.001 0.045
-0.017 0.019 0.057
-0.003 0.003 0.073
-0.003 -0.019 0.035
-0.013 -0.005 0.039
0.005 -0.031 0.045
0.019 -0.029 0.059
-0.005 -0.017 0.035
0.027 -0.039 0.087
0.029 -0.043 0.089
0.035 -0.047 0.093
0.001 -0.001 0.077
0.019 -0.025 0.091
0.011 -0.009 0.089
0.031 -0.039 0.103
0.023 -0.007 0.111
-0.039 0.021 0.039
-0.037 0.023 0.057
-0.037 0.025 0.059
-0.037 0.017 0.035
-0.039 0.017 0.039
-0.039 0.021 0.039
-0.039 0.029 0.057
-0.033 0.033 0.049
-0.021 0.023 0.071
-0.031 0.029 0.067
-0.015 0.029 0.089
-0.029 0.009 0.047
-0.025 0.011 0.047
-0.035 0.031 0.063
-0.007 0.011 0.077
-0.011 0.013 0.081
0.011 -0.027 0.053
0.017 -0.023 0.061
0.017 -0.023 0.061
-0.013 0.031 0.089
-0.011 0.033 0.085
0.009 -0.001 0.097
0.015 -0.003 0.087
0.019 -0.001 0.099
-0.035 0.035 0.059
-0.019 0.029 0.041
-0.037 0.043 0.081
-0.031 0.037 0.061
-0.023 0.011 0.067
-0.037 0.041 0.087
-0.005 0.023 0.095
0.023 0.007 0.047
-0.009 0.035 0.083
-0.001 0.019 0.095
0.003 0.025 0.089
0.025 0.007 0.097
-0.001 -0.019 0.037
0.019 -0.037 0.039
0.021 -0.035 0.037
0.015 -0.007 0.063
0.017 -0.021 0.073
0.041 -0.031 0.049
0.041 -0.031 0.049
0.043 -0.045 0.085
0.043 -0.043 0.087
0.023 -0.029 0.071
0.025 -0.037 0.087
0.011 -0.001 0.075
0.017 -0.023 0.087
0.021 -0.031 0.087
0.017 -0.021 0.089
0.017 -0.021 0.091
0.025 -0.039 0.099
0.037 -0.023 0.087
0.037 -0.041 0.105
0.027 -0.041 0.101
0.035 -0.043 0.105
0.021 -0.009 0.109
0.023 -0.011 0.111
0.033 -0.043 0.105
-0.017 0.003 0.047
-0.005 0.003 0.039
-0.011 0.003 0.045
-0.031 0.005 0.055
-0.025 0.005 0.059
-0.021 0.011 0.071
-0.003 0.019 0.095
0.003 -0.013 0.051
0.001 -0.009 0.051
-0.007 -0.003 0.035
0.001 -0.021 0.031
0.011 -0.041 0.035
0.011 -0.043 0.039
0.011 -0.029 0.049
0.005 -0.027 0.045
0.013 -0.017 0.055
0.041 -0.027 0.037
0.033 -0.037 0.045
0.027 -0.047 0.085
0.031 -0.047 0.089
0.005 -0.003 0.071
0.027 -0.029 0.089
0.023 -0.033 0.095
0.013 -0.013 0.091
-0.039 0.017 0.043
-0.029 0.003 0.047
-0.023 0.003 0.047
-0.029 0.003 0.051
-0.031 0.005 0.051
-0.021 0.005 0.055
-0.031 0.023 0.059
-0.017 0.019 0.057
-0.019 0.009 0.063
-0.029 0.025 0.057
-0.029 0.027 0.065
-0.009 0.013 0.059
-0.021 0.011 0.071
-0.003 0.003 0.071
-0.005 0.005 0.077
-0.005 0.011 0.075
-0.033 0.039 0.077
0.001 -0.015 0.043
0.001 -0.003 0.057
0.001 -0.003 0.063
-0.001 0.005 0.061
-0.001 -0.001 0.069
0.015 -0.041 0.035
0.011 -0.043 0.043
0.025 -0.037 0.039
0.027 -0.037 0.057
0.007 -0.039 0.039
0.015 -0.041 0.035
0.009 -0.043 0.043
0.041 -0.029 0.055
0.033 -0.049 0.085
0.015 -0.017 0.083
0.007 -0.001 0.095
0.025 -0.043 0.083
0.033 -0.049 0.085
0.039 -0.041 0.091
0.031 -0.043 0.101
0.021 -0.027 0.103
0.021 -0.033 0.097
0.017 -0.019 0.103
-0.033 0.013 0.039
-0.017 0.003 0.039
-0.023 0.003 0.045
-0.021 0.003 0.045
-0.017 0.003 0.045
0.011 -0.043 0.041
-0.021 0.001 0.035
-0.011 -0.003 0.039
-0.025 0.003 0.051
-0.025 0.033 0.079
-0.003 0.005 0.083
0.019 -0.037 0.043
0.027 -0.037 0.041
0.015 -0.033 0.047
0.027 -0.037 0.059
0.019 -0.025 0.071
0.015 -0.019 0.087
-0.031 0.033 0.047
0.015 -0.029 0.057
-0.029 0.003 0.047
-0.027 0.009 0.063
0.019 -0.021 0.061
-0.025 0.013 0.063
-0.003 0.005 0.081
0.015 -0.017 0.097
-0.015 0.023 0.089
0.009 -0.001 0.093
-0.011 0.027 0.093
0.031 -0.039 0.103
0.021 -0.003 0.101
0.025 0.001 0.097
-0.041 0.023 0.047
-0.039 0.031 0.051
-0.041 0.023 0.051
-0.039 0.031 0.053
-0.039 0.021 0.053
-0.015 0.033 0.041
-0.005 0.033 0.041
-0.033 0.035 0.065
-0.015 0.027 0.045
-0.017 0.029 0.043
-0.009 -0.001 0.039
0.017 0.011 0.057
0.035 -0.015 0.061
0.037 -0.017 0.065
0.027 -0.005 0.051
0.035 -0.005 0.039
0.029 -0.009 0.067
0.017 0.013 0.067
0.019 -0.003 0.071
0.033 -0.011 0.075
0.033 -0.001 0.097
0.031 0.003 0.091
0.033 -0.015 0.077
0.025 -0.005 0.105
-0.003 0.001 0.035
0.005 0.019 0.053
-0.001 0.031 0.049
-0.001 0.029 0.073
-0.003 0.031 0.073
0.003 0.021 0.059
-0.009 0.035 0.061
-0.007 0.033 0.057
0.003 0.027 0.087
-0.003 0.023 0.069
-0.007 0.029 0.091
-0.023 0.041 0.077
-0.023 0.041 0.079
0.017 0.007 0.043
0.017 0.005 0.039
0.013 0.007 0.045
0.009 0.029 0.041
0.015 0.003 0.081
0.029 0.007 0.093
