-0.035 0.019 0.043
-0.049 0.005 0.051
-0.047 0.007 0.055
-0.047 0.007 0.053
-0.039 0.009 0.053
-0.051 0.003 0.045
-0.045 0.007 0.053
-0.049 -0.001 0.061
-0.013 0.003 0.057
-0.027 0.015 0.047
-0.019 0.011 0.049
-0.017 0.011 0.047
-0.011 0.001 0.061
-0.003 0.001 0.071
-0.033 0.005 0.065
-0.021 -0.005 0.057
-0.021 -0.007 0.059
-0.045 -0.001 0.069
-0.041 -0.005 0.073
-0.053 0.007 0.091
-0.053 0.009 0.101
-0.043 0.009 0.099
-0.037 0.007 0.097
-0.037 0.005 0.099
-0.045 0.007 0.095
-0.043 0.009 0.095
-0.047 0.009 0.101
-0.003 -0.003 0.079
-0.011 -0.005 0.071
-0.017 -0.003 0.081
-0.023 0.001 0.095
-0.021 0.001 0.097
-0.033 0.005 0.099
-0.021 0.001 0.095
-0.013 -0.003 0.095
-0.035 -0.009 0.105
-0.041 -0.001 0.103
-0.035 -0.013 0.105
-0.037 -0.011 0.105
-0.039 -0.001 0.105
-0.037 -0.001 0.105
-0.031 -0.003 0.105
-0.023 -0.001 0.107
-0.027 -0.007 0.105
-0.011 -0.013 0.109
0.015 -0.001 0.051
0.009 0.005 0.045
0.013 0.009 0.047
0.001 0.001 0.061
0.009 -0.009 0.055
0.019 -0.001 0.059
0.033 0.011 0.047
0.027 0.017 0.055
0.037 0.013 0.049
0.037 -0.003 0.063
0.039 0.001 0.063
0.017 -0.011 0.069
0.017 -0.001 0.081
0.027 -0.003 0.087
0.007 -0.001 0.073
0.005 -0.001 0.079
0.011 -0.001 0.081
0.019 -0.001 0.081
0.027 -0.001 0.075
0.027 -0.001 0.081
0.003 -0.007 0.089
0.001 -0.009 0.089
0.025 -0.005 0.089
0.025 -0.009 0.091
0.001 -0.007 0.087
0.015 -0.003 0.087
0.013 -0.009 0.091
0.007 -0.007 0.091
0.009 -0.005 0.089
0.027 -0.009 0.091
0.021 -0.001 0.085
0.035 -0.005 0.079
0.039 -0.007 0.077
0.045 -0.003 0.081
0.045 -0.003 0.085
-0.033 0.023 0.037
-0.017 0.015 0.035
-0.045 0.007 0.039
-0.035 0.021 0.035
-0.033 0.023 0.043
-0.031 0.021 0.041
-0.021 0.015 0.043
-0.023 0.017 0.045
-0.023 0.013 0.049
-0.017 0.015 0.041
-0.007 0.011 0.041
-0.025 0.021 0.035
-0.031 0.021 0.039
-0.025 0.005 0.055
-0.035 0.003 0.073
-0.057 0.007 0.093
-0.057 0.009 0.089
-0.041 0.009 0.085
-0.039 0.007 0.085
-0.033 0.007 0.085
-0.037 0.007 0.097
-0.051 0.009 0.103
-0.035 0.003 0.101
0.029 0.013 0.035
0.031 0.015 0.037
0.005 0.009 0.039
0.013 0.007 0.039
0.005 0.013 0.039
0.011 0.005 0.049
0.017 0.013 0.043
0.029 0.013 0.037
0.023 0.017 0.049
0.001 0.001 0.061
0.019 0.013 0.057
0.025 0.019 0.053
0.019 0.013 0.059
0.027 0.017 0.051
0.037 0.015 0.043
0.039 0.015 0.039
0.045 0.013 0.049
0.041 0.015 0.045
0.037 0.007 0.053
-0.049 -0.019 0.039
-0.051 -0.015 0.039
-0.051 -0.003 0.045
-0.045 -0.007 0.035
-0.047 -0.011 0.043
-0.049 -0.009 0.049
-0.049 -0.017 0.041
-0.047 -0.011 0.043
-0.049 -0.011 0.049
-0.051 -0.005 0.045
-0.051 -0.005 0.049
-0.051 -0.001 0.051
-0.013 -0.021 0.053
-0.043 -0.013 0.061
-0.049 -0.011 0.053
-0.047 -0.011 0.055
-0.033 -0.015 0.075
-0.039 -0.007 0.075
-0.053 -0.005 0.087
-0.043 -0.011 0.085
-0.061 -0.003 0.083
-0.061 0.003 0.087
-0.057 -0.005 0.097
-0.031 -0.015 0.079
-0.035 -0.013 0.075
-0.043 -0.011 0.081
-0.039 -0.009 0.075
-0.027 0.001 0.075
-0.041 -0.015 0.093
-0.029 -0.019 0.089
-0.061 0.003 0.087
-0.059 0.003 0.093
-0.061 0.003 0.087
-0.055 -0.007 0.097
-0.055 -0.007 0.099
-0.023 -0.015 0.107
-0.023 -0.015 0.107
-0.059 -0.003 0.103
-0.025 -0.011 0.111
-0.041 -0.005 0.105
-0.023 -0.013 0.113
-0.047 0.007 0.045
-0.043 -0.015 0.045
-0.051 -0.007 0.053
-0.051 0.001 0.047
-0.045 -0.011 0.061
-0.047 -0.009 0.063
-0.043 -0.007 0.071
-0.047 0.003 0.063
-0.049 0.003 0.059
-0.049 0.003 0.059
-0.045 0.003 0.067
-0.049 -0.001 0.061
-0.049 -0.001 0.063
-0.043 0.007 0.061
-0.041 0.005 0.067
-0.037 0.005 0.069
-0.041 -0.011 0.071
-0.035 -0.013 0.075
-0.043 -0.011 0.083
-0.033 -0.013 0.079
-0.045 -0.009 0.081
0.023 -0.001 0.067
-0.039 -0.013 0.087
-0.061 0.005 0.091
-0.061 0.005 0.091
-0.033 -0.005 0.093
-0.055 -0.005 0.095
-0.053 -0.003 0.095
-0.055 -0.003 0.097
-0.047 -0.003 0.095
-0.055 -0.005 0.083
-0.037 0.001 0.075
-0.003 -0.001 0.073
-0.057 -0.001 0.089
-0.061 0.003 0.087
-0.059 0.007 0.089
-0.039 0.015 0.033
-0.039 0.017 0.033
-0.039 0.011 0.035
-0.043 0.009 0.047
-0.035 0.015 0.045
-0.049 0.007 0.049
-0.041 0.009 0.037
-0.033 0.013 0.047
-0.035 0.015 0.045
-0.039 0.017 0.041
-0.041 0.009 0.051
-0.037 0.011 0.051
-0.039 0.019 0.035
-0.045 0.007 0.057
-0.047 0.003 0.063
-0.045 0.005 0.061
-0.057 0.011 0.087
-0.059 0.007 0.085
-0.053 0.007 0.103
-0.053 0.009 0.103
-0.055 0.007 0.105
-0.047 0.001 0.097
-0.039 0.013 0.043
-0.039 0.013 0.041
-0.043 0.009 0.055
-0.041 0.011 0.045
-0.035 0.015 0.045
-0.033 0.017 0.045
-0.029 0.017 0.047
-0.035 0.015 0.045
-0.035 0.015 0.045
-0.033 0.017 0.045
-0.035 0.011 0.055
0.019 0.013 0.049
-0.041 0.005 0.067
-0.031 0.009 0.057
0.019 0.009 0.055
0.021 0.005 0.061
0.021 0.007 0.059
0.019 0.011 0.059
0.021 0.009 0.063
0.023 0.017 0.057
0.019 0.017 0.043
-0.035 0.011 0.053
0.019 0.013 0.049
0.019 0.015 0.047
-0.031 0.009 0.057
0.021 0.007 0.061
-0.039 -0.007 0.031
-0.013 -0.011 0.031
-0.035 -0.021 0.035
-0.035 -0.021 0.037
-0.045 -0.013 0.045
-0.035 -0.021 0.035
-0.041 -0.019 0.053
-0.043 -0.015 0.055
-0.015 -0.023 0.035
-0.023 -0.017 0.047
-0.011 -0.021 0.047
-0.019 -0.025 0.035
-0.005 -0.009 0.037
-0.023 -0.015 0.051
-0.043 -0.011 0.065
-0.037 -0.013 0.073
-0.031 -0.015 0.079
-0.029 -0.015 0.079
-0.055 -0.005 0.083
-0.049 -0.007 0.083
-0.055 -0.003 0.089
-0.045 -0.013 0.093
-0.039 -0.013 0.083
-0.043 -0.011 0.087
-0.037 -0.013 0.083
-0.047 -0.011 0.095
-0.039 -0.015 0.093
-0.039 -0.015 0.093
-0.033 -0.017 0.089
-0.003 -0.021 0.071
-0.021 -0.009 0.065
-0.025 -0.017 0.077
-0.021 -0.017 0.075
-0.021 -0.017 0.077
-0.017 -0.013 0.073
-0.011 -0.015 0.069
-0.007 -0.019 0.071
-0.013 -0.011 0.075
-0.023 -0.021 0.087
-0.015 -0.025 0.087
-0.027 -0.021 0.095
-0.019 -0.025 0.093
-0.017 -0.025 0.095
-0.025 -0.017 0.079
-0.015 -0.015 0.079
-0.011 -0.015 0.087
-0.009 -0.007 0.087
-0.013 -0.015 0.093
-0.011 -0.007 0.091
-0.011 -0.007 0.091
-0.011 -0.015 0.093
-0.011 -0.007 0.093
-0.053 -0.009 0.097
-0.055 -0.007 0.099
-0.053 -0.009 0.097
-0.041 -0.013 0.099
-0.027 -0.021 0.103
-0.021 -0.025 0.099
-0.019 -0.025 0.099
-0.027 -0.023 0.107
-0.015 -0.025 0.097
-0.023 -0.021 0.103
-0.007 -0.007 0.099
0.043 -0.003 0.031
0.015 -0.027 0.041
0.025 -0.025 0.037
0.019 -0.027 0.041
0.021 -0.023 0.043
0.027 -0.023 0.041
0.015 -0.025 0.043
0.029 -0.005 0.047
0.001 -0.019 0.057
0.021 -0.021 0.061
0.009 -0.017 0.049
0.003 -0.007 0.051
0.003 -0.013 0.053
0.019 -0.021 0.051
0.017 -0.019 0.061
0.005 -0.009 0.057
0.007 -0.011 0.061
0.033 -0.015 0.039
0.043 -0.007 0.033
0.037 -0.003 0.043
0.045 -0.001 0.041
0.045 -0.007 0.061
0.015 -0.019 0.077
0.007 -0.015 0.065
0.007 -0.017 0.067
0.021 -0.019 0.069
0.033 -0.019 0.073
0.007 -0.019 0.087
0.011 -0.021 0.087
0.009 -0.019 0.087
0.029 -0.015 0.089
0.021 -0.019 0.089
0.039 -0.011 0.071
0.047 -0.005 0.067
0.033 -0.015 0.083
0.041 -0.009 0.085
0.051 -0.007 0.087
-0.023 -0.025 0.033
-0.029 -0.021 0.043
-0.027 -0.017 0.049
-0.021 -0.017 0.047
-0.033 -0.013 0.061
-0.013 -0.023 0.037
-0.005 0.005 0.037
-0.003 -0.015 0.047
-0.007 -0.017 0.045
-0.017 -0.025 0.035
-0.019 -0.023 0.041
-0.015 -0.021 0.051
-0.005 -0.019 0.051
-0.001 -0.015 0.049
-0.049 -0.007 0.083
-0.055 0.001 0.091
-0.051 -0.005 0.089
-0.045 -0.009 0.087
-0.045 -0.009 0.087
-0.039 -0.013 0.083
-0.033 -0.011 0.081
-0.031 -0.017 0.087
-0.025 -0.013 0.065
-0.021 -0.013 0.069
-0.047 -0.007 0.099
-0.049 -0.003 0.103
-0.033 -0.017 0.095
0.015 -0.027 0.037
0.035 -0.015 0.035
0.029 -0.017 0.043
0.023 -0.021 0.051
0.027 0.011 0.051
0.031 -0.017 0.059
0.031 -0.011 0.055
0.045 0.009 0.037
0.035 0.001 0.047
0.041 -0.001 0.053
0.043 -0.001 0.049
0.039 -0.001 0.053
-0.019 0.013 0.043
-0.005 0.007 0.043
-0.027 0.005 0.057
-0.027 0.003 0.057
-0.005 0.003 0.057
0.003 -0.005 0.053
0.003 -0.005 0.055
0.003 -0.005 0.051
-0.007 0.011 0.043
0.003 -0.001 0.063
0.021 0.007 0.069
0.023 0.009 0.067
-0.023 -0.003 0.055
0.001 -0.001 0.053
-0.001 0.001 0.067
-0.021 -0.001 0.075
-0.035 0.003 0.073
-0.019 -0.001 0.085
-0.031 -0.001 0.079
-0.043 0.009 0.095
-0.039 0.005 0.099
-0.021 0.001 0.099
-0.029 0.003 0.101
0.009 -0.001 0.077
0.009 -0.003 0.085
-0.015 -0.009 0.071
-0.021 -0.003 0.069
-0.021 -0.003 0.071
-0.009 -0.009 0.079
-0.011 -0.003 0.091
-0.021 0.001 0.085
-0.019 -0.001 0.089
-0.021 -0.001 0.093
-0.017 -0.001 0.095
-0.011 -0.003 0.087
-0.019 0.001 0.107
-0.023 -0.001 0.107
-0.019 -0.017 0.099
-0.017 -0.013 0.101
-0.015 -0.011 0.105
-0.013 -0.011 0.109
-0.015 -0.001 0.101
-0.015 -0.011 0.109
-0.019 0.001 0.107
-0.019 -0.001 0.109
-0.007 -0.007 0.099
0.035 0.015 0.045
0.049 0.009 0.047
0.029 0.001 0.047
0.043 0.005 0.063
0.023 -0.001 0.049
0.039 0.011 0.053
0.027 -0.001 0.061
0.021 0.003 0.073
0.033 -0.003 0.067
0.043 0.003 0.065
0.025 -0.001 0.063
0.025 -0.001 0.065
0.025 -0.001 0.061
0.049 0.005 0.049
0.045 0.011 0.053
0.049 0.007 0.055
0.049 -0.001 0.061
0.023 -0.001 0.079
0.019 -0.001 0.079
0.031 -0.001 0.075
0.015 -0.005 0.091
0.009 -0.007 0.091
0.007 -0.003 0.087
0.011 -0.003 0.089
0.003 -0.007 0.089
0.019 -0.009 0.093
0.047 -0.003 0.081
0.035 -0.003 0.071
0.043 -0.001 0.069
0.045 -0.003 0.071
0.045 -0.003 0.085
0.057 -0.005 0.079
-0.023 0.017 0.035
-0.027 0.019 0.043
-0.029 0.021 0.039
-0.029 0.019 0.043
-0.043 0.009 0.055
-0.035 0.009 0.057
-0.007 0.011 0.041
-0.021 0.015 0.041
-0.005 0.007 0.041
-0.011 0.015 0.035
-0.007 0.007 0.045
-0.015 0.003 0.055
-0.029 0.009 0.055
-0.019 0.011 0.049
-0.027 0.001 0.063
-0.001 0.001 0.051
-0.043 0.003 0.067
-0.035 0.005 0.069
-0.049 0.009 0.089
-0.053 0.009 0.091
-0.035 0.007 0.087
-0.031 0.005 0.087
-0.035 0.007 0.087
-0.003 0.001 0.069
-0.053 0.003 0.105
-0.049 0.003 0.107
-0.037 0.003 0.103
-0.031 0.003 0.103
-0.025 0.001 0.105
0.005 0.015 0.035
0.023 0.017 0.045
0.025 0.019 0.055
0.027 0.017 0.049
0.021 0.015 0.041
0.027 0.007 0.045
0.033 0.015 0.043
0.027 0.015 0.059
0.029 0.015 0.057
0.029 0.015 0.051
0.029 0.013 0.057
0.025 0.007 0.063
0.041 0.013 0.035
0.039 0.015 0.039
0.043 0.011 0.053
0.043 0.011 0.055
0.047 0.007 0.059
0.025 0.007 0.067
0.023 0.005 0.071
