-0.035 -0.021 0.051
-0.037 -0.019 0.053
-0.033 -0.017 0.053
-0.039 -0.017 0.055
-0.027 -0.023 0.037
-0.031 -0.019 0.051
-0.017 -0.021 0.043
-0.015 -0.021 0.051
-0.015 -0.021 0.051
-0.017 -0.017 0.055
-0.039 -0.021 0.047
-0.047 -0.017 0.041
-0.041 -0.019 0.049
-0.035 -0.021 0.045
-0.033 -0.021 0.045
-0.037 -0.021 0.049
-0.039 -0.021 0.051
-0.051 -0.017 0.039
-0.049 -0.015 0.041
-0.051 -0.005 0.057
-0.043 -0.017 0.041
-0.033 -0.021 0.049
-0.039 -0.021 0.051
-0.047 -0.011 0.051
-0.047 -0.013 0.049
-0.041 -0.017 0.055
-0.039 -0.017 0.055
-0.049 -0.009 0.057
-0.051 -0.005 0.057
-0.049 -0.009 0.059
-0.049 -0.001 0.063
-0.045 -0.013 0.055
-0.045 -0.011 0.061
-0.017 -0.025 0.035
-0.031 -0.023 0.037
-0.027 -0.023 0.035
-0.025 -0.023 0.037
-0.031 -0.021 0.039
-0.021 -0.025 0.035
-0.023 -0.023 0.037
-0.023 -0.023 0.039
-0.021 -0.019 0.041
-0.013 -0.023 0.039
-0.013 -0.021 0.041
-0.013 -0.021 0.043
-0.011 -0.021 0.045
-0.009 -0.019 0.049
-0.025 -0.019 0.043
-0.029 -0.017 0.051
-0.027 -0.015 0.051
-0.027 -0.015 0.051
-0.023 -0.013 0.053
-0.009 -0.019 0.055
-0.009 -0.019 0.055
-0.009 -0.019 0.057
-0.027 -0.017 0.049
-0.021 -0.017 0.049
-0.013 -0.021 0.053
-0.015 -0.017 0.055
-0.003 -0.019 0.053
-0.007 -0.019 0.057
-0.015 -0.017 0.057
-0.011 -0.019 0.059
-0.013 -0.017 0.061
-0.031 -0.015 0.053
-0.027 -0.009 0.055
-0.021 -0.013 0.055
-0.019 -0.013 0.055
-0.021 -0.011 0.055
-0.023 -0.017 0.077
-0.027 -0.017 0.077
-0.027 -0.017 0.075
-0.027 -0.017 0.075
-0.027 -0.021 0.089
-0.027 -0.021 0.093
-0.027 -0.021 0.093
-0.019 -0.015 0.073
-0.019 -0.023 0.087
-0.019 -0.025 0.093
-0.039 -0.013 0.067
-0.037 -0.013 0.069
-0.033 -0.015 0.075
-0.047 -0.003 0.067
-0.037 -0.017 0.095
-0.035 -0.017 0.099
-0.057 -0.003 0.083
-0.055 -0.005 0.083
-0.051 -0.005 0.089
-0.045 -0.009 0.083
-0.045 -0.013 0.093
-0.043 -0.013 0.093
-0.039 -0.013 0.087
-0.035 -0.017 0.093
-0.033 -0.017 0.093
-0.039 -0.015 0.095
-0.039 -0.013 0.103
-0.035 -0.015 0.103
-0.035 -0.013 0.105
-0.047 -0.011 0.095
-0.035 -0.017 0.097
-0.039 -0.015 0.099
-0.037 -0.015 0.097
-0.037 -0.015 0.103
-0.035 -0.013 0.105
-0.033 -0.013 0.105
-0.027 -0.019 0.085
-0.025 -0.021 0.087
-0.023 -0.021 0.085
-0.019 -0.023 0.089
-0.009 -0.019 0.067
-0.009 -0.017 0.069
-0.001 -0.021 0.073
-0.007 -0.019 0.071
-0.021 -0.017 0.077
-0.023 -0.023 0.093
-0.025 -0.023 0.097
-0.025 -0.023 0.097
-0.023 -0.021 0.107
-0.011 -0.015 0.069
-0.011 -0.015 0.069
-0.017 -0.025 0.095
-0.015 -0.025 0.097
-0.013 -0.025 0.103
-0.013 -0.025 0.097
-0.011 -0.015 0.091
-0.007 -0.005 0.077
-0.017 -0.025 0.093
-0.017 -0.025 0.101
-0.017 -0.025 0.103
-0.015 -0.025 0.103
-0.007 -0.011 0.083
-0.001 -0.003 0.083
-0.029 -0.019 0.089
-0.027 -0.021 0.089
-0.017 -0.025 0.097
-0.019 -0.025 0.101
-0.017 -0.025 0.101
-0.025 -0.021 0.091
-0.025 -0.023 0.097
-0.029 -0.021 0.099
-0.021 -0.023 0.091
-0.023 -0.023 0.097
-0.017 -0.025 0.095
-0.023 -0.023 0.101
-0.001 -0.019 0.081
-0.017 -0.025 0.103
-0.031 -0.017 0.089
-0.031 -0.021 0.103
-0.023 -0.021 0.107
-0.023 -0.019 0.105
-0.015 -0.025 0.101
-0.017 -0.025 0.101
-0.001 -0.015 0.087
-0.017 -0.015 0.097
-0.003 -0.011 0.089
-0.009 -0.017 0.107
-0.015 -0.017 0.107
-0.011 -0.017 0.111
-0.007 -0.007 0.089
-0.057 -0.005 0.103
-0.055 -0.007 0.099
-0.055 -0.005 0.101
-0.049 -0.001 0.107
-0.043 -0.013 0.101
-0.039 -0.015 0.101
-0.039 -0.013 0.103
-0.039 -0.011 0.103
-0.039 -0.009 0.105
-0.047 -0.003 0.103
-0.045 -0.003 0.103
-0.033 -0.007 0.105
-0.033 -0.005 0.105
-0.035 -0.003 0.105
-0.017 -0.025 0.103
-0.017 -0.025 0.103
-0.025 -0.023 0.107
-0.017 -0.023 0.103
-0.023 -0.021 0.107
-0.021 -0.017 0.101
-0.025 -0.023 0.109
-0.025 -0.023 0.109
-0.015 -0.023 0.103
-0.005 -0.019 0.113
-0.021 -0.017 0.101
-0.017 -0.015 0.105
-0.019 -0.015 0.109
-0.019 -0.015 0.109
-0.017 -0.015 0.109
-0.023 -0.013 0.115
-0.021 -0.013 0.115
-0.019 -0.013 0.115
-0.021 -0.011 0.115
-0.019 -0.011 0.115
-0.019 -0.011 0.115
-0.019 -0.015 0.107
-0.019 -0.013 0.115
-0.015 -0.017 0.107
-0.013 -0.011 0.109
-0.013 -0.011 0.109
-0.007 -0.007 0.103
-0.013 -0.015 0.111
-0.019 -0.013 0.115
0.011 -0.019 0.053
0.025 -0.019 0.051
0.025 -0.021 0.063
0.031 -0.017 0.041
0.035 -0.009 0.041
0.011 -0.021 0.043
0.011 -0.021 0.043
0.011 -0.019 0.051
0.011 -0.019 0.049
0.021 -0.029 0.037
0.019 -0.027 0.041
0.017 -0.023 0.045
0.021 -0.023 0.043
0.021 -0.021 0.045
0.025 -0.021 0.045
0.025 -0.023 0.041
0.023 -0.021 0.043
0.025 -0.021 0.047
0.017 -0.025 0.045
0.021 -0.023 0.043
0.025 -0.021 0.045
0.009 -0.015 0.045
0.007 -0.013 0.045
0.007 -0.013 0.049
0.005 -0.017 0.063
0.017 -0.021 0.049
0.021 -0.021 0.053
0.025 -0.019 0.053
0.027 -0.019 0.061
0.023 -0.021 0.063
0.023 -0.021 0.063
0.025 -0.021 0.063
0.011 -0.019 0.053
0.013 -0.019 0.055
0.023 -0.021 0.051
0.021 -0.021 0.059
0.023 -0.021 0.061
0.019 -0.021 0.059
0.025 -0.021 0.063
-0.001 -0.021 0.067
0.011 -0.015 0.057
-0.001 -0.021 0.075
0.001 -0.021 0.077
0.007 -0.021 0.081
0.005 -0.021 0.081
0.003 -0.021 0.081
0.003 -0.019 0.085
0.005 -0.021 0.083
-0.001 -0.015 0.087
0.003 -0.019 0.085
0.025 -0.021 0.073
0.025 -0.021 0.077
0.015 -0.021 0.085
0.019 -0.021 0.079
0.027 -0.021 0.075
0.029 -0.019 0.067
0.037 -0.013 0.037
0.035 -0.015 0.037
0.041 -0.009 0.035
0.041 -0.005 0.041
0.031 -0.019 0.071
0.035 -0.017 0.079
0.031 -0.019 0.077
0.033 -0.017 0.081
0.041 -0.011 0.069
0.039 -0.011 0.069
0.003 -0.021 0.073
0.003 -0.021 0.073
0.013 -0.021 0.081
0.013 -0.021 0.083
0.023 -0.019 0.069
0.017 -0.021 0.079
0.027 -0.021 0.073
0.031 -0.019 0.071
0.017 -0.021 0.083
0.019 -0.021 0.081
0.023 -0.021 0.083
0.031 -0.019 0.081
0.013 -0.021 0.079
0.005 -0.019 0.087
0.001 -0.013 0.089
0.011 -0.021 0.085
0.013 -0.021 0.087
0.005 -0.013 0.091
0.005 -0.011 0.093
0.015 -0.021 0.083
0.017 -0.013 0.095
0.021 -0.013 0.095
0.027 -0.013 0.093
0.025 -0.013 0.093
0.005 -0.021 0.083
0.011 -0.021 0.083
0.015 -0.021 0.087
0.009 -0.019 0.087
0.031 -0.017 0.085
0.021 -0.017 0.091
0.003 -0.007 0.089
0.011 -0.011 0.095
0.007 -0.007 0.091
0.013 -0.005 0.091
0.003 -0.015 0.089
0.001 -0.013 0.091
0.003 -0.013 0.093
0.003 -0.011 0.091
0.005 -0.013 0.093
0.007 -0.011 0.093
0.005 -0.011 0.093
0.015 -0.011 0.093
0.015 -0.009 0.093
0.009 -0.007 0.091
0.013 -0.005 0.091
0.019 -0.005 0.091
0.021 -0.015 0.093
0.019 -0.013 0.095
0.023 -0.013 0.095
0.021 -0.011 0.095
0.023 -0.013 0.095
0.025 -0.013 0.093
0.027 -0.011 0.093
0.017 -0.007 0.091
0.033 -0.019 0.075
0.031 -0.019 0.081
0.035 -0.017 0.077
0.029 -0.017 0.085
0.031 -0.017 0.085
0.037 -0.011 0.083
0.043 -0.011 0.077
0.033 -0.017 0.081
0.037 -0.013 0.081
0.039 -0.009 0.081
0.049 -0.011 0.081
0.049 -0.009 0.083
0.053 -0.009 0.081
0.033 -0.015 0.085
0.031 -0.013 0.091
0.041 -0.011 0.081
0.031 -0.013 0.091
0.031 -0.011 0.091
0.041 -0.007 0.087
0.047 -0.005 0.089
0.047 -0.005 0.089
-0.037 -0.013 0.059
-0.035 -0.013 0.063
-0.037 -0.013 0.073
-0.029 -0.013 0.053
-0.031 -0.013 0.059
-0.019 -0.009 0.059
-0.031 -0.015 0.077
-0.019 -0.025 0.093
-0.017 -0.025 0.087
-0.049 -0.007 0.061
-0.043 -0.013 0.059
-0.041 -0.013 0.067
-0.043 -0.011 0.069
-0.037 -0.013 0.061
-0.041 -0.011 0.071
-0.035 -0.013 0.073
-0.037 -0.013 0.073
-0.041 -0.009 0.073
-0.033 -0.017 0.091
-0.039 -0.013 0.087
-0.035 -0.015 0.089
-0.039 -0.013 0.085
-0.037 -0.015 0.097
-0.035 -0.017 0.097
-0.033 -0.017 0.097
-0.035 -0.017 0.097
-0.035 -0.017 0.099
-0.051 0.001 0.055
-0.049 -0.003 0.063
-0.049 -0.003 0.063
-0.037 -0.015 0.085
-0.045 -0.009 0.085
-0.047 0.001 0.065
-0.037 -0.015 0.097
-0.035 -0.017 0.099
-0.029 -0.017 0.083
-0.025 -0.021 0.087
-0.027 -0.021 0.093
-0.023 -0.023 0.101
-0.013 -0.015 0.065
-0.013 -0.027 0.095
-0.017 -0.025 0.097
-0.005 -0.019 0.075
-0.005 -0.017 0.077
-0.015 -0.025 0.097
-0.015 -0.025 0.097
-0.009 -0.013 0.079
-0.029 -0.021 0.097
-0.029 -0.021 0.099
-0.031 -0.021 0.103
-0.029 -0.021 0.103
-0.019 -0.025 0.099
-0.023 -0.023 0.091
-0.031 -0.019 0.097
-0.031 -0.019 0.099
-0.025 -0.023 0.101
-0.029 -0.019 0.091
-0.029 -0.021 0.099
-0.029 -0.021 0.099
-0.027 -0.021 0.097
-0.031 -0.019 0.099
-0.017 -0.025 0.097
-0.013 -0.025 0.097
-0.011 -0.013 0.081
-0.013 -0.025 0.103
-0.009 -0.013 0.077
-0.003 -0.017 0.081
-0.009 -0.013 0.079
-0.003 -0.015 0.085
-0.003 -0.015 0.085
-0.039 -0.015 0.099
-0.033 -0.019 0.101
-0.039 -0.015 0.097
-0.037 -0.015 0.099
-0.061 0.001 0.087
-0.057 -0.005 0.103
-0.051 -0.005 0.101
-0.055 -0.003 0.103
-0.057 -0.005 0.099
-0.059 -0.005 0.101
-0.061 0.005 0.093
-0.059 -0.001 0.103
-0.061 0.007 0.093
-0.053 -0.001 0.105
-0.055 -0.001 0.105
-0.047 -0.009 0.097
-0.041 -0.011 0.103
-0.045 -0.007 0.099
-0.037 -0.011 0.105
-0.037 -0.009 0.105
-0.035 -0.013 0.105
-0.035 -0.009 0.105
-0.047 -0.003 0.103
-0.043 -0.005 0.103
-0.041 -0.007 0.105
-0.037 -0.011 0.105
-0.039 -0.007 0.105
-0.029 -0.021 0.105
-0.027 -0.023 0.107
-0.025 -0.013 0.111
-0.023 -0.015 0.107
-0.057 -0.001 0.105
-0.041 0.005 0.099
-0.041 0.007 0.099
-0.045 0.003 0.103
-0.047 0.003 0.105
-0.047 0.003 0.105
-0.043 0.009 0.099
-0.047 0.003 0.105
-0.025 -0.003 0.105
-0.027 -0.001 0.105
0.011 -0.015 0.057
0.019 -0.019 0.075
0.031 -0.019 0.071
0.029 -0.019 0.075
-0.001 -0.021 0.075
0.001 -0.021 0.077
0.003 -0.021 0.077
0.005 -0.021 0.075
0.001 -0.019 0.079
0.003 -0.019 0.083
0.005 -0.019 0.085
0.005 -0.021 0.083
0.007 -0.021 0.083
0.009 -0.021 0.085
0.011 -0.021 0.081
0.011 -0.021 0.085
0.023 -0.019 0.071
0.017 -0.021 0.083
0.013 -0.021 0.087
0.015 -0.021 0.085
0.015 -0.021 0.087
0.021 -0.021 0.085
0.023 -0.019 0.089
0.017 -0.019 0.089
0.023 -0.019 0.089
0.009 -0.019 0.089
0.013 -0.021 0.087
0.015 -0.015 0.093
0.019 -0.015 0.093
0.021 -0.015 0.093
0.015 -0.015 0.093
0.015 -0.013 0.095
0.015 -0.009 0.093
0.019 -0.007 0.091
0.015 -0.013 0.095
0.033 -0.019 0.077
0.033 -0.019 0.075
0.035 -0.017 0.075
0.025 -0.019 0.087
0.029 -0.019 0.083
0.031 -0.017 0.083
0.035 -0.017 0.079
0.029 -0.019 0.079
0.029 -0.019 0.081
0.025 -0.017 0.089
0.027 -0.017 0.089
0.037 -0.013 0.081
0.035 -0.013 0.087
0.029 -0.017 0.087
0.031 -0.017 0.085
0.035 -0.013 0.087
0.037 -0.011 0.083
0.039 -0.009 0.081
0.035 -0.011 0.087
0.043 -0.013 0.075
0.019 -0.013 0.095
0.017 -0.013 0.095
0.035 -0.013 0.087
