-0.039 0.007 0.085
-0.035 0.007 0.085
-0.025 0.001 0.105
-0.027 0.003 0.099
-0.015 0.001 0.057
-0.031 -0.003 0.105
-0.041 -0.001 0.105
-0.031 -0.005 0.105
-0.035 -0.005 0.105
-0.037 -0.005 0.105
-0.045 0.007 0.101
-0.045 0.007 0.101
-0.037 0.003 0.103
-0.043 0.009 0.099
-0.035 0.007 0.097
-0.045 0.003 0.103
-0.039 -0.001 0.105
-0.043 -0.001 0.101
-0.043 0.001 0.101
-0.029 -0.005 0.105
-0.023 -0.003 0.105
-0.019 -0.005 0.103
-0.019 -0.003 0.109
-0.013 -0.003 0.103
-0.019 0.001 0.095
-0.025 0.001 0.075
-0.027 0.003 0.057
-0.009 -0.005 0.075
-0.011 0.001 0.061
-0.003 -0.001 0.075
-0.029 -0.005 0.105
-0.029 -0.003 0.105
-0.015 -0.007 0.101
-0.017 -0.003 0.109
-0.013 -0.007 0.101
-0.003 -0.011 0.089
-0.023 -0.001 0.107
-0.017 -0.003 0.105
-0.019 -0.003 0.057
-0.015 -0.005 0.063
-0.043 0.003 0.101
-0.037 -0.001 0.105
-0.057 0.001 0.105
-0.049 0.001 0.107
-0.041 -0.005 0.105
-0.041 -0.003 0.105
-0.041 -0.007 0.105
-0.033 -0.007 0.105
-0.039 -0.005 0.105
-0.033 -0.003 0.105
-0.041 0.001 0.101
-0.039 0.003 0.101
-0.033 0.003 0.103
-0.047 -0.009 0.097
-0.037 -0.011 0.105
-0.043 -0.005 0.103
-0.033 -0.001 0.105
-0.001 -0.017 0.083
-0.005 -0.017 0.079
-0.025 -0.007 0.107
-0.019 -0.001 0.109
-0.021 0.001 0.107
-0.023 0.001 0.089
-0.011 -0.005 0.103
-0.015 -0.005 0.103
-0.009 -0.005 0.103
-0.007 -0.005 0.089
-0.019 -0.011 0.115
-0.027 -0.017 0.105
-0.017 -0.013 0.109
-0.017 -0.015 0.109
-0.031 -0.001 0.105
-0.019 0.001 0.107
-0.017 -0.001 0.101
-0.015 -0.001 0.103
-0.015 -0.001 0.103
-0.035 -0.015 0.103
-0.059 -0.003 0.103
-0.049 -0.003 0.105
-0.047 -0.001 0.105
-0.035 -0.005 0.105
-0.039 -0.003 0.105
-0.027 -0.017 0.105
-0.025 -0.023 0.109
-0.017 -0.013 0.109
-0.017 -0.003 0.109
-0.023 -0.009 0.111
-0.021 -0.011 0.115
-0.015 -0.013 0.109
-0.003 -0.017 0.113
0.011 -0.001 0.085
0.017 -0.003 0.061
0.033 -0.003 0.043
0.009 -0.011 0.095
0.009 -0.005 0.089
0.015 -0.013 0.095
0.017 -0.011 0.095
0.011 -0.009 0.091
0.013 -0.005 0.091
0.019 -0.005 0.091
0.021 -0.005 0.091
0.013 -0.009 0.091
0.019 -0.009 0.093
0.005 -0.001 0.073
0.025 -0.003 0.087
0.025 -0.003 0.087
0.027 -0.001 0.069
0.021 0.005 0.071
0.025 -0.001 0.071
0.029 -0.001 0.047
0.011 -0.011 0.095
0.011 -0.009 0.091
0.019 -0.011 0.095
0.025 -0.009 0.091
0.027 -0.011 0.093
0.001 -0.005 0.085
0.003 -0.003 0.085
0.009 -0.005 0.089
0.011 -0.005 0.091
0.003 -0.001 0.083
0.027 -0.003 0.087
0.021 -0.001 0.067
0.021 -0.001 0.063
0.027 -0.005 0.087
0.021 -0.001 0.071
0.037 0.003 0.055
0.037 -0.001 0.059
0.039 0.003 0.061
0.039 0.001 0.065
0.039 -0.005 0.073
0.001 -0.013 0.091
0.011 -0.013 0.095
0.017 -0.011 0.095
0.025 -0.013 0.093
0.023 -0.017 0.091
0.023 -0.017 0.091
0.025 -0.015 0.091
0.027 -0.015 0.089
0.005 -0.009 0.091
0.003 -0.001 0.071
0.015 -0.003 0.087
0.015 -0.007 0.091
0.017 -0.003 0.087
0.013 -0.021 0.087
0.027 -0.015 0.089
0.029 -0.015 0.089
0.025 -0.017 0.089
0.001 -0.003 0.083
0.007 -0.003 0.087
0.003 -0.009 0.089
0.011 -0.013 0.095
0.013 -0.011 0.095
0.025 -0.001 0.083
0.023 -0.015 0.091
0.027 -0.013 0.093
0.027 -0.013 0.093
0.029 -0.011 0.091
0.031 -0.001 0.075
0.033 -0.011 0.089
0.039 -0.009 0.081
0.039 -0.005 0.073
0.031 -0.003 0.079
0.043 -0.005 0.079
0.045 -0.003 0.087
0.045 -0.003 0.087
0.043 -0.011 0.083
0.049 -0.003 0.085
0.051 -0.007 0.087
-0.027 0.007 0.055
-0.019 0.005 0.053
-0.017 0.005 0.053
-0.011 0.011 0.039
-0.047 0.011 0.085
-0.045 0.009 0.083
-0.037 0.017 0.043
-0.043 0.009 0.053
-0.037 0.021 0.043
-0.035 0.021 0.043
-0.035 0.023 0.043
-0.037 0.021 0.043
-0.037 0.009 0.057
-0.041 0.009 0.085
-0.031 0.013 0.051
-0.015 0.005 0.049
-0.011 0.007 0.051
-0.009 0.005 0.053
-0.011 0.015 0.037
-0.007 0.011 0.043
-0.007 0.011 0.043
-0.005 0.005 0.043
-0.005 0.007 0.043
-0.029 0.007 0.057
-0.029 0.013 0.051
-0.031 0.005 0.065
-0.011 0.005 0.053
-0.005 0.003 0.057
-0.007 0.001 0.067
-0.035 0.007 0.097
-0.033 0.005 0.087
-0.059 0.003 0.093
-0.049 0.009 0.101
-0.049 0.011 0.087
-0.053 0.009 0.105
-0.041 0.005 0.099
-0.035 0.007 0.097
-0.047 0.005 0.103
-0.041 0.007 0.099
-0.029 0.005 0.097
-0.027 0.003 0.097
-0.029 0.003 0.101
-0.019 0.001 0.095
-0.057 0.001 0.105
-0.049 0.003 0.107
-0.053 0.009 0.105
-0.049 0.007 0.103
-0.053 0.001 0.105
-0.049 0.001 0.107
-0.045 0.005 0.101
-0.037 0.001 0.105
-0.021 0.001 0.107
0.033 0.009 0.047
0.033 0.011 0.047
0.007 0.001 0.039
0.007 0.001 0.039
0.005 0.005 0.039
0.011 0.005 0.049
0.011 0.005 0.049
0.009 0.005 0.045
0.009 0.007 0.037
0.005 0.009 0.039
0.003 0.009 0.037
0.005 0.009 0.039
0.015 0.009 0.041
0.013 0.013 0.037
0.015 0.011 0.047
0.011 0.007 0.045
0.015 0.009 0.051
0.017 0.013 0.045
0.023 0.015 0.061
0.021 0.005 0.051
0.021 0.005 0.071
0.021 0.003 0.047
0.019 0.015 0.051
0.019 0.017 0.045
0.021 0.011 0.063
0.025 0.013 0.061
0.035 0.009 0.051
0.045 0.011 0.055
0.035 0.013 0.049
0.043 0.009 0.059
0.049 0.005 0.059
0.043 0.003 0.065
0.041 0.001 0.067
-0.027 -0.023 0.033
-0.019 -0.023 0.031
-0.015 -0.013 0.031
-0.043 -0.021 0.035
-0.029 -0.023 0.035
-0.041 -0.009 0.033
-0.043 -0.019 0.041
-0.045 -0.013 0.043
-0.047 -0.011 0.053
-0.049 -0.009 0.057
-0.045 -0.011 0.059
-0.033 -0.017 0.053
-0.035 -0.017 0.055
-0.019 -0.025 0.033
-0.023 -0.025 0.033
-0.017 -0.025 0.033
-0.017 -0.023 0.041
-0.015 -0.021 0.047
-0.013 -0.021 0.035
-0.011 -0.019 0.039
-0.017 -0.025 0.033
-0.017 -0.025 0.033
-0.021 -0.025 0.035
-0.013 -0.021 0.035
-0.011 -0.013 0.035
-0.003 -0.011 0.041
-0.001 -0.013 0.045
-0.029 -0.017 0.051
-0.013 -0.019 0.055
-0.001 -0.019 0.055
-0.007 -0.019 0.061
-0.019 -0.015 0.055
-0.025 -0.009 0.061
-0.009 -0.019 0.063
-0.009 -0.019 0.061
-0.059 -0.003 0.083
-0.047 -0.007 0.081
-0.047 -0.007 0.081
-0.053 -0.005 0.087
-0.041 -0.013 0.085
-0.043 -0.013 0.093
-0.039 -0.015 0.093
-0.033 -0.017 0.089
-0.033 -0.017 0.089
-0.039 -0.015 0.093
-0.039 -0.013 0.087
-0.035 -0.015 0.087
-0.029 -0.019 0.093
-0.003 -0.019 0.077
-0.023 -0.015 0.069
-0.021 -0.015 0.071
-0.023 -0.011 0.065
-0.015 -0.013 0.073
-0.025 -0.017 0.077
-0.027 -0.017 0.079
-0.017 -0.013 0.073
-0.009 -0.019 0.067
-0.011 -0.015 0.069
-0.007 -0.019 0.071
-0.005 -0.019 0.071
-0.007 -0.013 0.079
0.001 -0.021 0.075
-0.015 -0.025 0.093
-0.013 -0.027 0.095
-0.027 -0.019 0.083
-0.017 -0.017 0.079
-0.015 -0.015 0.083
-0.025 -0.021 0.091
-0.025 -0.021 0.093
0.001 -0.019 0.085
-0.013 -0.015 0.083
0.003 -0.021 0.079
0.001 -0.019 0.083
-0.013 -0.015 0.093
-0.009 -0.005 0.091
-0.009 -0.007 0.095
-0.011 -0.013 0.091
-0.007 -0.007 0.095
-0.007 -0.007 0.089
-0.033 -0.019 0.101
-0.033 -0.017 0.103
-0.045 -0.011 0.095
-0.039 -0.015 0.097
-0.027 -0.021 0.103
-0.031 -0.021 0.103
-0.025 -0.023 0.101
-0.023 -0.023 0.101
-0.013 -0.025 0.101
-0.025 -0.023 0.101
-0.013 -0.025 0.101
-0.023 -0.013 0.109
-0.027 -0.021 0.103
-0.025 -0.021 0.103
-0.017 -0.015 0.105
-0.009 -0.007 0.099
-0.011 -0.007 0.097
-0.011 -0.007 0.101
-0.007 -0.007 0.099
-0.005 -0.019 0.109
-0.021 -0.013 0.113
-0.021 -0.013 0.115
-0.019 -0.013 0.113
0.041 -0.009 0.031
0.035 -0.013 0.031
0.013 -0.027 0.039
0.015 -0.027 0.037
0.015 -0.027 0.039
0.011 -0.023 0.041
0.015 -0.025 0.043
0.013 -0.019 0.047
0.021 -0.029 0.037
0.025 -0.025 0.039
0.011 -0.013 0.033
0.009 -0.015 0.039
0.013 -0.025 0.039
0.011 -0.023 0.041
0.013 -0.019 0.047
0.029 -0.015 0.033
0.027 -0.017 0.035
0.029 -0.019 0.037
0.029 -0.017 0.045
0.031 -0.015 0.045
0.029 -0.015 0.047
0.031 -0.017 0.041
0.013 -0.019 0.051
0.025 -0.021 0.049
0.027 -0.019 0.051
0.001 -0.013 0.051
0.009 -0.017 0.049
0.017 -0.021 0.049
0.015 -0.019 0.059
0.017 -0.017 0.063
0.005 -0.011 0.057
0.007 -0.011 0.061
0.017 -0.021 0.057
0.027 -0.011 0.049
0.027 -0.017 0.053
0.027 -0.017 0.053
0.027 -0.019 0.059
0.029 -0.019 0.061
0.035 -0.009 0.041
0.037 -0.003 0.043
0.043 -0.003 0.053
0.039 -0.003 0.057
0.037 -0.009 0.063
0.045 -0.005 0.057
0.005 -0.021 0.071
0.017 -0.019 0.077
0.023 -0.021 0.077
0.025 -0.021 0.075
0.025 -0.021 0.079
0.027 -0.019 0.077
0.009 -0.017 0.069
0.013 -0.015 0.071
0.009 -0.019 0.073
0.015 -0.021 0.079
0.025 -0.021 0.071
0.019 -0.019 0.075
0.027 -0.019 0.077
0.003 -0.021 0.081
0.011 -0.021 0.083
0.021 -0.021 0.085
0.031 -0.019 0.081
0.011 -0.021 0.081
0.017 -0.021 0.083
0.005 -0.019 0.087
0.011 -0.013 0.095
0.023 -0.019 0.085
0.021 -0.017 0.091
0.023 -0.013 0.093
0.025 -0.017 0.089
0.037 -0.011 0.065
0.037 -0.013 0.069
0.037 -0.011 0.067
0.043 -0.011 0.069
0.039 -0.011 0.073
0.041 -0.011 0.079
0.047 -0.011 0.079
0.043 -0.011 0.081
0.053 -0.009 0.081
0.051 -0.009 0.081
-0.029 -0.023 0.033
-0.015 -0.023 0.033
-0.021 -0.025 0.033
-0.041 -0.021 0.039
-0.045 -0.013 0.045
-0.035 -0.021 0.035
-0.027 -0.023 0.035
-0.037 -0.021 0.047
-0.027 -0.023 0.037
-0.025 -0.021 0.041
-0.043 -0.015 0.055
-0.037 -0.021 0.049
-0.031 -0.019 0.051
-0.027 -0.009 0.055
-0.017 -0.023 0.039
-0.015 -0.023 0.041
-0.013 -0.021 0.041
-0.017 -0.019 0.049
-0.011 -0.021 0.043
-0.007 0.005 0.033
-0.007 -0.009 0.035
-0.005 0.007 0.039
-0.005 -0.017 0.047
0.001 -0.011 0.047
-0.017 -0.019 0.045
-0.023 -0.007 0.057
-0.001 -0.017 0.053
0.001 -0.015 0.053
-0.003 -0.019 0.057
-0.029 -0.015 0.075
-0.051 -0.007 0.083
-0.051 -0.007 0.083
-0.045 -0.009 0.085
-0.041 -0.013 0.085
-0.039 -0.013 0.081
-0.037 -0.015 0.085
-0.035 -0.015 0.083
-0.029 -0.017 0.083
-0.027 -0.019 0.087
-0.019 -0.017 0.077
0.001 -0.019 0.065
-0.019 -0.017 0.083
-0.051 -0.007 0.099
-0.039 -0.015 0.097
-0.041 -0.013 0.099
-0.039 -0.015 0.099
-0.013 -0.025 0.101
0.019 -0.027 0.039
0.021 -0.029 0.035
0.023 -0.027 0.035
0.023 -0.029 0.035
0.025 -0.025 0.037
0.029 -0.019 0.037
0.027 -0.019 0.045
0.027 -0.019 0.047
0.023 -0.021 0.045
0.027 -0.021 0.043
0.029 -0.017 0.043
0.031 -0.001 0.045
0.027 -0.007 0.049
0.033 -0.013 0.059
0.031 -0.019 0.061
0.043 0.003 0.035
0.043 0.001 0.037
0.045 0.003 0.039
0.041 -0.009 0.035
0.045 0.001 0.039
0.045 0.007 0.039
0.037 0.001 0.047
0.035 -0.001 0.043
0.047 0.005 0.045
0.041 -0.003 0.055
0.037 0.001 0.049
0.047 0.001 0.063
0.049 -0.001 0.061
0.049 -0.003 0.057
0.049 0.003 0.055
0.005 -0.019 0.069
