-0.039 0.007 0.059
-0.027 0.007 0.055
-0.037 0.011 0.051
-0.031 0.005 0.067
-0.025 0.001 0.077
-0.043 0.005 0.065
-0.039 0.003 0.071
-0.001 0.001 0.049
0.003 -0.001 0.063
-0.021 -0.003 0.071
-0.023 -0.005 0.057
-0.013 -0.003 0.065
-0.025 0.003 0.091
-0.025 0.003 0.097
-0.041 0.009 0.099
-0.035 0.007 0.097
-0.017 -0.003 0.079
-0.015 -0.001 0.091
-0.017 -0.001 0.101
-0.021 0.001 0.087
-0.017 -0.003 0.081
0.003 -0.007 0.089
-0.011 -0.003 0.087
-0.047 0.001 0.105
-0.039 -0.005 0.105
-0.019 0.001 0.107
-0.019 -0.001 0.109
-0.009 -0.005 0.103
0.027 0.017 0.057
0.025 -0.003 0.055
0.017 -0.005 0.067
0.035 -0.005 0.067
0.047 0.009 0.055
0.017 -0.003 0.089
0.035 -0.011 0.087
0.017 -0.001 0.083
0.021 -0.001 0.077
0.019 -0.011 0.095
0.023 -0.011 0.093
0.023 -0.011 0.095
0.017 -0.011 0.095
0.023 -0.005 0.089
0.043 -0.005 0.073
0.051 -0.005 0.077
0.053 -0.003 0.087
-0.029 0.019 0.045
-0.033 0.013 0.047
-0.005 0.007 0.041
-0.007 0.015 0.035
-0.023 0.003 0.055
-0.029 0.005 0.063
-0.013 0.005 0.053
-0.041 0.009 0.099
0.001 0.001 0.065
-0.031 0.005 0.095
-0.051 0.007 0.105
-0.047 0.009 0.101
-0.053 0.009 0.105
-0.039 0.005 0.099
0.027 0.013 0.039
0.031 0.015 0.039
0.029 0.001 0.047
0.033 0.007 0.049
0.029 0.013 0.043
0.033 0.015 0.041
-0.035 -0.021 0.043
-0.041 -0.021 0.039
-0.043 -0.013 0.061
-0.049 -0.005 0.063
-0.027 -0.021 0.043
-0.033 -0.021 0.041
-0.017 -0.019 0.051
-0.003 -0.019 0.057
-0.009 -0.019 0.059
-0.005 -0.019 0.057
-0.043 -0.011 0.067
-0.047 -0.003 0.067
-0.039 -0.013 0.081
-0.053 -0.009 0.095
-0.045 -0.009 0.087
-0.033 -0.015 0.069
-0.019 -0.017 0.077
-0.023 -0.021 0.087
-0.017 -0.023 0.091
-0.031 -0.017 0.093
-0.019 -0.025 0.093
-0.023 -0.023 0.095
-0.051 -0.007 0.099
-0.043 -0.009 0.103
-0.037 -0.007 0.105
-0.033 -0.019 0.101
-0.027 -0.021 0.107
-0.025 -0.013 0.111
-0.025 -0.013 0.111
-0.033 -0.007 0.105
0.011 -0.013 0.033
0.015 -0.025 0.043
0.013 -0.027 0.037
0.017 -0.025 0.043
0.009 -0.017 0.043
0.015 -0.025 0.041
0.011 -0.019 0.045
0.011 -0.023 0.043
0.019 -0.021 0.047
0.001 -0.019 0.057
0.019 -0.021 0.051
-0.001 -0.019 0.059
0.013 -0.015 0.061
0.025 -0.019 0.069
0.031 -0.019 0.067
0.003 -0.021 0.073
-0.007 -0.015 0.077
0.005 -0.021 0.075
-0.015 -0.025 0.089
-0.003 -0.013 0.087
0.013 -0.019 0.089
0.027 -0.021 0.069
0.031 -0.019 0.081
0.045 -0.011 0.083
0.043 -0.009 0.085
-0.041 -0.019 0.041
-0.039 -0.021 0.047
-0.051 -0.005 0.043
-0.047 -0.011 0.045
-0.051 -0.007 0.047
-0.049 -0.009 0.057
-0.051 -0.001 0.053
-0.047 -0.009 0.061
-0.047 -0.009 0.061
-0.041 -0.019 0.049
-0.039 -0.019 0.053
-0.031 -0.021 0.049
-0.049 -0.009 0.055
-0.045 0.001 0.067
-0.045 -0.013 0.093
-0.059 -0.003 0.103
-0.009 -0.019 0.049
-0.003 -0.019 0.075
-0.005 -0.019 0.063
0.013 -0.015 0.061
0.023 -0.019 0.069
0.003 -0.021 0.075
0.025 0.015 0.045
0.029 0.013 0.057
0.027 0.017 0.053
0.049 0.009 0.053
0.047 0.009 0.057
0.043 0.009 0.059
0.043 0.013 0.051
0.039 0.013 0.051
0.025 0.011 0.063
-0.025 0.001 0.077
-0.021 0.001 0.085
-0.015 -0.001 0.089
0.031 -0.001 0.073
0.007 -0.001 0.075
0.015 -0.001 0.079
0.011 -0.001 0.079
-0.005 -0.005 0.095
-0.021 0.001 0.083
0.011 -0.001 0.085
0.011 -0.001 0.083
-0.007 -0.007 0.093
-0.009 -0.003 0.101
-0.025 0.001 0.103
-0.017 -0.003 0.107
-0.009 -0.017 0.107
-0.017 -0.011 0.103
-0.015 -0.011 0.107
-0.013 -0.013 0.105
0.045 0.003 0.039
0.043 -0.001 0.037
0.045 0.011 0.039
0.043 -0.003 0.031
0.037 -0.013 0.037
0.029 -0.021 0.039
0.049 0.005 0.047
0.043 -0.003 0.037
0.047 0.011 0.043
0.027 -0.019 0.051
0.031 -0.017 0.059
0.045 0.011 0.055
0.049 0.005 0.059
0.037 -0.013 0.035
0.033 -0.005 0.083
0.045 -0.003 0.071
0.023 0.007 0.071
0.011 -0.003 0.075
0.009 -0.001 0.075
0.031 -0.001 0.075
0.005 -0.001 0.081
0.015 -0.001 0.085
0.021 -0.009 0.093
0.025 -0.003 0.087
0.023 -0.007 0.091
0.051 -0.003 0.085
-0.023 0.019 0.035
0.021 0.017 0.043
0.007 0.015 0.037
-0.017 0.013 0.043
-0.017 0.015 0.039
-0.033 0.009 0.057
-0.035 0.011 0.055
-0.033 0.009 0.057
-0.005 0.011 0.037
-0.011 0.015 0.035
-0.027 0.015 0.047
-0.007 0.015 0.033
-0.039 0.005 0.089
-0.027 0.003 0.095
-0.033 0.005 0.093
-0.027 0.003 0.071
-0.023 0.001 0.073
0.001 0.001 0.067
-0.045 0.009 0.099
-0.051 0.007 0.105
0.039 0.011 0.033
0.027 0.013 0.047
0.027 0.015 0.047
0.041 0.013 0.049
0.025 0.019 0.053
0.035 0.015 0.035
0.041 0.013 0.049
0.039 0.015 0.047
0.045 0.013 0.043
0.049 0.009 0.053
-0.049 -0.023 0.037
-0.041 -0.019 0.053
-0.047 -0.011 0.053
-0.037 -0.015 0.057
-0.023 -0.017 0.045
-0.013 -0.021 0.035
-0.013 -0.021 0.047
-0.011 -0.015 0.037
-0.013 -0.017 0.057
-0.037 -0.015 0.085
-0.039 -0.013 0.091
-0.039 -0.013 0.087
-0.019 -0.011 0.069
-0.017 -0.013 0.075
-0.025 -0.019 0.083
-0.025 -0.021 0.095
-0.001 -0.019 0.081
-0.017 -0.023 0.091
-0.015 -0.015 0.081
-0.015 -0.015 0.095
-0.009 -0.007 0.089
-0.059 -0.005 0.101
-0.017 -0.015 0.107
-0.007 -0.007 0.103
0.023 -0.027 0.033
0.021 -0.029 0.037
0.017 -0.025 0.045
0.029 -0.019 0.041
0.033 -0.011 0.043
0.023 -0.021 0.057
0.001 -0.013 0.049
0.007 -0.013 0.063
0.031 -0.019 0.063
0.045 -0.007 0.061
0.007 -0.017 0.067
0.011 -0.013 0.069
0.005 -0.021 0.075
0.005 -0.021 0.077
0.019 -0.019 0.065
0.031 -0.019 0.073
0.007 -0.019 0.087
0.023 -0.019 0.085
0.029 -0.013 0.091
0.045 -0.011 0.073
0.035 -0.013 0.087
-0.027 -0.023 0.033
-0.021 -0.025 0.033
-0.041 -0.021 0.039
-0.025 -0.017 0.045
-0.013 -0.021 0.041
-0.017 -0.025 0.035
-0.021 -0.015 0.053
-0.005 -0.017 0.049
-0.027 -0.015 0.067
-0.049 -0.005 0.089
-0.035 -0.015 0.087
-0.025 -0.013 0.065
-0.049 -0.009 0.097
-0.021 -0.023 0.095
0.039 -0.011 0.031
0.037 -0.013 0.033
0.023 -0.019 0.053
0.037 -0.013 0.035
0.047 0.005 0.045
0.047 0.005 0.045
0.039 0.001 0.051
0.049 0.003 0.057
0.029 -0.019 0.069
-0.015 -0.021 0.047
-0.011 -0.021 0.047
-0.007 -0.019 0.047
-0.011 -0.019 0.039
-0.009 -0.015 0.037
-0.007 -0.013 0.037
-0.029 -0.023 0.037
-0.017 -0.025 0.035
-0.019 -0.023 0.041
-0.015 -0.021 0.043
-0.013 -0.019 0.035
-0.011 -0.021 0.041
-0.007 -0.013 0.037
0.021 -0.021 0.053
0.001 -0.021 0.071
-0.017 -0.017 0.083
-0.013 -0.015 0.089
-0.023 -0.021 0.103
0.001 -0.021 0.077
0.001 -0.019 0.085
-0.015 -0.017 0.089
-0.015 -0.025 0.093
-0.003 -0.013 0.089
-0.009 -0.007 0.089
0.001 -0.017 0.087
-0.025 -0.021 0.103
-0.027 -0.013 0.105
-0.017 -0.015 0.103
-0.011 -0.005 0.103
0.021 -0.023 0.043
0.035 -0.015 0.035
0.007 -0.017 0.067
0.009 -0.019 0.073
0.025 -0.021 0.079
0.025 -0.021 0.077
0.029 -0.019 0.075
0.027 -0.013 0.093
0.029 -0.011 0.091
0.005 -0.013 0.091
0.035 -0.017 0.079
0.041 -0.011 0.081
0.053 -0.007 0.075
0.013 -0.015 0.071
-0.017 -0.017 0.079
0.017 -0.019 0.059
-0.015 -0.015 0.099
-0.017 -0.009 0.101
-0.023 -0.017 0.101
-0.003 -0.017 0.111
-0.001 -0.015 0.087
-0.005 -0.019 0.113
-0.007 -0.017 0.113
-0.003 -0.017 0.113
-0.017 -0.005 0.103
-0.017 -0.005 0.107
0.041 -0.005 0.041
0.027 -0.011 0.049
0.031 -0.013 0.057
0.029 -0.009 0.051
0.037 -0.011 0.065
0.047 -0.007 0.065
0.045 -0.011 0.077
0.049 -0.009 0.075
0.049 0.005 0.047
0.049 0.001 0.055
0.049 0.001 0.059
0.049 0.001 0.061
0.027 -0.017 0.087
-0.019 0.007 0.051
-0.021 0.001 0.055
-0.017 0.009 0.047
-0.027 0.007 0.055
-0.023 -0.007 0.061
-0.023 -0.001 0.071
0.001 -0.005 0.047
0.003 -0.003 0.059
-0.007 0.009 0.045
-0.027 -0.001 0.061
-0.041 0.005 0.089
-0.029 0.003 0.091
-0.033 0.005 0.087
-0.007 -0.007 0.087
0.005 -0.005 0.089
-0.045 0.003 0.103
-0.019 -0.001 0.109
-0.019 -0.009 0.107
-0.017 -0.019 0.097
-0.029 -0.007 0.105
-0.011 -0.003 0.101
0.041 0.013 0.051
0.033 -0.005 0.057
0.045 0.007 0.061
0.045 0.007 0.061
0.047 0.005 0.061
0.025 0.013 0.061
0.023 0.005 0.071
0.025 0.005 0.069
0.039 0.007 0.059
0.025 -0.001 0.063
0.049 0.005 0.047
0.049 0.005 0.047
0.047 0.001 0.065
0.021 -0.001 0.081
0.025 -0.001 0.083
0.027 -0.007 0.089
0.009 -0.011 0.095
0.043 -0.005 0.073
0.035 -0.007 0.081
0.045 -0.003 0.085
-0.011 0.015 0.033
-0.043 0.009 0.047
-0.035 0.023 0.039
-0.031 0.021 0.045
-0.043 0.009 0.055
-0.007 0.001 0.035
-0.007 0.007 0.049
-0.001 0.001 0.061
-0.049 0.009 0.089
-0.047 0.011 0.085
-0.021 0.001 0.101
0.035 0.015 0.039
0.013 0.013 0.037
0.019 0.017 0.045
0.021 0.017 0.045
0.021 0.015 0.041
0.023 0.015 0.041
0.029 0.015 0.055
0.027 0.001 0.047
0.027 0.009 0.063
0.027 0.017 0.053
0.049 0.009 0.053
0.039 0.015 0.047
-0.047 0.007 0.041
-0.051 -0.011 0.037
-0.051 0.003 0.049
-0.051 0.001 0.055
-0.039 0.011 0.047
-0.043 0.009 0.041
-0.019 0.015 0.037
-0.019 0.015 0.041
-0.013 0.007 0.047
-0.013 0.003 0.055
-0.035 0.009 0.057
-0.017 -0.005 0.059
-0.011 0.005 0.053
-0.045 -0.001 0.069
-0.035 -0.007 0.079
-0.045 0.009 0.087
-0.039 -0.005 0.091
-0.043 0.009 0.095
-0.029 -0.001 0.079
-0.015 -0.007 0.067
-0.007 -0.001 0.073
-0.037 0.007 0.087
-0.035 0.005 0.089
-0.027 0.003 0.089
-0.019 -0.001 0.085
-0.045 0.003 0.103
-0.041 0.009 0.099
-0.039 0.001 0.103
-0.025 -0.007 0.107
-0.027 -0.001 0.105
-0.013 -0.003 0.099
0.007 -0.005 0.043
-0.001 -0.001 0.047
0.007 -0.009 0.045
0.011 0.007 0.041
0.013 0.013 0.037
0.017 0.013 0.045
0.009 -0.005 0.049
0.011 -0.009 0.059
0.015 -0.005 0.063
0.039 0.013 0.051
0.025 0.011 0.065
0.037 -0.003 0.063
0.041 0.003 0.065
-0.001 -0.003 0.081
0.017 -0.007 0.067
0.015 -0.007 0.073
0.015 -0.007 0.073
0.021 0.007 0.069
0.021 -0.001 0.075
-0.005 -0.007 0.081
0.011 -0.011 0.093
0.023 0.007 0.071
0.027 -0.003 0.085
-0.037 0.015 0.043
-0.033 0.013 0.047
-0.033 0.023 0.037
-0.049 0.003 0.059
-0.027 0.019 0.039
-0.021 0.013 0.047
-0.011 0.015 0.037
-0.009 0.013 0.039
-0.015 0.013 0.041
-0.009 0.009 0.047
-0.029 0.009 0.055
-0.007 0.005 0.055
-0.037 0.001 0.075
-0.059 0.009 0.087
-0.059 0.007 0.089
-0.057 0.009 0.089
-0.037 0.007 0.095
-0.037 0.007 0.095
-0.031 0.005 0.097
0.003 0.007 0.039
0.015 0.009 0.045
0.017 0.013 0.039
0.019 0.015 0.041
0.021 0.013 0.039
0.019 0.015 0.039
0.027 0.013 0.035
0.019 0.017 0.043
0.023 0.015 0.043
0.029 0.013 0.041
0.021 0.017 0.047
0.011 0.005 0.049
0.037 0.015 0.039
