-0.015 -0.021 0.033
-0.029 -0.023 0.035
-0.035 -0.021 0.037
-0.035 -0.021 0.043
-0.037 -0.019 0.053
-0.035 -0.021 0.049
-0.027 -0.023 0.037
-0.013 -0.019 0.035
-0.009 -0.015 0.037
-0.007 -0.009 0.035
0.015 -0.025 0.043
-0.007 -0.019 0.049
-0.003 -0.019 0.051
-0.011 -0.019 0.057
-0.003 -0.019 0.059
-0.027 -0.013 0.053
-0.029 -0.011 0.055
-0.015 -0.017 0.057
-0.011 -0.019 0.055
-0.001 -0.019 0.057
-0.037 -0.013 0.065
-0.029 -0.015 0.071
-0.029 -0.015 0.071
-0.053 -0.005 0.085
-0.041 -0.013 0.083
-0.037 -0.013 0.087
-0.047 -0.011 0.095
-0.029 -0.017 0.085
-0.023 -0.021 0.087
-0.021 -0.023 0.091
-0.035 -0.017 0.093
-0.025 -0.021 0.087
-0.017 -0.025 0.093
-0.025 -0.017 0.077
-0.021 -0.017 0.079
-0.003 -0.021 0.067
-0.003 -0.021 0.069
-0.001 -0.019 0.079
-0.023 -0.011 0.065
-0.021 -0.015 0.071
-0.021 -0.009 0.065
-0.009 -0.019 0.067
-0.007 -0.019 0.071
-0.027 -0.017 0.077
-0.015 -0.013 0.075
0.001 -0.021 0.069
0.003 -0.021 0.069
-0.015 -0.023 0.089
-0.013 -0.011 0.085
-0.015 -0.017 0.091
-0.011 -0.007 0.089
0.003 -0.017 0.087
-0.009 -0.007 0.095
-0.001 -0.013 0.091
-0.051 -0.007 0.099
-0.045 -0.011 0.097
-0.031 -0.019 0.095
-0.035 -0.017 0.099
-0.031 -0.019 0.101
-0.017 -0.023 0.099
-0.015 -0.025 0.101
-0.013 -0.025 0.097
-0.013 -0.025 0.097
-0.015 -0.015 0.097
-0.017 -0.015 0.103
-0.013 -0.013 0.097
-0.019 -0.015 0.109
-0.017 -0.003 0.107
-0.003 -0.019 0.111
0.017 -0.025 0.043
0.015 -0.025 0.045
0.023 -0.027 0.037
0.023 -0.025 0.035
0.021 -0.027 0.039
0.033 -0.017 0.037
0.023 -0.021 0.043
0.025 -0.021 0.047
0.027 -0.021 0.037
0.025 -0.025 0.039
0.027 -0.023 0.039
0.017 -0.021 0.047
0.021 -0.023 0.043
0.029 -0.013 0.047
0.023 -0.021 0.055
0.023 -0.021 0.063
0.031 -0.017 0.059
0.011 -0.019 0.053
0.023 -0.021 0.061
0.027 -0.013 0.049
0.029 -0.007 0.051
0.039 -0.011 0.033
0.041 -0.009 0.035
0.035 -0.011 0.039
0.037 -0.009 0.039
0.043 -0.005 0.033
0.033 -0.009 0.043
0.047 -0.001 0.049
0.047 -0.003 0.053
0.043 -0.005 0.057
0.017 -0.021 0.079
0.033 -0.019 0.069
0.031 -0.019 0.079
0.011 -0.013 0.069
0.033 -0.019 0.071
0.037 -0.013 0.079
0.005 -0.021 0.083
0.029 -0.019 0.083
0.027 -0.017 0.089
0.015 -0.013 0.095
0.037 -0.013 0.081
0.047 -0.007 0.065
0.045 -0.007 0.067
0.035 -0.015 0.079
0.045 -0.011 0.073
0.041 -0.011 0.073
0.047 -0.009 0.073
0.047 -0.009 0.073
0.055 -0.007 0.077
0.057 -0.005 0.081
-0.015 -0.023 0.033
-0.011 -0.013 0.033
-0.027 -0.021 0.045
-0.029 -0.019 0.049
-0.017 -0.023 0.041
-0.011 -0.021 0.039
-0.007 -0.019 0.047
-0.009 -0.017 0.041
-0.009 -0.011 0.035
-0.007 -0.009 0.035
-0.009 -0.005 0.033
-0.007 -0.015 0.041
0.013 -0.027 0.039
0.017 -0.027 0.039
0.019 -0.029 0.037
0.019 -0.027 0.039
-0.001 -0.017 0.051
0.001 -0.015 0.051
0.001 -0.019 0.057
-0.041 -0.013 0.083
-0.021 -0.017 0.083
-0.015 -0.015 0.093
-0.015 -0.013 0.075
-0.017 -0.025 0.097
-0.013 -0.025 0.095
-0.013 -0.013 0.097
0.027 -0.023 0.037
0.023 -0.015 0.035
0.031 -0.017 0.039
0.037 -0.013 0.035
0.029 -0.005 0.047
0.033 -0.001 0.045
0.035 0.001 0.045
0.033 -0.001 0.045
0.037 0.001 0.047
0.029 -0.009 0.051
0.029 -0.007 0.051
0.035 -0.011 0.061
0.037 -0.005 0.061
0.041 -0.005 0.057
0.037 0.001 0.051
0.043 0.003 0.035
0.045 0.007 0.037
0.035 0.001 0.047
0.043 -0.001 0.045
0.049 0.003 0.047
0.043 -0.003 0.055
0.045 -0.001 0.049
0.049 0.001 0.053
0.049 0.003 0.053
0.049 0.005 0.055
-0.023 0.017 0.041
-0.007 0.011 0.041
-0.015 0.015 0.039
-0.027 0.007 0.055
-0.037 0.019 0.043
-0.037 0.023 0.043
-0.033 0.011 0.055
-0.047 0.005 0.057
-0.045 0.007 0.059
-0.033 0.011 0.055
-0.037 0.007 0.061
-0.027 0.001 0.063
-0.027 0.001 0.065
-0.021 0.015 0.041
-0.011 0.011 0.039
-0.007 0.011 0.043
-0.005 -0.001 0.037
-0.001 0.001 0.049
0.001 0.001 0.059
-0.017 0.001 0.057
-0.017 0.003 0.055
-0.013 0.001 0.059
-0.013 0.001 0.061
-0.011 0.001 0.063
-0.037 0.005 0.069
-0.027 0.001 0.079
-0.049 0.013 0.085
-0.045 0.007 0.095
-0.037 0.007 0.085
-0.033 0.007 0.085
-0.031 0.005 0.087
-0.031 0.003 0.093
-0.031 0.005 0.097
-0.033 0.005 0.095
-0.031 0.005 0.095
-0.021 -0.003 0.069
-0.025 -0.001 0.065
-0.023 0.001 0.077
-0.011 -0.005 0.071
-0.011 -0.005 0.071
-0.005 -0.001 0.075
-0.019 -0.001 0.085
-0.013 -0.003 0.095
-0.013 -0.009 0.085
-0.003 -0.005 0.083
-0.001 -0.007 0.085
-0.013 -0.003 0.085
0.001 -0.001 0.081
-0.009 -0.003 0.093
-0.009 -0.005 0.091
-0.009 -0.003 0.095
-0.045 0.009 0.099
-0.051 0.009 0.101
-0.049 0.009 0.101
-0.051 0.007 0.105
-0.035 0.003 0.103
-0.033 0.003 0.101
-0.035 0.001 0.105
-0.011 -0.005 0.103
-0.017 -0.003 0.105
-0.013 -0.011 0.107
-0.021 0.001 0.099
-0.017 -0.003 0.107
-0.017 -0.003 0.109
0.035 0.015 0.037
0.029 0.005 0.045
0.027 -0.001 0.047
0.033 0.015 0.043
0.025 0.011 0.037
0.029 0.013 0.041
0.029 0.013 0.059
0.025 0.005 0.069
0.029 -0.001 0.063
0.021 0.007 0.067
0.029 -0.005 0.053
0.023 0.009 0.067
0.039 0.015 0.041
0.045 0.013 0.043
0.043 0.011 0.055
0.013 -0.007 0.073
0.009 -0.001 0.077
0.009 -0.001 0.079
0.011 -0.003 0.077
0.019 -0.003 0.075
0.035 -0.005 0.069
0.017 -0.005 0.075
0.021 0.003 0.073
0.027 -0.001 0.067
0.021 -0.001 0.075
0.017 -0.001 0.079
0.025 -0.001 0.077
0.013 -0.003 0.089
0.013 -0.005 0.091
0.027 -0.007 0.089
0.003 -0.003 0.085
0.007 -0.007 0.091
0.007 -0.011 0.093
0.011 -0.003 0.089
0.031 -0.003 0.083
0.017 -0.005 0.091
0.021 -0.005 0.091
0.035 -0.005 0.071
0.035 -0.005 0.079
0.041 -0.003 0.071
0.039 -0.001 0.069
0.041 -0.001 0.069
0.045 -0.005 0.073
0.035 -0.003 0.073
0.051 -0.005 0.079
0.035 -0.007 0.081
0.037 -0.009 0.081
0.043 -0.005 0.085
0.045 -0.003 0.085
-0.033 0.021 0.041
-0.035 0.023 0.043
-0.033 0.021 0.033
-0.047 0.005 0.059
-0.043 0.007 0.061
-0.039 0.007 0.061
-0.025 0.019 0.037
-0.019 0.015 0.039
-0.007 0.013 0.039
-0.005 0.011 0.039
-0.005 0.011 0.039
-0.005 0.011 0.035
-0.029 0.021 0.039
-0.005 0.003 0.051
-0.011 0.003 0.057
-0.035 0.003 0.073
-0.055 0.013 0.085
-0.049 0.013 0.085
-0.047 0.011 0.083
-0.059 0.007 0.091
-0.041 0.007 0.087
-0.047 0.011 0.083
-0.023 0.001 0.087
-0.049 0.009 0.097
-0.051 0.009 0.101
-0.053 0.009 0.105
-0.049 0.005 0.105
-0.051 0.007 0.105
-0.039 0.007 0.099
0.011 0.007 0.039
0.011 0.009 0.037
0.031 0.015 0.037
0.019 0.015 0.035
0.029 0.013 0.033
0.027 0.013 0.037
0.031 0.009 0.047
0.023 0.017 0.045
0.029 0.013 0.041
0.021 0.017 0.053
0.023 0.019 0.055
0.023 0.017 0.059
0.023 0.013 0.063
0.027 0.015 0.059
0.041 0.013 0.035
0.043 0.013 0.047
0.049 0.009 0.047
0.039 0.011 0.053
0.049 0.005 0.055
-0.043 -0.017 0.051
-0.025 -0.021 0.043
-0.039 -0.021 0.051
-0.043 -0.019 0.041
-0.047 -0.019 0.039
-0.037 -0.021 0.039
-0.043 -0.017 0.049
-0.051 -0.005 0.043
-0.049 -0.009 0.047
-0.049 -0.017 0.041
-0.047 -0.017 0.041
-0.049 -0.015 0.041
-0.045 -0.013 0.045
-0.047 -0.013 0.049
-0.041 -0.017 0.055
-0.049 -0.009 0.057
-0.043 -0.017 0.053
-0.031 -0.023 0.037
-0.023 -0.021 0.039
-0.031 -0.021 0.047
-0.039 -0.019 0.053
-0.015 -0.021 0.051
-0.017 -0.019 0.051
-0.011 -0.019 0.059
-0.019 -0.011 0.057
-0.013 -0.015 0.063
-0.023 -0.017 0.077
-0.027 -0.019 0.083
-0.027 -0.019 0.085
-0.041 -0.013 0.067
-0.041 -0.011 0.069
-0.035 -0.013 0.071
-0.033 -0.015 0.075
-0.045 -0.007 0.069
-0.043 -0.007 0.071
-0.043 -0.013 0.093
-0.053 -0.005 0.085
-0.053 -0.005 0.087
-0.045 -0.009 0.087
-0.043 -0.011 0.095
-0.011 -0.017 0.067
-0.005 -0.019 0.067
-0.029 -0.015 0.073
-0.031 -0.015 0.071
-0.031 -0.015 0.079
-0.011 -0.013 0.071
-0.025 -0.023 0.097
-0.025 -0.023 0.097
-0.023 -0.023 0.095
-0.031 -0.019 0.097
-0.029 -0.021 0.099
-0.021 -0.025 0.099
-0.039 -0.015 0.101
-0.025 -0.023 0.101
-0.023 -0.023 0.101
-0.021 -0.023 0.101
-0.025 -0.023 0.107
-0.025 -0.021 0.109
-0.053 -0.001 0.105
-0.031 -0.019 0.103
-0.023 -0.023 0.101
-0.019 -0.023 0.103
-0.025 -0.019 0.107
-0.025 -0.013 0.111
-0.031 -0.009 0.105
-0.025 -0.009 0.109
-0.021 -0.001 0.107
-0.019 -0.003 0.109
-0.019 -0.019 0.101
-0.023 -0.013 0.111
-0.017 -0.015 0.109
0.015 -0.021 0.047
0.013 -0.019 0.047
0.013 -0.019 0.051
0.011 -0.019 0.045
0.015 -0.021 0.047
0.015 -0.021 0.049
0.023 -0.025 0.039
0.017 -0.021 0.049
0.025 -0.021 0.047
-0.007 -0.019 0.061
-0.005 -0.019 0.065
0.015 -0.015 0.063
0.005 -0.021 0.073
0.003 -0.021 0.077
0.021 -0.021 0.061
-0.007 -0.019 0.065
-0.007 -0.019 0.071
-0.001 -0.021 0.065
0.001 -0.021 0.075
0.021 -0.021 0.061
-0.001 -0.019 0.079
-0.001 -0.019 0.081
0.001 -0.019 0.085
0.021 -0.021 0.061
0.021 -0.021 0.057
0.017 -0.017 0.065
0.025 -0.021 0.073
0.025 -0.021 0.073
0.025 -0.021 0.081
0.005 -0.021 0.079
-0.019 -0.023 0.103
-0.001 -0.007 0.085
0.015 -0.017 0.091
0.005 -0.007 0.089
0.003 -0.005 0.087
0.013 -0.015 0.093
0.005 -0.011 0.093
0.011 -0.005 0.091
0.009 -0.011 0.095
0.029 -0.019 0.083
0.019 -0.021 0.087
0.027 -0.017 0.089
0.025 -0.017 0.089
0.019 -0.017 0.091
0.031 -0.013 0.091
0.031 -0.013 0.089
0.045 -0.009 0.085
0.041 -0.007 0.087
0.047 -0.007 0.087
0.045 -0.007 0.087
-0.051 -0.001 0.057
-0.049 -0.009 0.059
-0.049 -0.003 0.059
-0.051 -0.001 0.055
-0.049 -0.001 0.061
-0.049 0.003 0.055
-0.047 0.001 0.065
-0.045 0.003 0.067
-0.043 -0.013 0.061
-0.039 -0.013 0.059
-0.037 -0.011 0.075
-0.023 -0.011 0.053
-0.033 -0.015 0.071
-0.029 -0.015 0.071
-0.047 -0.005 0.065
-0.045 -0.003 0.069
-0.039 -0.009 0.075
-0.043 -0.011 0.081
-0.031 -0.015 0.077
-0.031 -0.015 0.077
-0.021 -0.017 0.079
-0.059 0.001 0.089
-0.057 0.001 0.091
-0.059 -0.003 0.101
-0.059 0.003 0.093
-0.059 0.003 0.093
-0.055 -0.007 0.097
-0.053 -0.005 0.101
-0.055 -0.005 0.101
-0.043 -0.011 0.103
-0.055 -0.001 0.105
-0.051 -0.003 0.105
-0.049 -0.001 0.107
-0.051 0.003 0.107
0.001 -0.021 0.071
-0.011 -0.013 0.069
-0.009 -0.017 0.069
-0.009 -0.015 0.073
-0.005 -0.019 0.073
-0.007 -0.017 0.073
-0.015 -0.025 0.087
-0.003 -0.017 0.081
-0.003 -0.019 0.079
-0.019 -0.025 0.093
-0.003 -0.017 0.081
-0.001 -0.019 0.081
-0.013 -0.027 0.095
0.001 -0.019 0.083
-0.013 -0.027 0.095
0.001 -0.009 0.089
0.001 -0.015 0.087
0.003 -0.015 0.089
0.003 -0.013 0.093
-0.013 -0.025 0.103
-0.001 -0.019 0.081
0.003 -0.019 0.085
0.013 -0.021 0.085
0.007 -0.021 0.085
0.017 -0.019 0.089
0.003 -0.013 0.093
