-0.007 -0.003 0.077
0.007 -0.001 0.083
0.001 0.001 0.061
-0.015 -0.001 0.095
-0.011 -0.005 0.103
-0.013 -0.003 0.089
-0.023 0.001 0.091
-0.011 -0.007 0.101
-0.027 0.003 0.099
-0.013 -0.003 0.103
0.009 -0.009 0.091
-0.001 -0.009 0.087
0.003 -0.009 0.089
0.005 -0.009 0.091
-0.001 -0.007 0.085
0.011 -0.005 0.091
0.007 -0.005 0.089
0.007 -0.009 0.091
0.013 -0.005 0.091
-0.005 0.001 0.069
-0.007 0.001 0.065
0.007 -0.001 0.073
-0.005 -0.007 0.101
0.011 -0.011 0.093
0.007 -0.011 0.093
-0.009 -0.007 0.077
-0.003 -0.009 0.085
-0.003 -0.007 0.083
-0.019 0.001 0.107
-0.017 -0.003 0.109
-0.029 0.003 0.091
-0.019 0.001 0.107
-0.017 -0.003 0.109
-0.047 0.003 0.105
-0.045 -0.001 0.103
-0.023 -0.007 0.107
-0.031 0.001 0.105
-0.035 -0.001 0.105
-0.029 -0.003 0.105
0.003 -0.011 0.091
0.009 -0.013 0.095
0.005 -0.011 0.093
0.005 -0.011 0.093
-0.009 -0.003 0.089
-0.021 -0.001 0.077
-0.017 -0.003 0.079
-0.021 0.001 0.083
-0.003 -0.009 0.085
-0.005 -0.009 0.083
-0.007 -0.007 0.079
-0.007 -0.005 0.089
-0.005 -0.007 0.095
0.001 -0.011 0.091
-0.005 -0.005 0.079
-0.003 -0.003 0.081
-0.001 -0.003 0.083
-0.009 -0.013 0.109
-0.009 -0.013 0.111
-0.021 0.001 0.101
-0.017 -0.001 0.097
-0.011 -0.013 0.091
-0.003 -0.009 0.085
-0.013 -0.001 0.093
-0.057 -0.005 0.103
-0.049 -0.001 0.107
-0.051 -0.001 0.107
-0.051 -0.003 0.105
-0.049 -0.003 0.105
-0.039 -0.009 0.105
-0.041 -0.013 0.103
-0.043 -0.003 0.103
-0.025 -0.019 0.107
-0.015 -0.023 0.103
-0.019 -0.021 0.101
-0.017 -0.015 0.109
-0.003 -0.017 0.113
-0.019 -0.013 0.109
-0.019 -0.011 0.115
-0.023 -0.007 0.107
-0.019 -0.001 0.109
-0.017 -0.003 0.109
-0.019 -0.001 0.109
-0.013 -0.003 0.103
0.045 0.005 0.061
0.049 0.001 0.061
0.033 -0.011 0.089
0.029 -0.005 0.087
0.031 -0.007 0.087
0.035 -0.017 0.075
0.035 -0.013 0.087
0.035 -0.009 0.085
0.037 -0.011 0.083
0.033 -0.011 0.089
0.033 -0.009 0.087
0.041 -0.009 0.085
0.027 -0.001 0.073
0.023 0.007 0.071
0.023 -0.001 0.085
0.043 -0.003 0.071
0.027 -0.001 0.047
0.027 0.001 0.047
0.027 -0.003 0.049
0.029 -0.003 0.047
0.027 -0.009 0.091
0.035 -0.011 0.087
0.023 -0.003 0.087
0.025 -0.005 0.089
0.015 -0.001 0.083
0.015 -0.003 0.059
0.017 -0.003 0.057
0.017 -0.003 0.063
0.021 -0.001 0.059
0.035 -0.005 0.067
0.041 -0.005 0.087
0.033 -0.003 0.065
0.027 -0.001 0.067
0.047 -0.003 0.061
0.049 0.005 0.059
0.049 0.005 0.059
0.045 -0.001 0.069
0.047 0.001 0.065
0.047 -0.001 0.067
0.037 -0.005 0.069
0.043 -0.003 0.071
0.035 -0.005 0.067
0.039 -0.001 0.069
0.049 -0.001 0.061
0.023 -0.017 0.091
0.019 -0.007 0.091
0.021 -0.009 0.093
0.017 -0.003 0.089
0.003 -0.001 0.081
0.025 -0.001 0.077
0.027 -0.001 0.075
0.029 -0.003 0.081
0.011 -0.015 0.091
0.031 -0.019 0.081
0.003 -0.005 0.087
0.007 -0.009 0.091
0.005 -0.011 0.093
0.021 -0.003 0.089
0.023 -0.003 0.087
0.031 -0.007 0.087
0.017 -0.013 0.095
0.033 -0.003 0.075
0.043 -0.003 0.071
0.035 -0.011 0.087
0.033 -0.013 0.089
0.041 -0.007 0.087
0.055 -0.005 0.085
0.051 -0.007 0.087
-0.023 0.005 0.053
-0.025 0.015 0.045
-0.023 0.015 0.045
-0.007 0.013 0.039
-0.025 0.019 0.041
-0.037 0.005 0.067
-0.037 0.007 0.063
-0.031 0.009 0.057
-0.039 0.007 0.061
-0.033 0.011 0.055
-0.035 0.011 0.055
-0.031 0.021 0.045
-0.029 0.021 0.039
-0.033 0.023 0.043
-0.037 0.021 0.043
-0.037 0.017 0.043
-0.035 0.023 0.043
-0.033 0.007 0.085
-0.043 0.009 0.055
-0.043 0.005 0.063
-0.041 0.007 0.061
-0.033 0.009 0.057
-0.015 0.005 0.053
-0.015 0.009 0.045
-0.017 0.013 0.043
-0.003 0.003 0.051
-0.011 0.011 0.043
-0.009 0.007 0.051
-0.023 0.019 0.035
-0.025 0.021 0.035
-0.017 0.001 0.057
-0.029 0.003 0.059
-0.029 0.005 0.061
-0.029 0.005 0.063
-0.009 0.001 0.063
-0.003 0.001 0.063
-0.033 0.007 0.085
-0.027 0.003 0.087
-0.049 0.007 0.103
-0.049 0.005 0.105
-0.049 0.005 0.105
-0.049 0.013 0.085
-0.049 0.005 0.105
-0.053 0.009 0.103
-0.063 0.007 0.093
-0.039 0.007 0.087
-0.035 0.007 0.097
-0.023 0.001 0.075
0.001 0.001 0.071
-0.029 0.003 0.089
-0.025 0.003 0.091
-0.055 0.001 0.105
-0.049 0.007 0.103
-0.051 0.003 0.107
-0.041 0.007 0.099
-0.045 0.007 0.101
-0.039 0.005 0.099
-0.037 0.003 0.103
-0.021 0.001 0.101
0.027 0.005 0.045
0.045 0.011 0.055
0.013 0.005 0.051
0.011 0.007 0.045
0.021 0.011 0.063
0.007 0.015 0.037
0.021 0.015 0.057
0.021 0.011 0.063
0.019 0.011 0.061
0.029 0.011 0.059
0.039 0.009 0.055
0.029 0.013 0.043
0.033 0.013 0.047
0.027 0.009 0.057
0.027 0.011 0.061
0.019 0.011 0.061
0.029 0.013 0.059
0.027 0.007 0.059
0.027 0.013 0.061
0.027 0.009 0.063
0.025 0.017 0.059
0.025 0.019 0.055
0.041 0.013 0.049
0.035 0.015 0.039
0.049 0.005 0.059
0.049 0.007 0.053
0.041 0.007 0.061
0.037 0.009 0.053
0.039 0.011 0.053
0.041 0.003 0.065
0.047 0.007 0.059
0.049 0.001 0.053
-0.023 -0.023 0.031
-0.025 -0.023 0.031
-0.023 -0.023 0.031
-0.047 -0.023 0.037
-0.043 -0.021 0.035
-0.047 -0.023 0.037
-0.045 -0.023 0.039
-0.033 -0.021 0.035
-0.035 -0.021 0.035
-0.039 -0.021 0.039
-0.041 -0.019 0.045
-0.041 -0.019 0.047
-0.035 -0.021 0.043
-0.035 -0.021 0.045
-0.049 -0.009 0.045
-0.043 -0.021 0.037
-0.043 -0.021 0.039
-0.041 -0.019 0.035
-0.041 -0.009 0.033
-0.037 -0.021 0.037
-0.035 -0.021 0.051
-0.047 -0.011 0.053
-0.047 -0.011 0.053
-0.043 -0.017 0.051
-0.043 -0.013 0.059
-0.043 -0.011 0.063
-0.019 -0.025 0.033
-0.019 -0.025 0.033
-0.021 -0.023 0.037
-0.017 -0.023 0.043
-0.015 -0.023 0.035
-0.015 -0.023 0.033
-0.015 -0.023 0.035
-0.011 -0.013 0.033
-0.009 -0.015 0.039
-0.009 -0.009 0.033
-0.005 -0.009 0.037
-0.005 -0.009 0.037
-0.003 -0.003 0.041
-0.031 -0.019 0.051
-0.013 -0.021 0.049
-0.015 -0.021 0.051
-0.013 -0.021 0.051
-0.011 -0.019 0.059
0.001 -0.019 0.057
-0.023 -0.017 0.049
-0.031 -0.013 0.063
-0.027 -0.009 0.057
-0.023 -0.007 0.057
-0.013 -0.015 0.063
-0.035 -0.013 0.067
-0.031 -0.015 0.069
-0.035 -0.013 0.071
-0.031 -0.015 0.073
-0.031 -0.015 0.079
-0.033 -0.015 0.075
-0.033 -0.017 0.089
-0.061 -0.003 0.083
-0.043 -0.011 0.087
-0.039 -0.013 0.089
-0.041 -0.015 0.093
-0.039 -0.015 0.093
-0.037 -0.017 0.095
-0.037 -0.015 0.089
-0.037 -0.013 0.087
-0.035 -0.017 0.093
-0.033 -0.017 0.093
-0.003 -0.021 0.065
-0.005 -0.019 0.067
-0.001 -0.021 0.065
-0.003 -0.021 0.071
-0.003 -0.019 0.073
-0.025 -0.013 0.067
-0.023 -0.013 0.067
-0.019 -0.015 0.073
-0.015 -0.013 0.073
-0.017 -0.015 0.077
-0.009 -0.019 0.067
-0.003 -0.021 0.065
-0.001 -0.021 0.071
-0.003 -0.019 0.079
-0.003 -0.019 0.075
-0.019 -0.019 0.085
-0.023 -0.023 0.091
-0.019 -0.023 0.089
-0.015 -0.025 0.089
-0.015 -0.025 0.087
-0.001 -0.019 0.081
-0.015 -0.025 0.093
-0.013 -0.027 0.095
-0.029 -0.015 0.081
-0.017 -0.017 0.085
-0.013 -0.015 0.085
-0.015 -0.025 0.093
-0.013 -0.015 0.081
-0.015 -0.015 0.083
-0.013 -0.015 0.081
-0.013 -0.015 0.085
-0.015 -0.017 0.087
-0.003 -0.019 0.079
-0.003 -0.015 0.085
-0.001 -0.015 0.087
0.001 -0.017 0.087
0.001 -0.019 0.083
-0.015 -0.017 0.091
-0.011 -0.007 0.089
-0.009 -0.007 0.089
-0.011 -0.015 0.087
-0.009 -0.007 0.093
-0.057 -0.005 0.101
-0.049 -0.011 0.095
-0.047 -0.011 0.095
-0.039 -0.015 0.097
-0.037 -0.015 0.103
-0.029 -0.021 0.103
-0.023 -0.023 0.099
-0.023 -0.023 0.101
-0.013 -0.025 0.103
-0.029 -0.019 0.101
-0.017 -0.025 0.101
-0.013 -0.027 0.095
-0.013 -0.025 0.101
-0.025 -0.021 0.105
-0.011 -0.015 0.107
-0.013 -0.017 0.109
-0.023 -0.013 0.115
-0.019 -0.013 0.115
0.015 -0.025 0.045
0.017 -0.025 0.045
0.021 -0.029 0.035
0.023 -0.029 0.037
0.019 -0.023 0.043
0.017 -0.021 0.047
0.009 -0.015 0.039
0.011 -0.015 0.035
0.013 -0.023 0.043
0.021 -0.029 0.033
0.031 -0.017 0.035
0.031 -0.017 0.033
0.023 -0.029 0.035
0.025 -0.011 0.033
0.027 -0.023 0.039
0.027 -0.023 0.039
0.027 -0.011 0.033
0.029 -0.017 0.045
0.029 -0.005 0.047
0.029 -0.005 0.047
0.029 -0.005 0.047
0.023 -0.021 0.063
0.009 -0.017 0.049
0.013 -0.019 0.049
0.003 -0.017 0.057
0.017 -0.019 0.061
0.027 -0.013 0.049
0.023 -0.021 0.055
0.031 -0.015 0.057
0.023 -0.021 0.059
0.031 -0.013 0.057
0.035 -0.011 0.039
0.035 -0.009 0.041
0.047 -0.001 0.047
0.043 -0.003 0.053
0.039 -0.007 0.063
0.043 -0.007 0.059
0.011 -0.021 0.077
0.021 -0.019 0.069
0.019 -0.019 0.075
0.021 -0.019 0.073
0.017 -0.021 0.079
0.009 -0.015 0.067
0.005 -0.021 0.073
0.021 -0.019 0.071
0.025 -0.019 0.069
0.025 -0.021 0.077
0.031 -0.019 0.077
0.007 -0.021 0.081
0.007 -0.021 0.083
0.009 -0.017 0.091
0.025 -0.019 0.087
0.005 -0.017 0.089
0.031 -0.013 0.089
0.045 -0.009 0.067
0.039 -0.009 0.065
0.045 -0.009 0.069
0.039 -0.011 0.075
0.043 -0.011 0.073
0.041 -0.011 0.073
0.053 -0.009 0.079
0.039 -0.011 0.081
0.033 -0.015 0.085
0.035 -0.013 0.087
0.047 -0.009 0.083
0.045 -0.011 0.083
0.047 -0.009 0.083
-0.013 -0.011 0.031
-0.027 -0.023 0.035
-0.027 -0.021 0.041
-0.037 -0.021 0.047
-0.031 -0.021 0.049
-0.027 -0.023 0.037
-0.023 -0.019 0.041
-0.037 -0.021 0.049
-0.033 -0.013 0.057
-0.019 -0.025 0.035
-0.015 -0.023 0.039
-0.013 -0.021 0.049
-0.007 -0.009 0.035
-0.007 -0.015 0.039
-0.005 0.007 0.039
-0.005 0.009 0.037
-0.007 -0.017 0.045
-0.001 -0.013 0.045
-0.007 -0.017 0.045
-0.015 -0.021 0.043
-0.013 -0.021 0.049
-0.019 -0.015 0.055
-0.023 -0.007 0.057
-0.011 -0.019 0.057
-0.005 -0.019 0.057
0.001 -0.019 0.059
-0.001 -0.019 0.061
-0.051 -0.007 0.083
-0.043 -0.011 0.087
-0.049 -0.005 0.089
-0.033 -0.015 0.083
-0.031 -0.017 0.083
-0.039 -0.013 0.081
-0.035 -0.013 0.081
-0.039 -0.013 0.083
-0.029 -0.019 0.093
-0.027 -0.019 0.091
-0.023 -0.013 0.067
-0.025 -0.021 0.089
-0.015 -0.025 0.087
-0.015 -0.025 0.093
-0.051 -0.009 0.097
-0.045 -0.011 0.097
-0.039 -0.015 0.097
-0.013 -0.027 0.095
0.021 -0.029 0.033
0.023 -0.027 0.033
0.011 -0.023 0.041
0.015 -0.027 0.039
0.013 -0.019 0.047
0.019 -0.021 0.047
0.025 -0.015 0.035
0.031 -0.017 0.035
0.027 -0.023 0.037
0.027 -0.023 0.041
0.029 -0.021 0.039
0.029 -0.017 0.047
0.027 -0.019 0.045
0.033 -0.009 0.043
0.029 -0.017 0.045
0.029 -0.017 0.047
0.029 -0.015 0.047
0.017 -0.021 0.049
0.017 -0.021 0.049
0.027 -0.019 0.061
0.033 -0.009 0.057
0.029 -0.009 0.051
0.041 -0.007 0.037
0.041 -0.003 0.055
0.045 -0.003 0.055
0.043 -0.009 0.063
0.025 -0.019 0.067
0.025 -0.019 0.069
0.027 -0.021 0.069
0.027 -0.021 0.069
0.027 -0.019 0.067
