-0.027 -0.017 0.049
-0.021 -0.017 0.049
-0.019 -0.017 0.053
-0.021 -0.025 0.035
-0.021 -0.023 0.039
-0.017 -0.023 0.039
-0.015 -0.021 0.051
-0.011 -0.019 0.049
-0.009 -0.019 0.049
-0.013 -0.021 0.053
0.001 -0.019 0.057
-0.043 -0.021 0.037
-0.035 -0.021 0.043
-0.035 -0.021 0.051
-0.031 -0.021 0.047
-0.029 -0.021 0.047
-0.037 -0.021 0.051
-0.037 -0.015 0.057
-0.037 -0.013 0.065
-0.033 -0.019 0.051
-0.029 -0.019 0.049
-0.029 -0.017 0.051
-0.039 -0.017 0.055
-0.041 -0.013 0.063
-0.045 -0.011 0.061
-0.039 -0.013 0.069
-0.023 -0.023 0.035
-0.025 -0.023 0.037
-0.025 -0.021 0.041
-0.023 -0.021 0.039
-0.027 -0.019 0.047
-0.015 -0.023 0.041
-0.011 -0.019 0.039
-0.011 -0.021 0.043
-0.009 -0.019 0.047
-0.007 -0.019 0.049
-0.003 -0.019 0.053
-0.021 -0.021 0.041
-0.013 -0.021 0.045
-0.011 -0.021 0.045
-0.011 -0.019 0.051
-0.019 -0.017 0.051
-0.019 -0.017 0.053
-0.007 -0.019 0.057
-0.003 -0.017 0.047
-0.003 -0.017 0.049
-0.003 -0.013 0.043
-0.001 -0.017 0.051
0.001 -0.015 0.051
0.003 -0.019 0.063
-0.003 -0.017 0.047
-0.001 -0.013 0.045
-0.003 -0.019 0.053
0.003 -0.011 0.051
0.009 -0.017 0.069
-0.013 -0.019 0.055
-0.005 -0.019 0.053
-0.009 -0.019 0.061
-0.009 -0.019 0.065
-0.007 -0.019 0.065
-0.017 -0.017 0.055
-0.005 -0.017 0.077
-0.029 -0.013 0.061
-0.025 -0.009 0.059
-0.013 -0.015 0.065
-0.011 -0.017 0.067
-0.017 -0.013 0.073
-0.017 -0.013 0.075
-0.007 -0.017 0.075
0.003 -0.017 0.057
-0.009 -0.019 0.067
-0.005 -0.019 0.075
-0.005 -0.019 0.075
-0.041 -0.011 0.069
-0.037 -0.013 0.069
-0.031 -0.015 0.071
-0.039 -0.011 0.073
-0.025 -0.023 0.097
-0.023 -0.023 0.101
-0.025 -0.023 0.097
-0.017 -0.023 0.103
-0.017 -0.023 0.103
-0.019 -0.017 0.099
-0.047 -0.011 0.093
-0.041 -0.013 0.101
-0.033 -0.017 0.103
-0.039 -0.015 0.101
-0.037 -0.015 0.103
-0.041 -0.011 0.103
-0.035 -0.017 0.093
-0.025 -0.023 0.107
-0.023 -0.023 0.099
-0.023 -0.023 0.101
-0.027 -0.021 0.097
-0.025 -0.023 0.109
-0.033 -0.017 0.103
-0.025 -0.023 0.107
-0.037 -0.015 0.101
-0.025 -0.023 0.107
-0.023 -0.021 0.107
-0.023 -0.021 0.107
-0.025 -0.023 0.107
-0.025 -0.023 0.109
-0.031 -0.013 0.105
-0.023 -0.015 0.107
-0.007 -0.019 0.067
0.001 -0.021 0.071
-0.001 -0.021 0.075
0.001 -0.021 0.077
-0.001 -0.019 0.081
-0.017 -0.013 0.073
-0.019 -0.011 0.067
-0.011 -0.015 0.087
-0.013 -0.015 0.083
-0.027 -0.017 0.077
-0.017 -0.017 0.079
-0.013 -0.015 0.095
-0.011 -0.013 0.087
-0.009 -0.013 0.079
-0.005 -0.013 0.083
-0.001 -0.019 0.081
-0.003 -0.015 0.085
-0.019 -0.025 0.097
-0.019 -0.025 0.101
-0.017 -0.019 0.097
-0.015 -0.017 0.091
-0.003 -0.019 0.111
-0.015 -0.015 0.095
-0.003 -0.019 0.113
-0.007 -0.017 0.113
-0.013 -0.015 0.081
-0.011 -0.013 0.087
-0.011 -0.015 0.087
-0.011 -0.015 0.091
0.001 -0.017 0.087
-0.013 -0.009 0.085
-0.011 -0.013 0.091
-0.011 -0.007 0.093
0.005 -0.011 0.093
-0.013 -0.015 0.091
-0.011 -0.015 0.089
-0.013 -0.015 0.095
-0.007 -0.007 0.097
-0.007 -0.007 0.089
-0.053 -0.003 0.103
-0.053 -0.005 0.101
-0.051 -0.005 0.101
-0.051 -0.001 0.107
-0.037 -0.015 0.101
-0.037 -0.015 0.103
-0.031 -0.013 0.105
-0.039 -0.009 0.105
-0.039 -0.005 0.105
-0.033 -0.001 0.105
-0.025 -0.023 0.101
-0.023 -0.019 0.105
-0.017 -0.023 0.103
-0.019 -0.019 0.101
-0.025 -0.021 0.109
-0.025 -0.021 0.109
-0.013 -0.025 0.103
-0.023 -0.015 0.105
-0.011 -0.017 0.107
-0.011 -0.017 0.109
-0.011 -0.017 0.111
-0.013 -0.013 0.109
-0.017 -0.005 0.107
-0.025 -0.013 0.109
-0.013 -0.017 0.109
-0.017 -0.011 0.109
-0.017 -0.003 0.109
-0.007 -0.007 0.103
-0.005 -0.007 0.101
-0.007 -0.019 0.111
-0.009 -0.017 0.111
-0.021 -0.013 0.115
0.021 -0.021 0.049
0.023 -0.021 0.051
0.035 -0.011 0.039
0.035 -0.009 0.041
0.035 -0.015 0.037
0.041 -0.007 0.037
0.041 -0.007 0.037
0.043 -0.007 0.033
0.015 -0.027 0.041
0.017 -0.027 0.041
0.017 -0.027 0.041
0.017 -0.021 0.047
0.015 -0.021 0.047
0.017 -0.021 0.047
0.013 -0.019 0.051
0.023 -0.029 0.037
0.021 -0.027 0.039
0.025 -0.025 0.039
0.027 -0.023 0.041
0.021 -0.023 0.043
0.027 -0.023 0.039
0.017 -0.025 0.045
0.023 -0.021 0.043
0.025 -0.021 0.043
0.023 -0.021 0.045
0.019 -0.021 0.047
0.027 -0.021 0.043
0.029 -0.019 0.041
0.019 -0.021 0.047
0.017 -0.021 0.053
0.023 -0.021 0.051
0.023 -0.021 0.063
0.015 -0.019 0.059
0.003 -0.011 0.051
0.025 -0.021 0.079
0.027 -0.021 0.043
0.027 -0.019 0.045
0.027 -0.019 0.045
0.033 -0.015 0.039
0.033 -0.017 0.037
0.031 -0.015 0.043
0.033 -0.015 0.039
0.029 -0.013 0.047
0.031 -0.015 0.045
0.031 -0.007 0.043
0.033 -0.017 0.063
0.003 -0.019 0.063
0.021 -0.021 0.053
0.025 -0.019 0.053
0.023 -0.021 0.055
0.027 -0.017 0.049
0.025 -0.021 0.059
0.027 -0.019 0.057
0.029 -0.019 0.065
0.013 -0.017 0.057
0.017 -0.017 0.065
0.015 -0.015 0.063
0.013 -0.019 0.075
0.029 -0.019 0.077
0.023 -0.021 0.079
0.009 -0.015 0.067
0.009 -0.019 0.071
0.015 -0.021 0.079
0.025 -0.021 0.083
0.035 -0.017 0.071
0.033 -0.017 0.063
0.035 -0.015 0.067
0.033 -0.017 0.081
0.035 -0.015 0.081
0.035 -0.015 0.035
0.039 -0.011 0.035
0.033 -0.015 0.039
0.039 -0.009 0.037
0.037 -0.007 0.039
0.041 -0.007 0.037
0.039 -0.005 0.041
0.043 -0.005 0.033
0.033 -0.001 0.045
0.041 -0.003 0.043
0.047 -0.003 0.055
0.045 -0.009 0.065
0.049 -0.003 0.057
0.041 -0.011 0.069
0.039 -0.011 0.071
0.045 -0.011 0.077
0.045 -0.007 0.061
0.045 -0.009 0.065
0.045 -0.009 0.067
0.047 -0.007 0.065
0.049 -0.001 0.061
0.005 -0.021 0.071
0.009 -0.021 0.077
0.015 -0.021 0.081
0.029 -0.019 0.081
0.023 -0.021 0.079
0.015 -0.017 0.091
0.017 -0.019 0.089
0.015 -0.017 0.091
0.019 -0.019 0.089
0.021 -0.021 0.083
0.019 -0.013 0.095
0.021 -0.013 0.095
0.025 -0.021 0.083
0.025 -0.019 0.085
0.027 -0.019 0.083
0.031 -0.015 0.087
0.037 -0.011 0.083
0.023 -0.021 0.083
0.027 -0.017 0.089
0.027 -0.013 0.093
0.033 -0.011 0.089
0.005 -0.019 0.085
0.003 -0.017 0.087
0.007 -0.019 0.087
0.011 -0.021 0.083
0.013 -0.021 0.087
0.015 -0.021 0.087
0.015 -0.021 0.087
0.013 -0.019 0.089
0.013 -0.017 0.091
0.025 -0.021 0.083
0.019 -0.019 0.089
0.005 -0.017 0.089
0.019 -0.011 0.095
0.015 -0.009 0.093
0.017 -0.011 0.095
0.003 -0.013 0.093
0.015 -0.015 0.093
0.013 -0.013 0.095
0.017 -0.013 0.095
0.011 -0.013 0.095
0.023 -0.013 0.095
0.019 -0.013 0.095
0.021 -0.011 0.095
0.027 -0.015 0.089
0.029 -0.013 0.091
0.021 -0.005 0.091
0.033 -0.019 0.077
0.039 -0.011 0.073
0.041 -0.011 0.077
0.039 -0.011 0.079
0.043 -0.011 0.077
0.043 -0.011 0.081
0.049 -0.011 0.081
0.039 -0.011 0.077
0.049 -0.009 0.075
0.035 -0.007 0.081
0.045 -0.011 0.083
0.055 -0.007 0.077
0.035 -0.009 0.085
0.049 -0.009 0.085
0.035 -0.011 0.087
0.045 -0.007 0.087
0.047 -0.005 0.089
0.051 -0.009 0.083
0.053 -0.007 0.085
0.051 -0.007 0.087
0.051 -0.005 0.087
-0.007 -0.019 0.063
-0.007 -0.019 0.069
0.001 -0.021 0.067
-0.001 -0.019 0.079
0.005 -0.021 0.071
0.013 -0.021 0.081
0.017 -0.021 0.081
-0.031 -0.013 0.059
-0.029 -0.015 0.067
-0.015 -0.025 0.087
-0.017 -0.017 0.079
-0.019 -0.009 0.061
-0.023 -0.009 0.063
-0.015 -0.011 0.065
-0.013 -0.015 0.085
-0.011 -0.013 0.081
-0.011 -0.015 0.087
-0.007 -0.013 0.085
-0.003 -0.013 0.089
-0.007 -0.011 0.085
-0.021 -0.023 0.093
-0.021 -0.025 0.097
-0.019 -0.025 0.097
-0.021 -0.025 0.099
-0.013 -0.025 0.101
-0.013 -0.025 0.101
-0.015 -0.021 0.097
-0.013 -0.015 0.091
0.003 -0.021 0.077
0.003 -0.021 0.079
-0.001 -0.019 0.081
0.007 -0.021 0.079
0.005 -0.019 0.087
0.003 -0.019 0.085
0.009 -0.019 0.071
0.009 -0.019 0.073
0.011 -0.021 0.077
0.013 -0.021 0.079
0.015 -0.021 0.079
0.017 -0.021 0.085
0.017 -0.021 0.083
0.019 -0.021 0.087
0.009 -0.021 0.085
0.009 -0.021 0.075
0.001 -0.017 0.087
-0.001 -0.015 0.087
0.003 -0.017 0.087
-0.011 -0.013 0.081
-0.013 -0.011 0.083
-0.015 -0.007 0.077
-0.013 -0.015 0.083
-0.013 -0.015 0.081
-0.013 -0.015 0.089
-0.013 -0.015 0.087
0.005 -0.019 0.087
0.009 -0.021 0.085
0.009 -0.019 0.087
0.009 -0.019 0.087
0.011 -0.021 0.087
0.003 -0.019 0.085
0.003 -0.019 0.085
0.011 -0.019 0.089
0.015 -0.021 0.087
-0.015 -0.015 0.095
-0.015 -0.015 0.095
-0.017 -0.019 0.099
-0.049 -0.007 0.099
-0.037 -0.015 0.103
-0.033 -0.013 0.105
-0.033 -0.011 0.105
-0.041 -0.005 0.105
-0.051 -0.005 0.101
-0.047 -0.001 0.105
-0.041 -0.011 0.103
-0.045 -0.003 0.103
-0.037 -0.009 0.105
-0.031 -0.011 0.105
-0.033 -0.009 0.105
-0.023 -0.013 0.109
-0.019 -0.013 0.113
-0.017 -0.013 0.109
-0.023 -0.013 0.113
-0.021 -0.013 0.113
-0.033 -0.009 0.105
-0.033 -0.007 0.105
-0.037 -0.003 0.105
-0.021 -0.013 0.111
-0.019 -0.013 0.113
-0.013 -0.015 0.095
-0.013 -0.015 0.095
-0.013 -0.015 0.095
-0.013 -0.013 0.097
-0.013 -0.017 0.109
-0.011 -0.017 0.111
-0.017 -0.015 0.109
-0.009 -0.017 0.111
-0.011 -0.015 0.111
-0.011 -0.015 0.111
-0.013 -0.005 0.103
-0.045 -0.003 0.103
-0.047 -0.001 0.105
-0.045 0.001 0.103
-0.051 -0.003 0.105
-0.049 0.005 0.105
-0.037 -0.005 0.105
-0.041 -0.005 0.105
-0.035 -0.003 0.105
-0.035 -0.003 0.105
-0.035 -0.001 0.105
-0.031 0.001 0.105
-0.019 -0.011 0.115
-0.025 -0.001 0.105
-0.021 -0.003 0.107
0.033 -0.003 0.043
0.033 -0.001 0.045
0.037 -0.001 0.043
0.021 -0.019 0.065
0.023 -0.019 0.073
0.021 -0.019 0.071
0.031 -0.019 0.069
0.031 -0.019 0.069
0.027 -0.021 0.075
0.027 -0.019 0.077
0.027 -0.019 0.083
0.031 -0.019 0.081
0.033 -0.017 0.081
0.033 -0.017 0.081
0.025 -0.021 0.079
0.029 -0.019 0.083
0.031 -0.017 0.083
0.031 -0.005 0.043
0.035 -0.001 0.043
0.037 -0.015 0.071
0.037 -0.015 0.071
0.037 -0.011 0.065
0.039 -0.011 0.071
0.037 -0.013 0.077
0.037 -0.015 0.073
0.041 -0.011 0.075
0.043 -0.011 0.079
0.027 -0.019 0.081
0.029 -0.019 0.081
0.027 -0.019 0.085
0.031 -0.015 0.087
0.033 -0.015 0.085
0.035 -0.015 0.081
0.035 -0.013 0.085
0.033 -0.015 0.085
0.041 -0.009 0.085
0.035 -0.013 0.087
0.035 -0.011 0.085
0.035 -0.009 0.085
0.033 -0.003 0.079
0.041 -0.009 0.085
0.041 -0.007 0.087
0.043 -0.003 0.041
0.043 -0.003 0.041
0.045 0.001 0.041
0.047 -0.001 0.047
0.045 -0.009 0.067
0.047 -0.007 0.065
0.049 -0.003 0.059
0.047 -0.011 0.075
0.049 -0.003 0.059
0.047 0.001 0.045
0.049 0.001 0.059
0.049 0.005 0.055
0.049 0.005 0.051
0.043 -0.011 0.069
0.043 -0.013 0.075
0.045 -0.011 0.077
0.047 -0.011 0.075
0.047 -0.007 0.065
0.047 -0.011 0.081
0.047 -0.011 0.079
0.051 -0.009 0.083
0.049 0.001 0.061
0.049 -0.009 0.083
