-0.049 -0.011 0.049
-0.053 -0.017 0.035
-0.039 -0.021 0.047
-0.051 -0.011 0.035
-0.051 -0.005 0.047
-0.047 -0.009 0.037
-0.045 -0.015 0.051
-0.035 -0.019 0.053
-0.049 -0.003 0.061
-0.045 -0.015 0.051
-0.035 -0.019 0.053
-0.017 -0.019 0.051
-0.015 -0.019 0.053
-0.047 -0.007 0.065
-0.033 -0.013 0.057
-0.025 -0.017 0.049
-0.041 -0.009 0.073
-0.047 -0.011 0.095
-0.013 -0.019 0.055
-0.033 -0.015 0.075
-0.033 -0.015 0.071
-0.033 -0.015 0.073
-0.039 -0.011 0.073
-0.043 -0.011 0.083
-0.039 -0.013 0.087
-0.055 -0.003 0.089
-0.055 -0.003 0.089
-0.049 -0.011 0.095
-0.045 -0.009 0.083
-0.047 -0.007 0.099
-0.039 -0.015 0.095
-0.039 -0.015 0.095
-0.029 -0.019 0.091
-0.003 -0.021 0.067
-0.033 -0.015 0.073
-0.033 -0.015 0.075
-0.033 -0.015 0.075
-0.041 -0.013 0.085
-0.041 -0.015 0.093
-0.053 -0.005 0.101
-0.049 -0.007 0.099
-0.043 -0.007 0.103
-0.037 -0.011 0.105
-0.033 -0.017 0.089
-0.023 -0.023 0.091
-0.023 -0.023 0.095
-0.045 -0.009 0.097
-0.043 -0.007 0.103
-0.035 -0.005 0.105
-0.059 -0.003 0.103
-0.051 -0.001 0.107
-0.025 -0.023 0.097
-0.019 -0.023 0.103
-0.025 -0.013 0.107
-0.029 -0.001 0.105
-0.027 -0.013 0.107
-0.033 -0.011 0.105
-0.003 -0.021 0.067
0.015 -0.025 0.041
-0.003 -0.021 0.069
0.015 -0.025 0.045
-0.021 -0.025 0.099
-0.033 -0.019 0.101
-0.033 -0.017 0.103
-0.031 -0.019 0.103
-0.029 -0.013 0.105
-0.029 -0.009 0.105
-0.029 -0.013 0.105
-0.029 -0.019 0.105
-0.029 -0.017 0.105
-0.031 -0.011 0.105
-0.029 -0.013 0.105
-0.021 -0.011 0.115
0.015 -0.007 0.091
0.003 -0.019 0.085
0.007 -0.021 0.085
0.005 -0.019 0.087
-0.031 -0.007 0.105
0.001 -0.017 0.087
-0.027 -0.011 0.109
-0.025 -0.007 0.107
-0.025 -0.011 0.113
-0.011 -0.007 0.101
-0.009 -0.007 0.103
-0.019 -0.015 0.105
0.009 -0.021 0.085
-0.015 -0.017 0.107
-0.023 -0.009 0.111
-0.009 -0.007 0.103
-0.019 -0.015 0.109
-0.017 -0.015 0.109
-0.007 -0.015 0.111
-0.007 -0.019 0.111
-0.005 -0.015 0.113
0.025 -0.013 0.093
0.013 -0.011 0.095
0.029 -0.013 0.091
0.027 -0.011 0.093
0.045 -0.007 0.087
0.047 -0.003 0.087
-0.057 -0.003 0.087
-0.051 -0.001 0.045
-0.037 0.015 0.043
-0.051 0.003 0.051
-0.047 0.007 0.055
-0.059 0.001 0.089
-0.061 0.003 0.087
-0.061 0.003 0.085
-0.061 0.003 0.091
-0.061 0.003 0.091
-0.051 -0.005 0.089
-0.053 -0.005 0.087
-0.059 -0.005 0.101
-0.035 0.017 0.043
-0.053 -0.005 0.087
-0.059 -0.003 0.099
-0.061 0.003 0.087
-0.061 0.005 0.087
-0.059 -0.003 0.099
-0.053 -0.005 0.101
-0.057 -0.001 0.089
-0.061 0.003 0.091
-0.059 0.005 0.093
-0.061 0.007 0.093
-0.057 -0.001 0.105
-0.055 0.001 0.105
-0.057 0.001 0.105
-0.055 0.003 0.105
-0.051 0.009 0.089
-0.057 -0.005 0.103
-0.039 0.001 0.105
-0.055 0.001 0.105
-0.057 0.001 0.105
-0.043 -0.007 0.103
-0.043 -0.005 0.103
-0.055 -0.005 0.101
-0.041 -0.007 0.105
-0.041 -0.003 0.105
-0.039 -0.005 0.105
-0.041 -0.001 0.103
-0.041 -0.001 0.105
-0.035 -0.003 0.105
-0.035 0.001 0.105
-0.039 -0.007 0.105
-0.033 -0.001 0.105
-0.023 -0.003 0.105
0.021 0.011 0.063
-0.035 -0.001 0.105
-0.029 -0.003 0.105
-0.031 0.001 0.105
-0.029 -0.001 0.105
-0.025 0.001 0.105
-0.021 -0.003 0.107
-0.025 0.001 0.105
-0.023 -0.001 0.107
0.043 0.007 0.061
0.015 -0.003 0.089
0.011 -0.005 0.091
-0.007 0.011 0.041
-0.013 0.011 0.041
-0.019 0.015 0.039
-0.035 0.015 0.045
-0.021 0.013 0.045
-0.027 0.013 0.051
-0.043 0.009 0.051
-0.029 0.019 0.041
-0.033 0.013 0.047
-0.043 0.005 0.063
-0.037 0.007 0.059
-0.043 0.005 0.065
-0.015 0.013 0.041
-0.019 0.005 0.053
-0.005 0.003 0.049
-0.015 0.015 0.039
-0.015 0.015 0.039
-0.003 0.001 0.045
-0.013 0.003 0.055
-0.019 0.003 0.055
-0.021 0.003 0.055
-0.027 -0.003 0.059
-0.023 -0.007 0.061
-0.025 -0.005 0.059
-0.001 0.001 0.049
-0.011 0.001 0.063
-0.035 0.001 0.075
-0.029 0.005 0.097
-0.047 0.009 0.087
-0.041 0.009 0.097
-0.043 0.009 0.095
-0.043 0.009 0.095
-0.041 0.009 0.083
-0.041 0.009 0.083
-0.043 0.009 0.083
-0.017 -0.003 0.079
-0.005 -0.001 0.071
0.001 0.001 0.069
0.005 -0.001 0.077
-0.001 -0.001 0.079
-0.025 0.001 0.067
-0.025 -0.001 0.081
-0.019 -0.003 0.077
-0.005 0.001 0.069
-0.013 -0.007 0.069
-0.013 -0.003 0.065
-0.007 -0.001 0.073
-0.003 -0.001 0.077
-0.019 -0.001 0.087
-0.019 -0.001 0.089
-0.015 -0.005 0.083
-0.011 -0.003 0.095
-0.009 -0.003 0.097
-0.023 0.001 0.085
-0.025 0.003 0.085
-0.017 -0.001 0.091
-0.015 -0.009 0.081
-0.003 -0.005 0.083
0.001 -0.007 0.087
-0.003 -0.009 0.085
-0.011 -0.003 0.093
-0.053 0.009 0.103
-0.047 0.003 0.105
-0.029 0.003 0.101
-0.029 0.003 0.101
-0.039 0.001 0.103
-0.019 -0.001 0.099
-0.021 0.001 0.105
-0.013 -0.003 0.103
-0.011 -0.013 0.107
-0.009 -0.013 0.107
-0.015 -0.003 0.103
-0.021 -0.003 0.107
-0.017 -0.003 0.105
-0.007 -0.005 0.097
0.017 0.015 0.035
0.029 0.011 0.045
0.035 0.013 0.049
0.029 0.001 0.047
0.033 0.007 0.049
0.035 0.009 0.051
0.029 -0.007 0.051
0.017 0.013 0.037
0.015 0.007 0.051
0.035 0.015 0.041
0.035 0.013 0.047
0.035 0.013 0.047
0.005 -0.003 0.061
0.027 -0.001 0.061
0.025 -0.001 0.063
0.009 -0.005 0.051
0.005 -0.005 0.057
0.003 -0.005 0.055
0.001 0.001 0.063
0.035 -0.005 0.065
0.035 -0.005 0.061
0.037 -0.001 0.059
0.037 -0.003 0.063
0.011 -0.003 0.075
0.013 -0.001 0.083
0.027 -0.001 0.075
0.031 -0.001 0.075
0.035 -0.005 0.079
0.033 -0.005 0.081
0.009 -0.005 0.069
0.011 -0.007 0.071
0.007 -0.005 0.067
0.005 -0.003 0.065
0.009 -0.005 0.069
0.013 -0.001 0.083
0.017 -0.003 0.087
0.009 -0.005 0.089
0.003 -0.003 0.085
0.009 -0.003 0.087
0.003 -0.003 0.085
0.011 -0.001 0.083
0.003 -0.011 0.091
0.013 -0.005 0.091
0.029 -0.005 0.087
0.019 -0.005 0.091
0.047 -0.005 0.077
0.035 -0.009 0.083
0.043 -0.005 0.085
0.047 -0.003 0.085
-0.031 0.021 0.037
-0.007 0.015 0.033
-0.035 0.023 0.043
-0.035 0.023 0.037
-0.031 0.021 0.045
-0.033 0.023 0.043
-0.039 0.009 0.055
-0.025 0.019 0.037
-0.005 0.013 0.037
-0.025 0.021 0.035
-0.027 0.009 0.055
-0.011 0.003 0.055
-0.003 0.003 0.053
-0.003 0.001 0.055
-0.011 0.001 0.061
-0.041 0.003 0.069
-0.033 0.001 0.075
-0.051 0.013 0.085
-0.057 0.007 0.091
-0.043 0.009 0.083
-0.039 0.007 0.085
-0.033 0.007 0.085
-0.037 0.005 0.089
-0.003 0.001 0.067
-0.001 0.001 0.067
-0.045 0.009 0.099
-0.051 0.009 0.103
-0.045 0.009 0.099
0.019 0.013 0.037
0.019 0.015 0.041
0.021 0.015 0.035
0.021 0.013 0.039
0.033 0.015 0.035
0.019 0.017 0.045
0.011 0.005 0.049
0.023 0.019 0.055
0.043 0.013 0.039
0.037 0.013 0.033
0.037 0.013 0.033
0.045 0.011 0.041
0.047 0.009 0.041
0.039 0.009 0.055
0.039 0.013 0.049
0.041 0.011 0.055
0.043 0.005 0.063
0.049 0.005 0.051
0.021 0.003 0.073
-0.035 -0.011 0.031
-0.025 -0.023 0.031
-0.015 -0.013 0.031
-0.033 -0.021 0.047
-0.045 -0.023 0.035
-0.033 -0.021 0.035
-0.029 -0.023 0.033
-0.041 -0.019 0.035
-0.041 -0.019 0.041
-0.045 -0.011 0.061
-0.035 -0.015 0.055
-0.039 -0.013 0.059
-0.029 -0.023 0.033
-0.023 -0.019 0.043
-0.017 -0.023 0.043
-0.019 -0.017 0.049
-0.015 -0.017 0.057
-0.037 -0.013 0.073
-0.031 -0.015 0.075
-0.033 -0.013 0.079
-0.051 -0.007 0.083
-0.047 -0.007 0.081
-0.049 -0.011 0.095
-0.031 -0.017 0.087
-0.041 -0.013 0.085
-0.037 -0.015 0.089
-0.031 -0.017 0.089
-0.035 -0.015 0.087
-0.037 -0.013 0.091
-0.033 -0.017 0.093
-0.041 -0.015 0.093
-0.035 -0.017 0.093
-0.023 -0.017 0.075
-0.009 -0.019 0.067
-0.009 -0.019 0.067
-0.001 -0.021 0.075
-0.003 -0.019 0.073
-0.003 -0.019 0.079
-0.027 -0.013 0.065
-0.019 -0.015 0.075
-0.017 -0.013 0.073
-0.011 -0.017 0.065
-0.011 -0.013 0.071
-0.013 -0.013 0.077
-0.005 -0.017 0.077
-0.007 -0.015 0.077
-0.017 -0.025 0.087
-0.021 -0.023 0.093
-0.013 -0.027 0.095
-0.015 -0.015 0.083
-0.019 -0.017 0.081
-0.013 -0.015 0.083
-0.013 -0.015 0.081
-0.015 -0.015 0.085
-0.013 -0.015 0.087
-0.007 -0.007 0.087
0.003 -0.021 0.079
-0.013 -0.015 0.093
-0.013 -0.015 0.091
-0.011 -0.015 0.093
-0.031 -0.019 0.101
-0.037 -0.015 0.103
-0.027 -0.021 0.099
-0.019 -0.025 0.099
-0.027 -0.021 0.105
-0.023 -0.023 0.101
-0.013 -0.027 0.095
-0.019 -0.025 0.101
-0.013 -0.025 0.097
-0.023 -0.021 0.107
-0.023 -0.021 0.107
-0.015 -0.025 0.103
-0.023 -0.021 0.103
-0.007 -0.015 0.107
-0.009 -0.017 0.107
-0.007 -0.019 0.109
-0.007 -0.019 0.111
0.011 -0.023 0.041
0.013 -0.023 0.043
0.021 -0.021 0.045
0.027 -0.021 0.043
0.013 -0.023 0.043
0.025 -0.025 0.039
0.015 -0.019 0.059
0.015 -0.019 0.059
0.021 -0.021 0.061
0.027 -0.019 0.061
0.001 -0.013 0.049
0.003 -0.013 0.053
0.011 -0.019 0.053
0.027 -0.015 0.053
0.031 -0.007 0.053
0.029 -0.017 0.059
0.039 -0.009 0.037
0.039 -0.005 0.041
0.043 -0.007 0.061
0.047 -0.005 0.063
0.003 -0.021 0.071
0.031 -0.019 0.079
0.009 -0.017 0.069
0.017 -0.017 0.075
0.019 -0.019 0.065
0.015 -0.019 0.089
0.027 -0.019 0.085
0.019 -0.017 0.091
0.015 -0.019 0.089
0.015 -0.015 0.093
0.011 -0.017 0.091
0.011 -0.019 0.089
0.019 -0.017 0.091
0.017 -0.013 0.095
0.021 -0.017 0.091
0.021 -0.021 0.087
0.035 -0.017 0.075
0.035 -0.017 0.071
0.041 -0.011 0.069
0.051 -0.009 0.079
0.053 -0.009 0.079
0.033 -0.015 0.083
0.043 -0.011 0.081
-0.015 -0.023 0.033
-0.039 -0.019 0.037
-0.039 -0.019 0.041
-0.025 -0.023 0.035
-0.025 -0.017 0.045
-0.043 -0.015 0.055
-0.043 -0.013 0.057
-0.039 -0.019 0.053
-0.039 -0.015 0.057
-0.039 -0.013 0.063
-0.033 -0.013 0.063
-0.017 -0.023 0.041
-0.017 -0.023 0.041
-0.017 -0.019 0.047
-0.007 -0.009 0.035
-0.003 -0.007 0.041
-0.003 -0.003 0.041
-0.021 -0.017 0.047
-0.023 -0.015 0.051
-0.015 -0.021 0.049
-0.025 -0.009 0.059
0.001 -0.019 0.063
-0.033 -0.013 0.065
-0.033 -0.015 0.069
-0.029 -0.015 0.073
-0.059 -0.003 0.083
-0.053 -0.005 0.085
-0.051 -0.007 0.083
-0.057 0.005 0.093
-0.031 -0.017 0.083
-0.025 -0.013 0.065
-0.023 -0.015 0.069
-0.001 -0.021 0.065
-0.017 -0.025 0.093
-0.051 -0.003 0.103
-0.031 -0.019 0.095
-0.031 -0.019 0.097
-0.017 -0.015 0.099
0.029 -0.015 0.033
0.005 0.001 0.033
0.017 -0.027 0.041
0.021 -0.027 0.039
0.005 0.001 0.033
0.019 -0.029 0.035
0.019 -0.029 0.037
0.029 -0.019 0.037
0.033 -0.017 0.035
0.029 -0.019 0.041
0.031 -0.011 0.045
0.023 -0.021 0.045
0.019 -0.021 0.051
0.025 -0.019 0.057
0.025 -0.021 0.059
0.027 -0.019 0.061
0.041 -0.009 0.035
0.041 -0.007 0.037
0.039 -0.005 0.043
0.037 0.001 0.051
0.039 0.001 0.051
0.037 0.001 0.051
0.041 -0.005 0.059
0.047 -0.003 0.057
0.049 -0.003 0.057
