-0.045 0.003 0.035
-0.049 -0.003 0.039
-0.049 0.003 0.039
-0.047 0.005 0.039
-0.045 0.007 0.037
-0.045 0.007 0.039
-0.039 0.015 0.039
-0.039 0.015 0.039
-0.039 0.017 0.039
-0.051 -0.017 0.039
-0.049 -0.017 0.041
-0.053 -0.015 0.037
-0.049 -0.015 0.041
-0.043 -0.017 0.047
-0.049 -0.011 0.049
-0.043 -0.017 0.049
-0.051 -0.007 0.051
-0.049 -0.013 0.039
-0.051 -0.011 0.037
-0.049 -0.001 0.037
-0.047 0.001 0.037
-0.047 -0.003 0.035
-0.047 -0.011 0.043
-0.051 -0.007 0.053
-0.049 -0.009 0.055
-0.051 -0.007 0.049
-0.051 -0.003 0.055
-0.049 -0.007 0.059
-0.049 -0.001 0.059
-0.049 -0.011 0.051
-0.047 -0.011 0.055
-0.049 -0.007 0.057
-0.051 -0.005 0.057
-0.049 -0.005 0.059
-0.049 -0.007 0.059
-0.049 -0.005 0.059
-0.051 -0.001 0.043
-0.049 -0.003 0.039
-0.051 0.001 0.043
-0.051 0.003 0.045
-0.051 -0.001 0.045
-0.051 0.001 0.047
-0.051 -0.003 0.049
-0.051 -0.003 0.051
-0.051 0.003 0.053
-0.049 0.005 0.045
-0.049 0.007 0.049
-0.047 0.007 0.053
-0.043 0.009 0.055
-0.049 0.005 0.041
-0.045 0.007 0.039
-0.047 0.007 0.045
-0.041 0.011 0.041
-0.039 0.013 0.045
-0.043 0.009 0.049
-0.041 0.011 0.045
-0.039 0.015 0.041
-0.037 0.013 0.045
-0.035 0.011 0.047
-0.041 0.009 0.049
-0.031 0.015 0.047
-0.029 0.011 0.053
-0.045 0.007 0.057
-0.045 0.005 0.063
-0.043 0.007 0.061
-0.041 0.005 0.067
-0.041 0.005 0.067
-0.041 0.005 0.067
-0.039 0.003 0.069
-0.049 0.003 0.055
-0.047 0.005 0.057
-0.047 0.005 0.059
-0.041 0.007 0.059
-0.047 0.001 0.065
-0.043 0.003 0.067
-0.045 0.005 0.063
-0.041 0.005 0.063
-0.039 0.005 0.065
-0.035 0.007 0.061
-0.039 0.005 0.067
-0.045 -0.009 0.067
-0.043 -0.007 0.071
-0.041 -0.009 0.073
-0.043 -0.003 0.071
-0.041 -0.009 0.073
-0.037 -0.011 0.075
-0.039 -0.009 0.075
-0.035 -0.007 0.079
-0.061 0.001 0.083
-0.061 0.001 0.085
-0.061 0.003 0.085
-0.061 0.001 0.083
-0.061 0.001 0.083
-0.061 0.003 0.087
-0.059 0.001 0.089
-0.051 -0.007 0.093
-0.061 0.003 0.085
-0.061 0.005 0.087
-0.061 0.005 0.087
-0.059 0.003 0.089
-0.059 0.005 0.089
-0.057 0.009 0.085
-0.059 0.003 0.089
-0.057 0.011 0.085
-0.057 0.011 0.087
-0.055 -0.005 0.095
-0.059 0.007 0.091
-0.047 0.003 0.097
-0.049 0.009 0.097
-0.033 -0.001 0.077
-0.031 0.001 0.077
-0.051 0.013 0.083
-0.043 0.001 0.069
-0.043 -0.001 0.071
-0.037 0.005 0.067
-0.031 0.003 0.073
-0.037 -0.009 0.077
-0.053 0.005 0.083
-0.035 -0.003 0.077
-0.057 0.013 0.085
-0.031 0.001 0.077
-0.029 0.001 0.077
-0.025 0.001 0.077
-0.033 0.003 0.073
-0.011 -0.001 0.065
-0.011 -0.003 0.069
-0.047 0.011 0.081
-0.027 0.001 0.075
-0.029 0.001 0.077
-0.023 0.001 0.077
-0.009 -0.005 0.075
-0.007 -0.001 0.073
-0.059 0.007 0.091
-0.049 -0.003 0.093
-0.055 -0.001 0.097
-0.041 -0.007 0.093
-0.045 -0.003 0.095
-0.053 0.007 0.099
-0.051 0.013 0.085
-0.055 0.011 0.089
-0.051 0.013 0.085
-0.039 0.007 0.087
-0.029 0.003 0.089
-0.027 0.003 0.089
-0.025 0.003 0.089
-0.025 0.003 0.089
-0.003 -0.005 0.081
-0.047 0.007 0.095
-0.035 0.003 0.091
-0.041 0.009 0.097
-0.023 0.001 0.095
-0.029 0.005 0.097
-0.021 0.001 0.095
-0.059 -0.003 0.099
-0.055 -0.001 0.097
-0.057 -0.001 0.099
-0.059 -0.001 0.101
-0.057 -0.001 0.099
-0.055 0.001 0.101
-0.057 -0.001 0.101
-0.059 -0.001 0.103
-0.057 0.001 0.105
-0.051 -0.001 0.097
-0.047 0.001 0.097
-0.053 0.005 0.099
-0.051 0.001 0.107
-0.053 0.003 0.105
-0.039 0.001 0.105
-0.057 -0.001 0.099
-0.055 0.001 0.099
-0.055 0.001 0.099
-0.053 0.007 0.101
-0.051 0.003 0.107
-0.055 0.005 0.105
-0.055 0.007 0.105
-0.025 -0.009 0.109
-0.053 0.009 0.105
-0.035 0.001 0.105
-0.033 0.003 0.103
-0.027 0.003 0.099
-0.051 0.003 0.107
-0.051 0.003 0.107
-0.049 0.003 0.107
-0.027 -0.009 0.107
-0.027 -0.011 0.109
-0.025 -0.009 0.109
-0.037 0.001 0.105
-0.021 0.001 0.107
-0.031 0.003 0.103
-0.027 0.001 0.103
-0.025 0.001 0.103
-0.019 -0.001 0.103
-0.015 -0.001 0.103
-0.013 -0.011 0.107
-0.017 -0.011 0.109
-0.017 -0.011 0.109
-0.009 -0.013 0.111
-0.023 -0.013 0.115
-0.021 -0.011 0.115
-0.015 0.015 0.039
0.005 0.009 0.039
0.007 0.009 0.039
0.013 0.013 0.037
-0.033 0.011 0.051
-0.031 0.013 0.051
-0.033 0.011 0.051
-0.031 0.009 0.057
-0.037 0.011 0.049
-0.037 0.011 0.051
-0.017 0.011 0.047
-0.035 0.011 0.053
-0.013 0.003 0.055
-0.009 0.005 0.055
-0.033 0.013 0.047
-0.031 0.013 0.049
-0.009 0.013 0.041
-0.023 0.017 0.045
-0.031 0.013 0.051
-0.029 0.011 0.053
-0.031 0.011 0.055
0.009 -0.001 0.047
-0.023 0.013 0.049
0.003 0.007 0.039
0.011 0.003 0.049
0.011 0.005 0.047
0.013 0.009 0.047
0.011 0.005 0.049
0.015 0.009 0.049
-0.017 0.001 0.057
-0.015 -0.001 0.059
-0.031 0.005 0.063
-0.017 0.001 0.057
-0.007 0.003 0.059
-0.003 0.001 0.061
-0.009 -0.001 0.065
-0.007 0.001 0.067
-0.033 0.007 0.059
-0.015 0.001 0.057
-0.011 0.003 0.057
-0.011 0.005 0.053
-0.009 0.005 0.055
0.011 -0.003 0.049
0.011 0.001 0.049
-0.013 -0.001 0.061
-0.013 0.001 0.061
-0.013 -0.003 0.065
-0.011 -0.001 0.065
-0.009 -0.001 0.067
-0.011 0.001 0.063
-0.005 0.001 0.061
0.013 -0.003 0.053
0.011 -0.005 0.055
0.015 -0.003 0.055
0.017 -0.003 0.057
0.019 -0.001 0.057
0.013 -0.005 0.059
0.017 -0.003 0.059
0.023 -0.001 0.059
0.023 -0.001 0.061
0.025 -0.001 0.061
0.025 -0.001 0.061
-0.007 0.009 0.045
-0.007 0.009 0.045
0.013 0.009 0.045
0.013 0.009 0.043
0.017 0.013 0.041
0.017 0.013 0.045
0.013 0.009 0.047
0.019 0.013 0.049
0.019 0.013 0.049
0.019 0.013 0.057
0.019 0.013 0.059
0.021 0.013 0.059
0.021 0.005 0.067
0.021 0.003 0.065
0.019 0.011 0.061
0.019 0.005 0.065
0.025 0.011 0.065
0.025 0.011 0.065
-0.041 0.009 0.085
-0.033 0.007 0.085
-0.033 0.007 0.085
-0.007 -0.007 0.079
-0.005 -0.001 0.073
0.001 -0.001 0.075
-0.003 -0.001 0.077
-0.003 -0.003 0.081
-0.003 -0.005 0.083
-0.003 -0.001 0.077
0.001 -0.001 0.079
-0.001 -0.003 0.083
-0.007 -0.001 0.069
-0.007 -0.001 0.071
-0.003 0.001 0.071
-0.001 0.001 0.071
0.001 -0.001 0.073
0.001 -0.001 0.075
0.003 -0.001 0.075
0.001 -0.001 0.077
-0.003 0.001 0.071
-0.003 -0.001 0.077
0.017 -0.001 0.079
0.021 -0.001 0.077
0.015 -0.001 0.079
0.025 -0.001 0.075
0.025 -0.001 0.079
-0.035 0.007 0.087
-0.025 0.003 0.089
-0.013 -0.001 0.093
-0.009 -0.003 0.089
0.001 -0.005 0.085
0.005 -0.003 0.085
0.005 -0.005 0.089
0.001 -0.001 0.081
0.009 -0.007 0.091
0.003 -0.007 0.089
0.005 -0.005 0.089
0.009 -0.005 0.089
0.015 -0.001 0.085
0.023 -0.001 0.083
0.019 -0.003 0.089
0.011 -0.009 0.091
0.013 -0.011 0.093
0.011 -0.005 0.091
0.013 -0.003 0.089
0.003 -0.001 0.073
0.005 -0.001 0.083
0.021 -0.001 0.071
0.025 -0.001 0.073
0.023 -0.001 0.069
0.023 -0.001 0.071
0.021 0.007 0.069
0.011 -0.001 0.079
0.021 -0.001 0.075
0.021 -0.001 0.077
0.013 -0.001 0.081
0.023 -0.001 0.075
0.025 -0.001 0.075
0.027 -0.001 0.077
0.025 -0.001 0.081
0.029 -0.001 0.077
0.041 -0.005 0.077
0.041 -0.005 0.079
0.051 -0.005 0.075
0.047 -0.005 0.077
0.055 -0.005 0.079
0.011 -0.001 0.085
0.041 -0.007 0.085
0.041 -0.005 0.083
0.041 -0.005 0.087
0.041 -0.005 0.087
0.045 -0.003 0.083
0.045 -0.003 0.085
0.049 -0.003 0.085
-0.037 0.007 0.033
-0.039 0.011 0.035
-0.037 0.007 0.033
-0.037 0.021 0.033
-0.037 0.021 0.037
-0.033 0.023 0.037
-0.011 0.015 0.031
-0.037 0.021 0.033
-0.049 0.003 0.039
-0.049 0.003 0.039
-0.047 0.005 0.039
-0.041 0.007 0.035
-0.039 0.015 0.033
-0.039 0.015 0.033
-0.039 0.015 0.037
-0.047 0.007 0.043
-0.037 0.017 0.043
-0.037 0.019 0.033
-0.037 0.021 0.035
-0.039 0.017 0.037
-0.037 0.021 0.037
-0.037 0.023 0.041
-0.037 0.023 0.039
-0.049 0.001 0.057
-0.047 0.007 0.051
-0.045 0.007 0.055
-0.045 0.009 0.051
-0.045 0.005 0.063
-0.035 0.009 0.057
-0.039 0.013 0.037
-0.037 0.021 0.041
-0.037 0.025 0.041
-0.031 0.013 0.049
-0.027 0.013 0.049
-0.033 0.017 0.045
-0.031 0.015 0.047
-0.033 0.021 0.045
-0.039 0.019 0.041
-0.039 0.019 0.041
-0.037 0.021 0.041
-0.037 0.025 0.041
-0.037 0.023 0.043
-0.025 0.019 0.039
-0.033 0.021 0.045
-0.011 0.009 0.045
-0.009 0.013 0.041
-0.035 0.021 0.035
-0.035 0.023 0.039
-0.033 0.019 0.045
-0.029 0.011 0.053
-0.027 0.011 0.053
-0.037 0.009 0.057
-0.031 0.013 0.051
-0.031 0.009 0.057
-0.023 0.011 0.051
-0.017 0.005 0.053
-0.019 0.003 0.055
-0.009 0.005 0.055
-0.009 0.005 0.055
-0.015 0.001 0.057
-0.013 0.001 0.061
-0.009 0.001 0.059
-0.007 0.003 0.059
-0.047 0.001 0.065
-0.045 0.003 0.067
-0.041 0.003 0.069
-0.041 0.005 0.065
-0.039 0.005 0.067
-0.037 0.005 0.065
-0.035 0.005 0.065
-0.061 0.005 0.085
-0.057 0.013 0.085
-0.051 0.013 0.083
-0.057 0.011 0.087
-0.061 0.007 0.091
-0.059 0.007 0.091
-0.055 0.007 0.091
-0.057 0.011 0.085
-0.055 0.013 0.087
-0.037 0.007 0.087
-0.039 0.005 0.089
-0.047 0.007 0.095
-0.043 0.009 0.095
-0.031 0.003 0.073
-0.005 0.001 0.067
-0.045 0.009 0.087
-0.039 0.007 0.087
-0.031 0.005 0.095
-0.029 0.005 0.097
-0.057 0.001 0.103
-0.053 0.007 0.099
-0.053 0.009 0.103
-0.051 0.009 0.101
-0.053 0.009 0.103
-0.055 0.007 0.105
-0.051 0.009 0.101
-0.037 0.003 0.103
-0.035 0.003 0.103
-0.031 0.005 0.097
-0.029 0.003 0.099
0.005 0.015 0.035
0.017 0.013 0.033
0.017 0.015 0.035
-0.009 0.015 0.037
-0.009 0.013 0.041
0.005 0.009 0.039
0.003 0.007 0.039
0.007 0.007 0.039
0.003 0.013 0.035
0.005 0.015 0.037
0.005 0.013 0.039
0.009 0.003 0.043
0.013 0.007 0.047
0.015 0.009 0.041
0.011 0.013 0.037
0.015 0.013 0.037
0.015 0.009 0.039
0.005 0.015 0.037
0.009 0.015 0.035
0.015 0.013 0.035
0.017 0.013 0.041
0.017 0.013 0.041
0.013 0.009 0.047
0.019 0.015 0.049
0.021 0.017 0.047
0.015 0.009 0.051
0.019 0.015 0.049
0.019 0.011 0.055
0.019 0.013 0.053
0.021 0.015 0.053
0.021 0.019 0.051
0.021 0.015 0.057
0.019 0.009 0.057
0.021 0.013 0.061
0.023 0.017 0.059
0.021 0.019 0.051
0.017 0.013 0.037
0.019 0.017 0.043
0.031 0.015 0.039
0.031 0.013 0.035
0.031 0.015 0.039
0.037 0.015 0.039
0.019 0.013 0.051
0.021 0.017 0.049
0.021 0.017 0.049
0.037 0.013 0.047
0.039 0.015 0.047
0.039 0.015 0.045
0.019 0.013 0.053
0.023 0.015 0.059
0.021 0.019 0.051
0.021 0.013 0.061
0.023 0.015 0.061
0.041 0.003 0.065
0.043 0.011 0.055
0.043 0.007 0.061
0.021 0.003 0.069
0.041 0.003 0.065
