-0.041 -0.019 0.045
-0.045 -0.013 0.043
-0.043 -0.015 0.045
-0.043 -0.017 0.049
-0.043 -0.017 0.049
-0.027 -0.023 0.037
-0.023 -0.023 0.037
-0.039 -0.021 0.051
-0.025 -0.017 0.049
-0.049 -0.021 0.039
-0.045 -0.021 0.039
-0.039 -0.021 0.039
-0.035 -0.021 0.039
-0.039 -0.021 0.039
-0.041 -0.019 0.045
-0.041 -0.019 0.047
-0.041 -0.019 0.047
-0.041 -0.019 0.049
-0.039 -0.021 0.049
-0.051 -0.013 0.037
-0.051 -0.005 0.049
-0.047 -0.011 0.043
-0.039 -0.019 0.041
-0.041 -0.017 0.043
-0.045 -0.015 0.041
-0.045 -0.013 0.047
-0.043 -0.017 0.049
-0.045 -0.015 0.051
-0.041 -0.019 0.053
-0.035 -0.021 0.051
-0.037 -0.017 0.055
-0.051 -0.005 0.053
-0.049 -0.009 0.057
-0.049 -0.009 0.059
-0.043 -0.013 0.057
-0.033 -0.013 0.057
-0.041 -0.013 0.059
-0.041 -0.013 0.065
-0.033 -0.013 0.059
-0.017 -0.025 0.035
-0.021 -0.021 0.041
-0.029 -0.019 0.049
-0.019 -0.017 0.047
-0.017 -0.019 0.049
-0.019 -0.023 0.041
-0.019 -0.021 0.043
-0.015 -0.021 0.051
-0.019 -0.017 0.053
-0.013 -0.021 0.053
-0.009 -0.019 0.055
-0.011 -0.019 0.055
-0.009 -0.019 0.055
-0.007 -0.019 0.055
-0.007 -0.019 0.055
-0.013 -0.013 0.065
-0.021 -0.017 0.049
-0.015 -0.021 0.051
-0.015 -0.021 0.051
-0.013 -0.021 0.053
-0.013 -0.019 0.055
-0.009 -0.019 0.055
-0.009 -0.019 0.055
-0.007 -0.019 0.057
-0.015 -0.017 0.057
-0.003 -0.021 0.065
-0.023 -0.009 0.055
-0.031 -0.015 0.069
-0.033 -0.015 0.073
-0.029 -0.015 0.073
-0.031 -0.013 0.061
-0.033 -0.015 0.071
-0.035 -0.013 0.075
-0.029 -0.015 0.069
-0.029 -0.015 0.075
-0.013 -0.013 0.067
-0.013 -0.015 0.065
-0.015 -0.011 0.063
-0.023 -0.017 0.077
-0.041 -0.013 0.067
-0.043 -0.009 0.069
-0.033 -0.015 0.069
-0.041 -0.009 0.073
-0.035 -0.013 0.077
-0.041 -0.007 0.073
-0.043 -0.011 0.083
-0.041 -0.015 0.093
-0.049 -0.007 0.085
-0.053 -0.005 0.087
-0.051 -0.005 0.089
-0.053 -0.009 0.097
-0.053 -0.003 0.089
-0.055 -0.007 0.099
-0.039 -0.013 0.083
-0.037 -0.015 0.089
-0.045 -0.013 0.093
-0.039 -0.015 0.097
-0.045 -0.011 0.097
-0.043 -0.013 0.093
-0.049 -0.011 0.095
-0.039 -0.015 0.095
-0.039 -0.015 0.097
-0.049 -0.007 0.099
-0.041 -0.013 0.103
-0.043 -0.011 0.103
-0.027 -0.017 0.081
-0.027 -0.019 0.083
-0.003 -0.021 0.069
-0.003 -0.019 0.079
-0.027 -0.017 0.079
-0.027 -0.019 0.083
-0.033 -0.013 0.077
-0.033 -0.015 0.083
-0.031 -0.015 0.079
-0.027 -0.021 0.093
-0.031 -0.019 0.095
-0.031 -0.017 0.093
-0.027 -0.021 0.093
-0.025 -0.021 0.091
-0.025 -0.023 0.097
-0.017 -0.025 0.087
-0.019 -0.023 0.089
-0.023 -0.021 0.089
-0.027 -0.021 0.095
-0.025 -0.023 0.097
-0.023 -0.023 0.099
-0.033 -0.017 0.093
-0.035 -0.015 0.091
-0.033 -0.017 0.089
-0.039 -0.015 0.097
-0.033 -0.019 0.101
-0.031 -0.015 0.103
-0.037 -0.011 0.105
-0.037 -0.011 0.105
-0.025 -0.023 0.097
-0.019 -0.025 0.101
-0.019 -0.025 0.101
-0.027 -0.021 0.107
-0.027 -0.023 0.107
-0.025 -0.023 0.109
-0.027 -0.021 0.107
-0.023 -0.023 0.101
-0.019 -0.021 0.101
-0.021 -0.015 0.107
-0.021 -0.013 0.109
-0.015 -0.017 0.107
-0.033 -0.019 0.101
-0.051 -0.009 0.097
-0.051 -0.005 0.101
-0.057 -0.005 0.103
-0.053 -0.005 0.101
-0.053 -0.003 0.103
-0.049 -0.003 0.103
-0.053 -0.001 0.105
-0.043 -0.011 0.103
-0.037 -0.015 0.103
-0.043 -0.009 0.099
-0.041 -0.007 0.105
-0.045 -0.001 0.103
-0.041 -0.001 0.105
-0.035 -0.007 0.105
-0.035 -0.005 0.105
-0.035 -0.003 0.105
-0.029 -0.021 0.099
-0.027 -0.021 0.103
-0.029 -0.019 0.105
-0.027 -0.023 0.107
-0.017 -0.025 0.103
-0.025 -0.023 0.109
-0.027 -0.023 0.107
-0.015 -0.025 0.103
-0.025 -0.023 0.109
-0.025 -0.013 0.109
-0.025 -0.011 0.111
-0.025 -0.013 0.111
-0.025 -0.003 0.105
-0.025 -0.011 0.113
-0.027 -0.013 0.107
-0.023 -0.015 0.107
-0.023 -0.013 0.113
-0.023 -0.013 0.115
-0.029 -0.007 0.105
-0.027 -0.011 0.109
-0.019 -0.001 0.109
-0.019 -0.019 0.101
-0.023 -0.015 0.107
-0.017 -0.015 0.109
-0.021 -0.013 0.113
-0.017 -0.015 0.109
-0.015 -0.015 0.109
-0.023 -0.011 0.113
-0.015 -0.017 0.109
-0.017 -0.015 0.109
-0.015 -0.017 0.109
-0.017 -0.015 0.109
-0.013 -0.017 0.109
-0.013 -0.015 0.111
-0.019 -0.011 0.115
0.015 -0.021 0.049
0.009 -0.017 0.049
-0.003 -0.019 0.059
0.015 -0.021 0.053
0.023 -0.021 0.049
0.031 -0.017 0.041
0.015 -0.021 0.053
0.019 -0.021 0.059
0.013 -0.027 0.039
0.013 -0.025 0.039
0.011 -0.023 0.043
0.009 -0.017 0.049
0.019 -0.029 0.035
0.015 -0.027 0.041
0.025 -0.021 0.043
0.023 -0.021 0.047
0.017 -0.025 0.045
0.021 -0.023 0.043
0.017 -0.023 0.045
0.025 -0.023 0.041
0.027 -0.021 0.043
0.009 -0.015 0.041
-0.003 -0.019 0.051
-0.007 -0.019 0.059
-0.001 -0.019 0.057
-0.005 -0.019 0.061
-0.009 -0.019 0.063
-0.005 -0.019 0.063
-0.003 -0.021 0.065
-0.007 -0.019 0.069
0.015 -0.021 0.051
0.017 -0.021 0.053
0.001 -0.021 0.067
0.011 -0.015 0.057
0.003 -0.021 0.069
0.019 -0.021 0.059
0.023 -0.021 0.057
0.019 -0.019 0.061
0.015 -0.017 0.061
0.013 -0.019 0.055
0.021 -0.021 0.053
0.019 -0.021 0.055
0.019 -0.019 0.065
-0.009 -0.019 0.065
-0.007 -0.019 0.067
-0.011 -0.013 0.071
-0.009 -0.015 0.073
-0.017 -0.025 0.089
-0.015 -0.025 0.089
-0.001 -0.019 0.079
0.019 -0.019 0.065
0.021 -0.019 0.069
0.003 -0.021 0.079
0.005 -0.021 0.079
0.011 -0.021 0.079
0.005 -0.019 0.087
0.009 -0.019 0.087
0.035 -0.013 0.037
0.037 -0.013 0.037
0.017 -0.019 0.061
0.021 -0.021 0.061
0.019 -0.019 0.065
0.021 -0.019 0.069
0.021 -0.019 0.071
0.021 -0.019 0.073
0.023 -0.021 0.077
0.017 -0.021 0.079
0.017 -0.021 0.083
0.017 -0.021 0.087
0.023 -0.021 0.083
0.023 -0.021 0.081
0.025 -0.019 0.087
0.027 -0.019 0.085
-0.001 -0.021 0.073
0.001 -0.021 0.075
0.001 -0.021 0.077
0.005 -0.021 0.079
0.001 -0.021 0.077
0.003 -0.021 0.079
0.003 -0.021 0.081
-0.001 -0.019 0.079
0.007 -0.021 0.083
0.019 -0.017 0.069
0.021 -0.019 0.073
0.023 -0.019 0.067
0.019 -0.019 0.075
-0.003 -0.019 0.079
0.003 -0.021 0.079
0.003 -0.021 0.081
0.005 -0.021 0.083
-0.013 -0.027 0.095
-0.019 -0.025 0.101
-0.019 -0.025 0.101
-0.021 -0.023 0.101
0.005 -0.015 0.089
0.017 -0.015 0.067
0.009 -0.021 0.079
0.003 -0.019 0.085
0.003 -0.019 0.085
0.003 -0.019 0.085
0.005 -0.019 0.087
0.005 -0.017 0.089
0.013 -0.019 0.089
0.009 -0.017 0.091
0.013 -0.019 0.089
0.009 -0.021 0.085
0.007 -0.015 0.091
0.017 -0.017 0.091
0.015 -0.015 0.093
0.011 -0.013 0.095
0.005 -0.019 0.087
0.005 -0.019 0.087
0.005 -0.017 0.089
0.013 -0.019 0.089
0.019 -0.021 0.083
0.021 -0.021 0.087
0.021 -0.019 0.089
0.023 -0.019 0.089
0.017 -0.019 0.089
-0.003 -0.011 0.089
0.011 -0.013 0.095
0.013 -0.013 0.095
0.015 -0.013 0.095
0.011 -0.013 0.095
0.011 -0.005 0.091
0.027 -0.017 0.089
0.013 -0.013 0.095
0.015 -0.013 0.095
0.019 -0.005 0.091
0.029 -0.019 0.079
0.031 -0.019 0.081
0.041 -0.011 0.075
0.019 -0.021 0.087
0.021 -0.019 0.089
0.021 -0.017 0.091
0.035 -0.015 0.081
0.029 -0.019 0.083
0.029 -0.017 0.085
0.043 -0.013 0.075
0.043 -0.011 0.077
0.047 -0.011 0.077
0.041 -0.009 0.085
0.049 -0.009 0.083
0.049 -0.009 0.085
0.049 -0.009 0.083
0.041 -0.011 0.081
0.025 -0.015 0.091
0.041 -0.007 0.087
0.041 -0.007 0.087
0.043 -0.007 0.087
0.033 -0.013 0.089
0.049 -0.009 0.085
0.051 -0.007 0.087
-0.049 -0.011 0.053
-0.049 -0.009 0.059
-0.041 -0.015 0.057
-0.033 -0.013 0.061
-0.035 -0.013 0.067
-0.049 -0.011 0.053
-0.051 0.001 0.053
-0.051 -0.003 0.057
-0.049 -0.003 0.059
-0.047 -0.003 0.067
-0.047 -0.003 0.067
-0.047 -0.003 0.067
-0.049 0.005 0.055
-0.049 -0.001 0.059
-0.049 0.003 0.057
-0.049 0.001 0.059
-0.049 -0.001 0.063
-0.043 -0.003 0.071
-0.043 -0.001 0.071
-0.045 0.003 0.065
-0.043 -0.003 0.071
-0.047 -0.007 0.081
-0.043 -0.001 0.071
-0.041 -0.013 0.059
-0.041 -0.013 0.065
-0.045 -0.011 0.065
-0.043 -0.009 0.069
-0.037 -0.013 0.065
-0.039 -0.013 0.069
-0.041 -0.011 0.071
-0.043 -0.011 0.069
-0.041 -0.011 0.071
-0.037 -0.013 0.073
-0.043 -0.007 0.071
-0.039 -0.011 0.073
-0.037 -0.011 0.075
-0.035 -0.013 0.077
-0.021 -0.011 0.055
-0.021 -0.013 0.055
-0.021 -0.009 0.057
-0.019 -0.011 0.057
-0.023 -0.015 0.069
-0.037 -0.013 0.073
-0.029 -0.015 0.071
-0.033 -0.015 0.075
-0.047 -0.005 0.065
-0.043 -0.007 0.071
-0.043 -0.009 0.069
-0.041 -0.005 0.073
-0.043 -0.003 0.071
-0.041 -0.007 0.073
-0.039 -0.009 0.075
-0.037 -0.011 0.075
-0.043 -0.005 0.071
-0.039 -0.009 0.075
-0.041 -0.013 0.083
-0.041 -0.007 0.073
-0.027 -0.017 0.079
-0.019 -0.017 0.077
-0.027 -0.019 0.087
-0.027 -0.019 0.085
-0.045 -0.001 0.069
-0.045 -0.009 0.087
-0.045 -0.009 0.087
-0.045 -0.013 0.093
-0.055 -0.003 0.089
-0.057 -0.001 0.089
-0.057 -0.005 0.099
-0.061 0.005 0.093
-0.059 -0.003 0.101
-0.057 0.005 0.093
-0.059 -0.001 0.101
-0.061 0.003 0.091
-0.057 0.001 0.091
-0.059 0.003 0.093
-0.059 -0.003 0.101
-0.059 -0.003 0.101
-0.053 -0.005 0.101
-0.049 -0.007 0.099
-0.047 -0.007 0.099
-0.047 -0.005 0.101
-0.053 -0.005 0.101
-0.051 -0.005 0.101
-0.047 -0.005 0.101
-0.043 -0.007 0.103
-0.041 -0.005 0.105
-0.045 -0.003 0.103
-0.041 -0.005 0.105
-0.051 -0.001 0.107
-0.043 -0.011 0.103
-0.037 -0.013 0.103
-0.043 -0.011 0.103
-0.037 -0.011 0.105
-0.039 -0.005 0.105
-0.057 -0.001 0.105
-0.057 -0.001 0.105
-0.055 0.003 0.105
-0.053 0.003 0.105
-0.057 0.001 0.105
-0.043 -0.003 0.103
-0.051 -0.001 0.107
-0.037 -0.001 0.105
-0.049 0.001 0.107
-0.051 0.003 0.107
-0.049 -0.001 0.107
-0.035 -0.005 0.105
-0.031 -0.001 0.105
-0.025 -0.003 0.105
0.015 -0.019 0.059
0.005 -0.021 0.073
-0.013 -0.017 0.061
-0.007 -0.019 0.069
-0.013 -0.011 0.067
-0.009 -0.017 0.069
-0.013 -0.013 0.067
-0.023 -0.021 0.085
-0.009 -0.015 0.071
-0.009 -0.015 0.073
-0.007 -0.019 0.071
-0.003 -0.019 0.077
-0.003 -0.019 0.077
-0.001 -0.021 0.075
-0.001 -0.019 0.079
-0.005 -0.017 0.077
-0.005 -0.017 0.079
-0.019 -0.025 0.093
0.001 -0.019 0.083
-0.003 -0.017 0.081
-0.015 -0.025 0.097
-0.021 -0.025 0.097
-0.015 -0.025 0.087
-0.015 -0.025 0.089
-0.015 -0.025 0.089
-0.005 -0.017 0.077
-0.013 -0.025 0.097
-0.013 -0.025 0.103
-0.017 -0.025 0.103
-0.015 -0.023 0.103
0.001 -0.013 0.091
0.013 -0.017 0.059
0.017 -0.017 0.063
0.017 -0.017 0.063
0.019 -0.017 0.067
0.017 -0.015 0.067
0.005 -0.021 0.075
0.003 -0.021 0.077
0.001 -0.019 0.083
0.005 -0.021 0.081
0.009 -0.021 0.079
0.009 -0.021 0.079
0.005 -0.021 0.083
0.019 -0.021 0.079
0.019 -0.021 0.081
0.015 -0.021 0.083
0.011 -0.017 0.091
0.013 -0.017 0.091
0.011 -0.019 0.089
0.013 -0.019 0.089
0.023 -0.019 0.089
0.025 -0.019 0.085
0.025 -0.019 0.087
0.005 -0.013 0.093
