0.037 -0.011 0.065
0.045 -0.009 0.069
-0.013 -0.023 0.037
0.015 -0.023 0.045
0.031 -0.007 0.053
0.027 -0.021 0.069
-0.035 -0.021 0.045
0.027 -0.021 0.071
-0.045 -0.023 0.039
-0.037 -0.021 0.039
-0.013 -0.021 0.051
-0.011 -0.021 0.047
-0.017 -0.023 0.043
0.023 -0.021 0.063
0.027 -0.021 0.073
0.027 -0.021 0.069
0.027 -0.021 0.071
0.027 -0.021 0.073
0.035 -0.017 0.073
0.049 -0.011 0.081
0.033 -0.019 0.069
0.031 -0.019 0.065
0.035 -0.017 0.067
0.033 -0.019 0.069
0.045 -0.011 0.073
0.003 -0.021 0.069
-0.001 -0.021 0.063
0.033 -0.015 0.085
0.035 -0.011 0.087
0.029 -0.019 0.083
0.031 -0.019 0.079
0.027 -0.017 0.089
0.031 -0.017 0.083
0.029 -0.017 0.087
0.031 -0.013 0.091
-0.017 -0.025 0.035
-0.017 -0.025 0.035
-0.015 -0.023 0.041
-0.017 -0.023 0.043
-0.025 -0.021 0.043
0.025 -0.021 0.063
0.023 -0.021 0.055
-0.011 -0.021 0.045
-0.011 -0.021 0.045
0.031 -0.019 0.061
-0.011 -0.021 0.047
0.031 -0.019 0.061
0.025 -0.019 0.053
0.029 -0.017 0.055
0.035 -0.013 0.063
0.037 -0.009 0.063
0.045 -0.009 0.069
0.033 -0.011 0.059
0.029 -0.015 0.055
0.027 -0.019 0.057
0.031 -0.015 0.057
0.045 -0.007 0.061
0.031 -0.007 0.055
0.043 -0.009 0.063
0.031 -0.015 0.057
0.033 -0.013 0.059
0.035 -0.015 0.065
0.045 -0.009 0.069
0.045 -0.007 0.067
0.027 -0.021 0.073
0.027 -0.021 0.075
0.027 -0.021 0.069
0.027 -0.021 0.071
0.027 -0.019 0.077
0.033 -0.019 0.075
0.033 -0.019 0.073
0.035 -0.017 0.077
0.035 -0.017 0.077
0.035 -0.017 0.077
0.033 -0.017 0.081
0.035 -0.013 0.083
0.035 -0.011 0.087
0.045 -0.011 0.083
0.033 -0.017 0.065
0.027 -0.017 0.089
0.025 -0.017 0.089
0.023 -0.017 0.091
0.021 -0.015 0.093
0.027 -0.009 0.091
0.025 -0.011 0.093
0.027 -0.011 0.093
0.023 -0.013 0.095
-0.011 -0.015 0.087
0.015 -0.013 0.095
0.011 -0.007 0.091
-0.007 -0.007 0.099
-0.007 -0.005 0.097
-0.007 -0.005 0.101
-0.009 -0.013 0.107
-0.021 -0.005 0.105
-0.013 -0.011 0.093
-0.011 -0.015 0.089
-0.015 -0.009 0.091
-0.013 -0.007 0.093
-0.015 -0.009 0.095
-0.009 -0.007 0.097
-0.005 -0.007 0.101
-0.009 -0.005 0.099
-0.015 -0.009 0.093
-0.015 -0.013 0.099
-0.015 -0.011 0.099
-0.019 -0.017 0.099
-0.017 -0.011 0.101
-0.015 -0.015 0.099
-0.015 -0.015 0.097
-0.015 -0.011 0.097
-0.013 -0.013 0.097
-0.019 -0.015 0.101
-0.017 -0.011 0.101
-0.017 -0.009 0.101
-0.009 -0.005 0.099
-0.017 -0.009 0.101
-0.007 -0.007 0.103
0.009 -0.019 0.089
0.025 -0.021 0.083
0.009 -0.021 0.077
0.035 -0.013 0.085
0.027 -0.017 0.089
0.011 -0.017 0.091
0.023 -0.007 0.091
0.025 -0.011 0.093
0.015 -0.005 0.091
0.015 -0.005 0.091
0.035 -0.013 0.085
0.033 -0.015 0.085
0.035 -0.011 0.087
0.033 -0.007 0.085
0.033 -0.013 0.089
0.023 -0.015 0.091
0.031 -0.009 0.089
0.031 -0.011 0.091
-0.015 -0.025 0.089
-0.017 -0.019 0.099
-0.015 -0.023 0.093
-0.015 -0.021 0.093
-0.015 -0.021 0.093
0.013 -0.017 0.091
0.013 -0.007 0.091
-0.007 -0.005 0.089
-0.011 -0.003 0.099
0.021 -0.015 0.093
-0.011 -0.015 0.087
0.013 -0.013 0.095
0.005 -0.013 0.093
-0.007 -0.005 0.089
-0.005 -0.007 0.095
-0.019 -0.019 0.101
-0.009 -0.013 0.109
-0.023 -0.007 0.105
-0.005 -0.015 0.111
-0.005 -0.015 0.113
-0.005 -0.015 0.113
-0.009 -0.013 0.111
-0.019 -0.009 0.107
-0.021 -0.005 0.105
-0.017 -0.003 0.105
-0.027 -0.005 0.105
-0.037 -0.005 0.105
-0.017 -0.003 0.109
-0.003 -0.019 0.111
-0.017 -0.021 0.101
-0.001 -0.019 0.113
-0.023 -0.021 0.107
-0.017 -0.015 0.103
-0.007 -0.015 0.107
-0.019 -0.005 0.103
-0.017 -0.003 0.105
-0.013 -0.011 0.109
-0.017 -0.013 0.109
-0.005 -0.017 0.109
-0.001 -0.017 0.113
-0.023 -0.009 0.111
-0.009 -0.013 0.111
-0.019 -0.009 0.107
-0.017 -0.003 0.107
-0.007 -0.005 0.101
-0.007 -0.007 0.103
-0.007 -0.005 0.103
-0.015 -0.001 0.103
-0.005 -0.017 0.109
-0.003 -0.017 0.113
0.035 -0.013 0.037
0.041 -0.007 0.037
0.043 -0.007 0.033
0.043 -0.003 0.033
0.021 -0.025 0.041
0.025 -0.021 0.045
0.025 -0.021 0.049
0.021 -0.021 0.049
0.023 -0.021 0.051
0.023 -0.027 0.037
0.029 -0.019 0.041
0.033 -0.017 0.035
0.031 -0.019 0.039
0.021 -0.025 0.041
0.027 -0.019 0.051
0.029 -0.017 0.047
0.029 -0.017 0.045
0.027 -0.011 0.049
0.029 -0.005 0.049
0.029 -0.009 0.053
0.045 -0.009 0.065
0.037 -0.013 0.037
0.033 -0.005 0.041
0.033 -0.011 0.043
0.031 -0.015 0.045
0.029 -0.005 0.049
0.029 -0.007 0.045
0.025 -0.021 0.059
0.031 -0.019 0.061
0.031 -0.019 0.063
0.027 -0.019 0.059
0.025 -0.019 0.053
0.027 -0.019 0.059
0.025 -0.021 0.063
0.025 -0.021 0.063
0.035 -0.015 0.067
0.047 -0.007 0.065
0.047 -0.007 0.065
0.035 -0.017 0.067
0.039 -0.011 0.071
0.037 -0.013 0.073
0.043 -0.013 0.075
0.053 -0.007 0.083
0.047 -0.009 0.073
0.029 -0.009 0.053
0.033 -0.009 0.057
0.047 -0.005 0.067
0.045 -0.007 0.061
0.045 -0.007 0.059
0.047 -0.005 0.061
0.047 -0.007 0.065
0.035 -0.011 0.061
0.055 -0.007 0.075
0.055 -0.005 0.075
0.051 -0.007 0.073
0.055 -0.007 0.075
0.035 -0.011 0.039
0.039 -0.009 0.037
0.039 -0.007 0.039
0.043 -0.007 0.035
0.043 -0.005 0.033
0.033 -0.003 0.043
0.047 -0.003 0.053
0.033 -0.017 0.063
0.047 -0.003 0.055
0.035 -0.015 0.065
0.047 -0.005 0.063
0.047 -0.003 0.061
0.003 -0.021 0.069
0.011 -0.021 0.079
0.025 -0.021 0.081
0.033 -0.019 0.071
0.033 -0.019 0.071
0.033 -0.019 0.075
0.033 -0.019 0.069
0.033 -0.019 0.069
0.027 -0.021 0.069
0.033 -0.019 0.073
0.025 -0.021 0.081
0.031 -0.019 0.079
0.035 -0.015 0.079
0.039 -0.011 0.079
0.037 -0.013 0.075
0.033 -0.017 0.081
0.037 -0.013 0.081
0.047 -0.005 0.089
0.025 -0.005 0.089
0.041 -0.007 0.087
0.029 -0.003 0.085
0.031 -0.005 0.085
0.057 -0.005 0.079
0.055 -0.007 0.079
0.055 -0.005 0.081
0.057 -0.005 0.081
0.045 -0.011 0.083
0.053 -0.005 0.087
0.053 -0.005 0.083
0.019 -0.019 0.089
0.011 -0.019 0.089
0.019 -0.021 0.087
0.019 -0.021 0.087
0.021 -0.021 0.087
0.029 -0.019 0.083
0.031 -0.017 0.083
0.027 -0.019 0.085
0.029 -0.017 0.087
0.025 -0.005 0.089
0.025 -0.005 0.089
0.023 -0.007 0.091
0.021 -0.003 0.089
0.021 -0.005 0.091
0.017 -0.013 0.095
0.023 -0.011 0.095
0.023 -0.011 0.095
0.023 -0.011 0.095
0.023 -0.013 0.095
0.017 -0.007 0.091
0.031 -0.015 0.087
0.025 -0.003 0.087
0.029 -0.005 0.087
0.033 -0.007 0.085
0.023 -0.013 0.095
0.021 -0.009 0.093
0.029 -0.015 0.089
0.025 -0.007 0.089
0.023 -0.007 0.091
0.021 -0.003 0.089
0.033 -0.019 0.069
0.033 -0.019 0.071
0.043 -0.013 0.075
0.045 -0.011 0.071
0.045 -0.009 0.069
0.055 -0.005 0.075
0.055 -0.007 0.079
0.053 -0.009 0.079
0.047 -0.007 0.065
0.051 -0.007 0.075
0.045 -0.011 0.077
0.045 -0.011 0.083
0.043 -0.011 0.083
0.045 -0.011 0.083
0.055 -0.007 0.079
0.053 -0.007 0.085
0.055 -0.007 0.081
0.035 -0.009 0.085
0.049 -0.011 0.081
0.051 -0.007 0.087
0.033 -0.013 0.089
0.055 -0.005 0.085
0.053 -0.007 0.085
0.045 -0.007 0.067
0.041 0.003 0.065
0.027 0.007 0.059
0.027 0.009 0.061
0.045 -0.007 0.061
0.047 -0.003 0.063
0.045 0.003 0.065
0.047 -0.003 0.061
0.049 -0.001 0.061
0.049 0.001 0.061
0.049 -0.009 0.085
0.049 -0.009 0.075
0.055 -0.007 0.075
0.045 -0.001 0.069
0.025 0.005 0.061
0.055 -0.005 0.087
0.053 -0.003 0.083
0.055 -0.003 0.087
0.027 0.009 0.063
0.025 0.007 0.067
0.023 0.009 0.067
-0.027 0.019 0.045
0.031 -0.005 0.085
0.047 -0.003 0.087
0.047 -0.003 0.087
0.029 -0.005 0.087
0.029 -0.003 0.085
0.027 -0.003 0.087
0.045 -0.003 0.069
0.047 -0.001 0.067
0.025 0.005 0.061
0.025 0.007 0.061
0.025 0.007 0.065
0.041 0.007 0.061
0.047 0.001 0.063
0.045 -0.003 0.071
0.047 -0.005 0.067
0.047 -0.001 0.067
0.045 -0.003 0.069
0.027 0.007 0.059
0.043 0.003 0.065
0.029 0.011 0.059
0.027 0.011 0.061
0.029 0.011 0.059
-0.027 0.017 0.047
0.051 -0.007 0.087
0.053 -0.003 0.087
0.055 -0.005 0.087
0.053 -0.007 0.085
0.055 -0.005 0.085
0.023 0.003 0.071
0.025 0.005 0.069
0.047 -0.005 0.089
0.029 -0.003 0.085
0.055 -0.005 0.077
-0.007 0.007 0.049
0.057 -0.005 0.081
0.053 -0.007 0.085
0.021 -0.005 0.091
0.023 -0.005 0.089
0.023 -0.003 0.087
0.019 -0.001 0.085
0.021 -0.005 0.091
-0.007 -0.005 0.103
-0.015 -0.001 0.101
-0.007 -0.005 0.101
-0.015 -0.001 0.097
-0.031 0.005 0.097
-0.025 0.003 0.091
-0.015 -0.001 0.095
-0.009 -0.003 0.095
-0.033 0.005 0.089
-0.033 0.007 0.085
-0.037 0.007 0.087
-0.021 0.001 0.101
-0.027 0.003 0.099
-0.021 0.001 0.097
0.021 -0.003 0.089
-0.021 -0.001 0.081
-0.025 0.003 0.085
-0.025 0.003 0.087
-0.025 0.003 0.089
-0.047 0.003 0.105
-0.031 0.003 0.103
-0.037 0.001 0.105
-0.027 0.003 0.099
-0.039 0.007 0.099
-0.045 0.009 0.101
-0.019 -0.001 0.105
-0.019 0.001 0.107
0.045 -0.001 0.043
0.047 0.003 0.043
0.043 0.003 0.035
0.043 -0.003 0.055
0.049 0.001 0.061
0.049 0.001 0.055
0.049 -0.003 0.059
0.047 -0.003 0.055
0.049 0.003 0.057
0.049 0.009 0.053
0.049 0.003 0.059
0.049 0.003 0.053
0.049 0.009 0.053
0.049 0.005 0.057
0.049 0.001 0.061
0.049 0.001 0.061
0.049 0.003 0.049
0.049 0.005 0.049
0.049 0.007 0.049
0.049 0.009 0.051
0.049 0.009 0.051
0.049 0.009 0.049
0.049 -0.001 0.061
0.049 0.001 0.059
0.049 -0.001 0.057
0.049 0.003 0.055
0.049 0.005 0.055
0.045 0.011 0.055
0.049 0.005 0.059
0.047 0.007 0.059
0.049 0.007 0.053
0.049 0.005 0.059
0.047 -0.003 0.065
0.043 0.005 0.063
0.047 -0.001 0.065
0.047 0.001 0.065
0.045 0.003 0.065
0.045 0.003 0.065
0.029 0.011 0.059
0.043 0.005 0.063
0.029 0.015 0.057
0.025 0.009 0.065
0.027 0.015 0.059
0.027 0.009 0.061
0.029 0.015 0.051
0.027 0.017 0.053
0.027 0.015 0.059
0.025 0.017 0.059
0.045 0.007 0.037
0.047 0.009 0.041
0.045 0.011 0.039
0.045 0.013 0.041
0.045 0.011 0.041
0.049 -0.001 0.055
0.049 -0.001 0.053
0.045 0.001 0.041
0.047 0.007 0.041
0.049 0.003 0.047
0.045 0.013 0.047
0.045 0.013 0.049
0.045 0.013 0.045
0.049 0.009 0.053
0.045 0.013 0.049
0.047 0.011 0.045
0.047 0.011 0.045
0.045 0.013 0.049
0.045 0.013 0.045
0.049 -0.001 0.055
0.049 0.005 0.059
0.049 0.001 0.051
0.049 0.007 0.055
0.049 0.007 0.057
0.047 0.007 0.059
0.047 0.011 0.053
0.047 0.009 0.057
0.047 0.001 0.063
0.045 0.005 0.061
0.047 0.005 0.061
0.047 0.005 0.061
0.047 0.007 0.059
0.049 0.009 0.053
0.049 0.003 0.059
0.025 0.005 0.067
0.023 0.005 0.071
0.025 0.005 0.069
0.025 0.007 0.065
