-0.033 -0.021 0.041
-0.035 -0.021 0.043
-0.019 -0.025 0.033
-0.025 -0.023 0.039
-0.019 -0.023 0.041
-0.015 -0.023 0.037
-0.011 -0.021 0.039
-0.043 -0.021 0.039
-0.043 -0.021 0.039
-0.041 -0.021 0.039
-0.033 -0.019 0.033
-0.033 -0.021 0.039
-0.033 -0.021 0.043
-0.049 -0.021 0.039
-0.051 -0.007 0.051
-0.045 -0.023 0.039
-0.041 -0.021 0.039
-0.047 -0.015 0.041
-0.045 -0.017 0.041
-0.047 -0.011 0.043
-0.047 -0.017 0.041
-0.041 -0.019 0.041
-0.041 -0.019 0.045
-0.045 -0.013 0.043
-0.043 -0.017 0.049
-0.035 -0.021 0.051
-0.039 -0.019 0.053
-0.051 -0.007 0.051
-0.047 -0.007 0.065
-0.023 -0.025 0.033
-0.029 -0.023 0.035
-0.025 -0.023 0.037
-0.017 -0.025 0.035
-0.025 -0.021 0.043
-0.017 -0.023 0.043
-0.023 -0.019 0.041
-0.015 -0.023 0.037
-0.015 -0.023 0.041
-0.011 -0.021 0.045
-0.009 -0.019 0.049
-0.031 -0.021 0.045
-0.023 -0.019 0.041
-0.021 -0.017 0.043
-0.013 -0.021 0.041
-0.005 -0.013 0.041
-0.001 -0.015 0.049
-0.029 -0.019 0.049
-0.029 -0.017 0.051
-0.017 -0.019 0.049
-0.019 -0.017 0.049
-0.009 -0.019 0.051
-0.013 -0.019 0.055
-0.009 -0.019 0.053
-0.003 -0.019 0.051
-0.005 -0.019 0.057
-0.001 -0.019 0.059
-0.027 -0.015 0.051
-0.029 -0.011 0.055
-0.025 -0.011 0.053
-0.023 -0.009 0.055
-0.029 -0.011 0.059
-0.017 -0.015 0.057
-0.019 -0.009 0.059
-0.027 -0.009 0.057
-0.027 -0.013 0.063
-0.025 -0.015 0.069
-0.017 -0.013 0.059
-0.019 -0.009 0.059
-0.019 -0.009 0.061
-0.001 -0.015 0.049
-0.005 -0.019 0.059
-0.003 -0.021 0.067
-0.011 -0.015 0.069
-0.035 -0.013 0.065
-0.047 -0.007 0.065
-0.045 -0.007 0.069
-0.041 -0.009 0.073
-0.033 -0.015 0.075
-0.039 -0.009 0.075
-0.035 -0.015 0.083
-0.061 -0.003 0.083
-0.059 -0.003 0.081
-0.053 -0.005 0.083
-0.051 -0.009 0.095
-0.041 -0.013 0.083
-0.041 -0.011 0.087
-0.037 -0.013 0.081
-0.037 -0.015 0.085
-0.033 -0.015 0.083
-0.037 -0.015 0.085
-0.039 -0.013 0.087
-0.033 -0.015 0.085
-0.033 -0.015 0.087
-0.039 -0.013 0.087
-0.041 -0.011 0.087
-0.033 -0.015 0.085
-0.035 -0.015 0.089
-0.037 -0.015 0.089
-0.033 -0.017 0.091
-0.043 -0.011 0.095
-0.033 -0.017 0.095
-0.039 -0.015 0.093
-0.037 -0.017 0.095
-0.039 -0.015 0.095
-0.039 -0.015 0.097
-0.041 -0.015 0.093
-0.043 -0.011 0.097
-0.037 -0.017 0.095
-0.035 -0.017 0.095
-0.035 -0.017 0.099
-0.035 -0.017 0.099
-0.027 -0.017 0.075
-0.021 -0.017 0.075
-0.003 -0.021 0.065
-0.001 -0.021 0.071
-0.003 -0.019 0.079
-0.029 -0.015 0.065
-0.029 -0.015 0.067
-0.023 -0.015 0.069
-0.021 -0.017 0.075
-0.023 -0.017 0.077
-0.031 -0.015 0.073
-0.029 -0.015 0.073
-0.017 -0.025 0.087
-0.021 -0.023 0.089
-0.015 -0.011 0.065
-0.011 -0.013 0.071
-0.011 -0.013 0.071
-0.013 -0.011 0.073
-0.007 -0.017 0.075
-0.011 -0.011 0.073
-0.011 -0.011 0.075
-0.007 -0.013 0.079
-0.005 -0.015 0.081
-0.003 -0.015 0.083
-0.005 -0.015 0.081
-0.001 -0.015 0.085
-0.021 -0.021 0.085
-0.017 -0.025 0.087
-0.029 -0.019 0.095
-0.021 -0.023 0.089
-0.013 -0.027 0.095
-0.015 -0.025 0.093
-0.013 -0.027 0.095
-0.031 -0.017 0.085
-0.031 -0.017 0.089
-0.027 -0.021 0.095
-0.017 -0.025 0.095
-0.019 -0.025 0.097
-0.017 -0.013 0.101
-0.013 -0.015 0.085
-0.001 -0.015 0.087
-0.011 -0.015 0.091
-0.001 -0.015 0.087
-0.013 -0.027 0.095
-0.015 -0.025 0.097
-0.013 -0.023 0.097
-0.013 -0.023 0.097
-0.003 -0.013 0.089
-0.001 -0.013 0.089
-0.013 -0.023 0.097
-0.015 -0.025 0.103
-0.011 -0.007 0.093
-0.015 -0.025 0.103
-0.009 -0.007 0.095
-0.011 -0.007 0.097
-0.055 -0.007 0.099
-0.055 -0.005 0.101
-0.053 -0.005 0.101
-0.051 -0.005 0.101
-0.053 -0.001 0.105
-0.039 -0.015 0.101
-0.045 -0.011 0.097
-0.047 -0.007 0.099
-0.041 -0.007 0.105
-0.039 -0.007 0.105
-0.019 -0.025 0.101
-0.023 -0.023 0.099
-0.017 -0.025 0.103
-0.029 -0.021 0.105
-0.015 -0.025 0.101
-0.015 -0.025 0.097
-0.005 -0.019 0.111
-0.025 -0.023 0.107
-0.017 -0.015 0.105
-0.021 -0.015 0.107
-0.021 -0.013 0.109
-0.025 -0.021 0.109
-0.027 -0.013 0.107
-0.023 -0.015 0.107
-0.021 -0.015 0.107
-0.017 -0.015 0.107
-0.019 -0.015 0.109
-0.019 -0.013 0.109
-0.015 -0.007 0.099
-0.001 -0.019 0.113
0.015 -0.027 0.041
0.019 -0.027 0.041
0.017 -0.025 0.043
0.017 -0.025 0.045
0.019 -0.023 0.045
0.025 -0.021 0.043
0.037 -0.013 0.031
0.037 -0.013 0.031
0.013 -0.027 0.039
0.015 -0.027 0.041
0.015 -0.025 0.043
0.015 -0.025 0.043
0.011 -0.023 0.043
0.019 -0.029 0.037
0.021 -0.029 0.037
0.025 -0.025 0.037
0.025 -0.025 0.039
0.027 -0.023 0.039
0.029 -0.021 0.039
0.029 -0.021 0.039
0.017 -0.025 0.043
0.023 -0.021 0.043
0.017 -0.025 0.045
0.023 -0.021 0.045
0.027 -0.021 0.043
0.027 -0.021 0.043
0.025 -0.021 0.045
0.007 -0.013 0.043
0.007 -0.013 0.045
0.009 -0.017 0.049
0.009 -0.017 0.049
0.007 -0.013 0.047
0.009 -0.015 0.053
0.021 -0.025 0.041
0.021 -0.025 0.041
0.025 -0.023 0.041
0.027 -0.023 0.041
0.023 -0.023 0.041
0.031 -0.019 0.039
0.031 -0.015 0.043
0.029 -0.017 0.047
0.023 -0.021 0.055
0.025 -0.019 0.055
0.027 -0.017 0.055
0.011 -0.019 0.051
0.013 -0.019 0.055
0.019 -0.021 0.049
0.023 -0.021 0.049
0.021 -0.021 0.053
0.017 -0.019 0.061
0.019 -0.019 0.063
0.007 -0.013 0.049
0.011 -0.015 0.057
0.001 -0.019 0.061
0.003 -0.019 0.063
0.013 -0.015 0.059
0.005 -0.019 0.067
-0.001 -0.021 0.067
0.003 -0.021 0.071
0.027 -0.017 0.053
0.025 -0.019 0.055
0.029 -0.019 0.061
0.019 -0.021 0.059
0.021 -0.021 0.061
0.027 -0.019 0.057
0.031 -0.019 0.061
0.031 -0.019 0.061
0.029 -0.019 0.063
0.019 -0.017 0.071
0.027 -0.019 0.065
0.029 -0.019 0.065
0.023 -0.019 0.069
0.023 -0.019 0.069
0.029 -0.019 0.071
0.027 -0.021 0.073
0.039 -0.011 0.035
0.035 -0.013 0.037
0.039 -0.007 0.039
0.041 -0.009 0.035
0.043 -0.007 0.035
0.031 -0.015 0.045
0.045 -0.001 0.041
0.043 -0.001 0.045
0.045 -0.003 0.053
0.045 -0.003 0.053
0.033 -0.017 0.063
0.035 -0.015 0.063
0.039 -0.003 0.057
0.045 -0.007 0.059
0.001 -0.021 0.067
0.009 -0.019 0.071
0.011 -0.017 0.071
0.001 -0.021 0.077
0.013 -0.019 0.075
0.011 -0.021 0.079
0.013 -0.021 0.079
0.019 -0.019 0.065
0.021 -0.019 0.071
0.023 -0.019 0.071
0.021 -0.019 0.071
0.025 -0.021 0.079
0.001 -0.021 0.075
0.001 -0.019 0.081
0.003 -0.021 0.079
0.007 -0.021 0.079
0.005 -0.021 0.083
0.019 -0.017 0.069
0.019 -0.017 0.071
0.019 -0.021 0.079
0.017 -0.017 0.075
0.019 -0.021 0.079
0.019 -0.021 0.079
0.017 -0.021 0.081
0.017 -0.021 0.087
0.007 -0.021 0.081
0.001 -0.019 0.081
0.007 -0.021 0.083
0.011 -0.021 0.081
0.015 -0.021 0.085
0.021 -0.021 0.085
0.029 -0.017 0.085
0.007 -0.015 0.091
0.011 -0.017 0.091
0.013 -0.017 0.091
0.009 -0.017 0.091
0.001 -0.013 0.089
0.013 -0.017 0.091
0.015 -0.017 0.091
0.013 -0.015 0.093
0.011 -0.013 0.093
0.013 -0.013 0.095
0.015 -0.013 0.095
0.015 -0.013 0.095
0.007 -0.015 0.091
0.007 -0.013 0.093
0.025 -0.017 0.089
0.027 -0.013 0.091
0.023 -0.017 0.091
0.021 -0.015 0.093
0.023 -0.013 0.095
0.019 -0.013 0.095
0.025 -0.015 0.091
0.029 -0.015 0.089
0.025 -0.015 0.091
0.027 -0.013 0.093
0.031 -0.013 0.089
0.029 -0.013 0.091
0.027 -0.013 0.093
0.017 -0.015 0.093
0.023 -0.013 0.093
0.033 -0.019 0.071
0.035 -0.017 0.071
0.033 -0.019 0.075
0.033 -0.019 0.077
0.043 -0.013 0.075
0.035 -0.017 0.075
0.035 -0.017 0.077
0.035 -0.017 0.079
0.031 -0.019 0.081
0.035 -0.017 0.079
0.043 -0.013 0.075
0.055 -0.007 0.077
0.035 -0.013 0.087
0.047 -0.009 0.085
0.047 -0.009 0.085
0.043 -0.007 0.087
0.045 -0.007 0.087
0.051 -0.009 0.081
0.049 -0.007 0.087
-0.031 -0.017 0.051
-0.031 -0.017 0.051
-0.031 -0.021 0.045
-0.019 -0.019 0.043
-0.013 -0.021 0.045
-0.015 -0.021 0.047
-0.047 -0.011 0.045
-0.041 -0.019 0.053
-0.033 -0.021 0.049
-0.033 -0.019 0.051
-0.037 -0.019 0.053
-0.035 -0.019 0.053
-0.035 -0.013 0.059
-0.037 -0.013 0.061
-0.033 -0.013 0.061
-0.037 -0.017 0.055
-0.033 -0.013 0.059
-0.035 -0.013 0.061
-0.035 -0.013 0.061
-0.047 -0.011 0.059
-0.047 -0.011 0.059
-0.051 -0.005 0.057
-0.037 -0.013 0.061
-0.033 -0.013 0.065
-0.035 -0.013 0.067
-0.041 -0.011 0.071
-0.037 -0.013 0.069
-0.023 -0.017 0.047
-0.029 -0.017 0.051
-0.017 -0.019 0.051
-0.023 -0.013 0.053
-0.009 -0.019 0.047
-0.009 -0.019 0.049
-0.009 -0.019 0.049
-0.009 -0.019 0.051
-0.009 -0.019 0.053
-0.007 -0.019 0.051
-0.005 -0.019 0.053
-0.009 -0.019 0.055
-0.007 -0.019 0.057
-0.015 -0.015 0.059
-0.009 -0.019 0.063
-0.027 -0.013 0.053
-0.027 -0.011 0.053
-0.029 -0.011 0.057
-0.025 -0.009 0.055
-0.025 -0.007 0.057
-0.027 -0.013 0.063
-0.023 -0.009 0.055
-0.027 -0.013 0.063
-0.019 -0.011 0.057
-0.023 -0.007 0.061
-0.031 -0.015 0.071
-0.011 -0.019 0.061
-0.009 -0.019 0.065
-0.009 -0.019 0.067
-0.005 -0.019 0.061
-0.015 -0.013 0.063
-0.047 -0.003 0.067
-0.039 -0.011 0.073
-0.035 -0.013 0.077
-0.033 -0.013 0.079
-0.057 -0.001 0.089
-0.055 -0.003 0.089
-0.047 -0.011 0.093
-0.051 -0.009 0.095
-0.061 0.005 0.093
-0.063 0.005 0.093
-0.051 -0.009 0.095
-0.043 -0.011 0.095
-0.039 -0.013 0.089
-0.033 -0.017 0.093
-0.045 -0.013 0.093
-0.033 -0.019 0.101
-0.031 -0.017 0.083
-0.025 -0.021 0.091
-0.027 -0.021 0.095
-0.021 -0.015 0.103
-0.049 -0.005 0.101
-0.055 -0.003 0.103
-0.049 -0.003 0.105
-0.055 -0.001 0.105
-0.051 -0.001 0.107
-0.043 -0.011 0.103
-0.041 -0.009 0.103
-0.037 -0.011 0.105
-0.037 -0.011 0.105
-0.033 -0.007 0.105
-0.031 -0.013 0.105
0.025 -0.021 0.049
0.027 -0.019 0.047
0.031 -0.017 0.041
0.007 -0.007 0.043
0.013 -0.019 0.049
0.009 -0.017 0.049
0.005 0.001 0.037
0.001 -0.015 0.053
0.003 -0.013 0.053
0.007 -0.013 0.047
0.011 -0.015 0.057
0.017 -0.021 0.051
0.017 -0.021 0.053
0.015 -0.019 0.059
0.023 -0.021 0.055
0.027 -0.019 0.057
0.015 -0.019 0.057
0.019 -0.021 0.059
0.017 -0.019 0.061
0.021 -0.021 0.059
0.025 -0.021 0.061
0.025 -0.021 0.061
0.027 -0.019 0.061
0.013 -0.017 0.057
0.015 -0.017 0.061
0.017 -0.019 0.059
0.027 -0.019 0.061
0.021 -0.019 0.063
0.021 -0.019 0.063
0.013 -0.015 0.061
0.013 -0.015 0.061
0.017 -0.019 0.061
0.021 -0.019 0.067
0.015 -0.015 0.063
0.017 -0.015 0.067
0.019 -0.017 0.069
0.019 -0.017 0.071
0.019 -0.017 0.073
0.021 -0.019 0.075
0.021 -0.019 0.075
0.019 -0.017 0.071
0.019 -0.017 0.071
0.023 -0.021 0.077
0.023 -0.019 0.069
0.045 0.001 0.039
0.029 -0.013 0.047
0.041 -0.001 0.045
0.035 0.001 0.045
0.043 -0.001 0.049
0.033 -0.019 0.069
0.035 -0.017 0.069
0.035 -0.017 0.069
0.037 -0.015 0.071
0.047 -0.005 0.061
-0.001 -0.019 0.079
0.021 -0.021 0.083
0.017 -0.021 0.085
0.039 -0.011 0.073
