-0.005 -0.037 0.037
-0.007 -0.031 0.041
-0.007 -0.029 0.043
-0.005 -0.019 0.049
-0.025 -0.005 0.041
-0.005 -0.019 0.045
-0.017 -0.007 0.043
-0.017 -0.007 0.043
-0.005 -0.017 0.045
-0.015 -0.013 0.057
-0.015 -0.013 0.061
-0.003 -0.025 0.057
-0.003 -0.023 0.059
-0.001 -0.025 0.061
-0.025 -0.005 0.053
-0.019 -0.009 0.053
-0.019 -0.007 0.063
-0.013 -0.015 0.065
-0.013 -0.013 0.057
-0.011 -0.019 0.075
-0.007 -0.023 0.079
-0.011 -0.017 0.071
-0.011 -0.019 0.079
-0.003 -0.027 0.085
-0.001 -0.027 0.087
-0.027 -0.007 0.087
-0.017 -0.001 0.085
-0.009 -0.013 0.089
-0.013 -0.007 0.083
-0.013 -0.005 0.085
-0.009 -0.013 0.089
-0.003 -0.017 0.093
-0.019 -0.005 0.111
0.001 -0.033 0.043
0.005 -0.033 0.057
-0.003 -0.025 0.057
0.001 -0.031 0.057
0.015 -0.033 0.039
0.019 -0.035 0.035
0.017 -0.035 0.037
0.017 -0.033 0.039
0.025 -0.035 0.035
0.029 -0.033 0.039
0.023 -0.037 0.065
0.035 -0.035 0.061
-0.001 -0.031 0.043
-0.001 -0.029 0.045
0.009 -0.031 0.049
0.013 -0.031 0.045
0.029 -0.033 0.039
0.021 -0.027 0.041
0.007 -0.035 0.067
-0.003 -0.027 0.053
-0.003 -0.025 0.055
0.001 -0.017 0.061
0.001 -0.019 0.063
0.003 -0.019 0.065
0.003 -0.033 0.071
0.001 -0.027 0.067
0.005 -0.033 0.059
0.003 -0.031 0.061
0.001 -0.029 0.065
0.023 -0.035 0.063
0.011 -0.037 0.071
0.017 -0.035 0.067
0.011 -0.037 0.075
-0.001 -0.021 0.061
0.001 -0.025 0.067
0.001 -0.025 0.067
0.001 -0.025 0.067
0.001 -0.019 0.063
-0.003 -0.023 0.075
0.003 -0.031 0.079
0.005 -0.031 0.087
0.001 -0.029 0.087
0.003 -0.031 0.087
0.003 -0.029 0.089
0.029 -0.031 0.049
0.013 -0.037 0.073
0.011 -0.037 0.075
0.015 -0.035 0.075
0.023 -0.041 0.077
0.011 -0.037 0.071
0.007 -0.035 0.077
0.019 -0.035 0.069
0.019 -0.035 0.075
0.023 -0.041 0.079
0.021 -0.039 0.073
0.009 -0.033 0.085
0.031 -0.043 0.081
0.023 -0.037 0.085
0.021 -0.035 0.081
0.025 -0.039 0.085
0.025 -0.039 0.085
0.029 -0.037 0.089
0.025 -0.035 0.087
0.027 -0.037 0.087
0.037 -0.041 0.087
0.015 -0.035 0.075
0.005 -0.031 0.087
0.013 -0.033 0.085
0.005 -0.029 0.089
0.009 -0.031 0.089
0.007 -0.029 0.091
-0.007 -0.023 0.081
-0.005 -0.025 0.087
-0.009 -0.013 0.089
0.005 -0.031 0.087
0.005 -0.029 0.089
0.001 -0.027 0.089
0.003 -0.031 0.085
0.007 -0.029 0.091
-0.001 -0.019 0.093
-0.035 0.001 0.035
-0.037 0.005 0.037
-0.033 0.003 0.041
-0.035 0.005 0.041
-0.037 0.005 0.037
-0.041 0.011 0.039
-0.035 0.005 0.043
-0.037 0.007 0.049
-0.039 0.009 0.047
-0.047 0.023 0.041
-0.043 0.015 0.049
-0.041 0.011 0.051
-0.037 0.007 0.049
-0.033 0.009 0.051
-0.033 0.015 0.057
-0.041 0.017 0.053
-0.041 0.021 0.051
-0.041 0.025 0.055
-0.037 0.017 0.059
-0.037 0.017 0.059
-0.031 0.005 0.045
-0.027 0.001 0.049
-0.029 0.005 0.049
-0.019 -0.009 0.053
-0.019 -0.001 0.067
-0.027 0.005 0.051
-0.035 0.011 0.053
-0.023 0.001 0.057
-0.021 0.001 0.059
-0.027 0.013 0.057
-0.025 0.011 0.061
-0.027 0.013 0.055
-0.029 0.011 0.061
-0.023 0.007 0.067
-0.017 -0.009 0.075
-0.019 0.005 0.063
-0.017 0.003 0.067
-0.019 -0.001 0.067
-0.017 -0.001 0.069
-0.029 0.005 0.075
-0.021 0.003 0.071
-0.031 -0.001 0.085
-0.041 0.025 0.049
-0.041 0.029 0.051
-0.041 0.025 0.059
-0.041 0.029 0.055
-0.037 0.031 0.065
-0.039 0.017 0.057
-0.039 0.019 0.059
-0.039 0.023 0.063
-0.037 0.019 0.069
-0.035 0.015 0.065
-0.033 0.011 0.073
-0.039 0.025 0.065
-0.037 0.021 0.069
-0.033 0.015 0.075
-0.035 0.019 0.073
-0.033 0.011 0.071
-0.033 0.011 0.077
-0.035 0.019 0.073
-0.035 0.019 0.073
-0.035 0.011 0.087
-0.035 0.015 0.083
-0.037 0.017 0.087
-0.039 0.021 0.093
-0.039 0.023 0.091
-0.037 0.013 0.093
-0.037 0.013 0.097
-0.037 0.015 0.095
-0.039 0.019 0.095
-0.039 0.025 0.097
-0.029 0.007 0.069
-0.025 0.003 0.075
-0.029 0.005 0.073
-0.025 0.001 0.079
-0.029 -0.005 0.087
-0.013 -0.011 0.083
-0.013 -0.007 0.083
-0.037 0.019 0.081
-0.035 0.013 0.087
-0.035 0.011 0.089
-0.035 0.007 0.093
-0.033 0.001 0.099
-0.033 0.003 0.089
-0.027 -0.009 0.097
-0.027 -0.009 0.101
-0.027 -0.009 0.103
-0.019 -0.001 0.095
-0.035 0.007 0.093
-0.033 0.003 0.103
-0.033 0.001 0.107
-0.025 0.005 0.105
-0.037 0.015 0.099
-0.043 0.039 0.087
-0.043 0.035 0.095
-0.043 0.029 0.097
-0.041 0.033 0.101
-0.041 0.033 0.101
-0.045 0.039 0.101
-0.039 0.023 0.103
-0.041 0.029 0.099
-0.033 0.003 0.103
-0.035 0.009 0.101
-0.037 0.017 0.103
-0.035 0.015 0.105
-0.025 0.003 0.107
-0.033 0.003 0.109
-0.019 0.003 0.109
-0.031 0.013 0.105
-0.025 0.007 0.113
-0.025 0.009 0.113
-0.023 0.007 0.115
-0.017 -0.009 0.109
-0.019 -0.007 0.111
-0.021 -0.003 0.107
-0.019 -0.003 0.111
-0.015 0.009 0.107
-0.015 0.015 0.107
-0.013 0.011 0.109
-0.027 0.027 0.105
-0.027 0.019 0.105
-0.031 0.015 0.105
-0.025 0.025 0.105
-0.043 0.031 0.099
-0.043 0.035 0.101
-0.039 0.033 0.103
-0.039 0.033 0.103
-0.041 0.039 0.105
-0.033 0.029 0.103
-0.031 0.033 0.103
-0.035 0.035 0.107
-0.023 0.035 0.099
-0.019 -0.009 0.061
-0.003 -0.013 0.051
-0.007 -0.013 0.057
-0.013 -0.017 0.069
-0.001 -0.015 0.057
-0.019 -0.009 0.063
-0.013 -0.015 0.083
-0.005 0.021 0.047
0.021 -0.005 0.053
0.021 -0.005 0.055
0.007 -0.011 0.053
0.009 -0.011 0.051
0.011 -0.013 0.055
0.005 -0.011 0.055
0.009 -0.011 0.051
0.005 -0.009 0.049
-0.005 0.015 0.047
-0.007 0.013 0.055
-0.011 0.015 0.055
-0.011 0.011 0.057
0.003 -0.009 0.047
0.007 -0.013 0.059
0.001 -0.013 0.057
0.009 -0.015 0.065
-0.003 0.005 0.063
0.001 -0.013 0.057
0.003 -0.007 0.073
0.005 -0.005 0.077
0.011 -0.013 0.087
0.001 -0.003 0.081
0.003 -0.005 0.083
0.005 -0.007 0.081
0.007 -0.009 0.085
-0.003 0.001 0.077
-0.009 0.003 0.075
-0.009 -0.001 0.079
-0.001 0.001 0.077
0.003 -0.003 0.073
0.003 -0.005 0.069
0.005 -0.009 0.073
-0.011 -0.001 0.081
-0.003 0.001 0.079
0.009 -0.013 0.089
0.005 -0.009 0.087
0.003 -0.009 0.089
0.001 -0.013 0.091
-0.001 -0.011 0.091
0.001 -0.011 0.091
-0.001 -0.015 0.093
-0.011 0.011 0.091
-0.011 0.007 0.103
-0.011 0.009 0.101
-0.013 0.009 0.097
-0.009 0.005 0.095
-0.007 -0.005 0.085
-0.011 0.007 0.103
-0.017 -0.001 0.109
0.035 -0.013 0.037
0.027 -0.009 0.037
0.025 -0.009 0.033
0.027 -0.005 0.059
0.027 -0.005 0.061
0.035 -0.015 0.047
0.037 -0.015 0.045
0.019 -0.019 0.065
0.019 -0.021 0.069
0.035 -0.025 0.061
0.027 -0.029 0.065
0.035 -0.029 0.063
0.031 -0.031 0.067
0.023 -0.003 0.049
0.029 -0.003 0.053
0.019 -0.003 0.047
0.017 -0.003 0.047
0.031 -0.007 0.053
0.031 -0.015 0.047
0.031 -0.017 0.049
0.035 -0.019 0.051
0.037 -0.019 0.051
0.037 -0.019 0.051
0.031 -0.005 0.053
0.031 -0.005 0.053
0.031 -0.005 0.051
0.031 -0.007 0.057
0.031 -0.007 0.057
0.031 -0.017 0.049
0.013 -0.003 0.039
0.011 -0.003 0.041
0.013 -0.003 0.043
0.017 -0.003 0.039
0.019 -0.003 0.039
0.011 0.005 0.037
0.011 0.001 0.039
0.009 -0.001 0.039
0.021 -0.003 0.037
0.019 0.001 0.035
0.017 -0.003 0.039
0.029 -0.011 0.033
0.029 -0.011 0.035
0.029 -0.011 0.039
0.023 -0.003 0.037
0.025 -0.003 0.043
0.019 -0.001 0.037
0.029 -0.005 0.049
0.029 -0.003 0.053
0.019 -0.003 0.047
0.019 -0.009 0.065
0.025 -0.007 0.063
0.021 -0.023 0.067
0.031 -0.023 0.057
0.029 -0.009 0.061
0.029 -0.025 0.061
0.031 -0.025 0.061
0.031 -0.023 0.059
0.033 -0.025 0.061
0.019 -0.021 0.061
0.005 -0.013 0.059
0.001 -0.003 0.063
0.027 -0.005 0.059
0.025 -0.005 0.059
0.029 -0.007 0.061
0.027 -0.009 0.063
0.029 -0.005 0.057
0.037 -0.017 0.037
0.041 -0.027 0.047
0.039 -0.019 0.049
0.033 -0.027 0.063
0.035 -0.023 0.059
0.031 -0.033 0.069
0.029 -0.035 0.071
0.027 -0.033 0.081
0.017 -0.025 0.087
0.017 -0.031 0.085
0.027 -0.033 0.083
0.035 -0.041 0.079
0.035 -0.041 0.079
0.009 -0.015 0.075
0.021 -0.029 0.075
0.005 -0.011 0.073
0.005 -0.009 0.073
0.003 -0.005 0.069
0.009 -0.011 0.079
0.021 -0.011 0.069
0.019 -0.013 0.073
0.007 -0.009 0.087
0.011 -0.013 0.081
0.007 -0.011 0.089
-0.009 0.027 0.049
-0.007 0.027 0.045
-0.003 0.021 0.041
-0.001 0.019 0.039
-0.001 0.023 0.039
-0.011 0.035 0.045
-0.007 0.039 0.043
-0.007 0.037 0.043
-0.005 0.033 0.041
-0.013 0.041 0.043
-0.005 0.033 0.039
-0.015 0.031 0.055
-0.017 0.033 0.051
-0.013 0.025 0.055
-0.015 0.029 0.057
-0.025 0.037 0.049
-0.025 0.037 0.041
-0.021 0.035 0.053
-0.029 0.039 0.051
-0.021 0.031 0.063
-0.019 0.027 0.063
-0.019 0.025 0.061
-0.023 0.031 0.065
-0.025 0.033 0.065
-0.003 0.021 0.043
-0.005 0.029 0.045
-0.001 0.015 0.043
-0.003 0.023 0.041
-0.001 0.003 0.045
-0.007 0.033 0.045
-0.007 0.033 0.045
-0.007 0.039 0.043
-0.007 0.037 0.039
-0.003 0.021 0.043
-0.007 0.031 0.047
-0.017 0.009 0.059
-0.019 0.013 0.057
-0.003 0.013 0.051
-0.001 0.005 0.059
-0.003 0.007 0.061
-0.019 0.027 0.063
-0.013 0.021 0.053
-0.013 0.017 0.055
-0.013 0.031 0.049
-0.011 0.029 0.053
-0.029 0.037 0.043
-0.033 0.037 0.049
-0.033 0.037 0.057
-0.031 0.035 0.061
-0.029 0.035 0.063
-0.023 0.035 0.039
-0.017 0.039 0.041
-0.021 0.037 0.045
-0.019 0.035 0.047
-0.007 0.037 0.037
-0.011 0.043 0.041
-0.009 0.039 0.045
-0.011 0.039 0.043
-0.007 0.037 0.045
-0.029 0.039 0.051
-0.017 0.033 0.053
-0.017 0.033 0.055
-0.031 0.033 0.067
-0.033 0.029 0.071
-0.023 0.027 0.091
-0.027 0.033 0.087
-0.029 0.035 0.089
-0.021 0.029 0.097
-0.025 0.029 0.101
-0.027 0.029 0.101
-0.019 0.007 0.069
-0.017 0.017 0.081
-0.017 0.003 0.075
-0.017 0.005 0.075
-0.015 0.007 0.079
-0.017 0.003 0.077
-0.015 0.005 0.081
-0.003 0.005 0.067
-0.017 0.021 0.067
-0.023 0.031 0.067
-0.017 0.019 0.075
-0.021 0.025 0.073
-0.013 0.013 0.091
-0.017 0.021 0.089
-0.009 0.003 0.095
-0.011 0.009 0.093
-0.013 0.015 0.095
-0.021 0.027 0.091
-0.019 0.027 0.095
-0.019 0.027 0.095
-0.021 0.027 0.099
-0.023 0.033 0.099
-0.021 0.033 0.097
-0.029 0.043 0.089
-0.031 0.047 0.089
-0.033 0.047 0.089
-0.033 0.037 0.089
-0.021 0.033 0.083
-0.025 0.039 0.097
-0.017 0.017 0.105
-0.029 0.019 0.105
-0.023 0.011 0.109
-0.031 0.039 0.105
-0.029 0.029 0.103
-0.021 0.005 0.109
-0.023 0.013 0.107
-0.015 0.015 0.107
-0.013 0.013 0.101
-0.015 0.015 0.101
-0.015 0.017 0.101
-0.023 0.007 0.115
-0.031 0.039 0.105
-0.029 0.043 0.103
-0.037 0.041 0.105
-0.033 0.043 0.105
0.013 0.007 0.037
0.015 0.003 0.037
0.005 0.013 0.035
0.005 0.013 0.037
0.017 0.003 0.037
