-0.025 -0.003 0.031
-0.005 -0.033 0.039
-0.003 -0.035 0.039
-0.007 -0.029 0.043
-0.023 -0.005 0.035
-0.023 -0.007 0.039
-0.005 -0.027 0.045
-0.003 -0.025 0.057
-0.001 -0.029 0.057
-0.021 -0.007 0.059
-0.011 -0.009 0.049
-0.005 -0.017 0.051
-0.003 -0.013 0.061
-0.003 -0.013 0.061
-0.017 -0.011 0.073
-0.017 -0.011 0.073
-0.003 -0.027 0.081
-0.001 -0.027 0.087
-0.009 -0.021 0.085
-0.007 -0.023 0.087
-0.019 -0.001 0.093
-0.011 -0.017 0.085
-0.031 -0.003 0.099
-0.029 -0.007 0.103
-0.021 -0.005 0.109
-0.019 -0.007 0.111
-0.017 -0.009 0.111
-0.015 -0.011 0.111
0.003 -0.035 0.037
0.031 -0.033 0.045
0.001 -0.033 0.041
0.003 -0.035 0.039
0.005 -0.035 0.039
0.009 -0.035 0.039
0.003 -0.033 0.043
-0.001 -0.029 0.047
0.005 -0.033 0.047
0.015 -0.033 0.039
0.029 -0.031 0.051
0.019 -0.031 0.059
0.021 -0.029 0.061
0.003 -0.031 0.057
0.009 -0.031 0.053
0.003 -0.031 0.053
-0.001 -0.011 0.065
0.017 -0.031 0.059
0.017 -0.033 0.063
0.033 -0.033 0.043
0.033 -0.033 0.045
0.035 -0.033 0.049
0.027 -0.033 0.037
0.029 -0.029 0.045
0.035 -0.035 0.055
0.041 -0.029 0.049
0.025 -0.037 0.065
0.025 -0.041 0.079
0.021 -0.039 0.075
0.029 -0.041 0.073
0.003 -0.033 0.073
0.009 -0.035 0.075
0.023 -0.039 0.069
0.025 -0.037 0.067
0.005 -0.033 0.083
0.009 -0.029 0.091
0.017 -0.033 0.083
-0.001 -0.029 0.083
-0.001 -0.029 0.083
-0.029 -0.005 0.033
-0.031 -0.003 0.035
-0.031 -0.003 0.037
-0.033 -0.003 0.035
-0.035 0.001 0.035
-0.041 0.011 0.051
-0.039 0.019 0.059
-0.041 0.025 0.059
-0.031 -0.003 0.037
-0.025 -0.005 0.049
-0.005 -0.005 0.045
-0.005 -0.005 0.045
-0.027 -0.007 0.039
-0.019 -0.007 0.043
-0.017 -0.007 0.043
-0.015 -0.005 0.039
-0.013 -0.011 0.051
-0.021 -0.007 0.053
-0.027 0.005 0.051
-0.021 -0.007 0.059
-0.027 0.011 0.061
-0.021 0.009 0.063
-0.019 -0.009 0.057
-0.035 0.003 0.039
-0.029 0.005 0.047
-0.033 0.013 0.063
-0.033 0.013 0.067
-0.037 0.019 0.069
-0.037 0.019 0.085
-0.039 0.027 0.085
-0.039 0.019 0.095
-0.013 -0.017 0.069
-0.031 0.009 0.071
-0.025 0.007 0.067
-0.017 -0.001 0.081
-0.023 -0.001 0.085
-0.027 -0.007 0.089
-0.027 -0.007 0.093
-0.027 -0.009 0.095
-0.029 -0.007 0.097
-0.017 -0.001 0.091
-0.037 0.029 0.087
-0.039 0.017 0.093
-0.037 0.013 0.099
-0.035 0.005 0.103
-0.029 -0.007 0.101
-0.021 0.001 0.097
-0.019 -0.005 0.107
-0.025 0.003 0.107
-0.013 0.005 0.103
-0.031 -0.003 0.099
-0.041 0.029 0.099
0.001 -0.031 0.045
-0.007 -0.029 0.045
-0.007 -0.027 0.045
-0.005 -0.031 0.041
-0.001 -0.031 0.043
-0.023 -0.007 0.043
-0.011 -0.011 0.051
-0.003 -0.025 0.057
-0.003 -0.021 0.055
-0.017 -0.009 0.051
-0.025 -0.005 0.051
-0.025 -0.005 0.053
-0.003 -0.015 0.055
-0.011 -0.015 0.063
-0.015 -0.015 0.075
-0.001 -0.029 0.081
-0.013 -0.017 0.069
-0.015 -0.015 0.075
-0.001 -0.029 0.083
-0.011 -0.019 0.083
-0.001 -0.019 0.095
-0.029 -0.007 0.089
-0.027 -0.009 0.101
-0.013 -0.005 0.085
-0.011 -0.009 0.087
-0.007 -0.009 0.091
0.019 -0.033 0.039
-0.005 -0.025 0.047
0.003 -0.033 0.063
0.001 -0.033 0.041
0.025 -0.037 0.063
0.011 -0.031 0.047
0.011 -0.031 0.047
0.031 -0.033 0.047
0.029 -0.031 0.047
0.003 -0.031 0.067
-0.005 -0.019 0.049
-0.001 -0.029 0.059
-0.003 -0.021 0.059
0.001 -0.027 0.067
0.001 -0.029 0.065
0.005 -0.035 0.073
-0.001 -0.021 0.061
0.005 -0.033 0.075
0.007 -0.035 0.075
0.003 -0.033 0.071
0.003 -0.019 0.065
0.005 -0.033 0.085
0.001 -0.031 0.085
0.011 -0.037 0.071
0.013 -0.035 0.077
0.021 -0.037 0.075
0.011 -0.037 0.073
0.011 -0.037 0.071
0.013 -0.037 0.075
0.009 -0.035 0.079
0.023 -0.041 0.077
0.029 -0.041 0.085
0.025 -0.033 0.087
0.035 -0.043 0.087
-0.001 -0.029 0.081
0.001 -0.031 0.081
-0.003 -0.027 0.083
0.021 -0.037 0.077
0.017 -0.033 0.083
0.015 -0.033 0.083
0.005 -0.023 0.095
0.007 -0.027 0.093
0.001 -0.019 0.095
0.013 -0.029 0.091
0.009 -0.027 0.093
-0.005 -0.013 0.093
-0.031 -0.001 0.041
-0.021 -0.005 0.063
-0.027 0.013 0.057
-0.033 -0.001 0.035
-0.039 0.009 0.041
-0.041 0.011 0.039
-0.043 0.019 0.041
-0.041 0.011 0.047
-0.043 0.015 0.049
-0.041 0.029 0.049
-0.033 0.013 0.053
-0.041 0.015 0.053
-0.041 0.013 0.053
-0.023 -0.001 0.057
-0.021 0.003 0.073
-0.031 0.007 0.077
-0.029 0.003 0.079
-0.017 0.007 0.063
-0.027 0.005 0.051
-0.025 0.005 0.053
-0.031 0.013 0.055
-0.025 0.013 0.055
-0.029 0.005 0.075
-0.021 0.005 0.069
-0.017 0.003 0.067
-0.017 0.005 0.065
-0.031 0.007 0.077
-0.035 0.011 0.083
-0.029 0.003 0.079
-0.039 0.029 0.061
-0.029 0.003 0.079
-0.035 0.019 0.073
-0.037 0.017 0.067
-0.035 0.011 0.087
-0.035 0.005 0.097
-0.039 0.025 0.085
-0.039 0.019 0.093
-0.037 0.013 0.099
-0.039 0.023 0.097
-0.031 0.009 0.071
-0.019 0.001 0.077
-0.029 -0.007 0.089
-0.031 -0.003 0.095
-0.031 -0.003 0.099
-0.013 -0.005 0.079
-0.031 -0.003 0.099
-0.033 0.001 0.089
-0.027 -0.009 0.103
-0.027 -0.009 0.101
-0.019 -0.001 0.097
-0.033 0.007 0.105
-0.033 0.009 0.105
-0.029 0.009 0.105
-0.031 0.011 0.105
-0.029 0.011 0.105
-0.033 0.015 0.105
-0.041 0.025 0.095
-0.041 0.027 0.097
-0.043 0.033 0.097
-0.045 0.039 0.101
-0.023 0.001 0.109
-0.025 0.005 0.113
-0.019 -0.001 0.111
-0.025 0.021 0.105
-0.035 0.023 0.103
-0.033 0.023 0.105
-0.039 0.033 0.103
-0.043 0.039 0.103
-0.035 0.037 0.107
-0.001 -0.017 0.059
-0.007 -0.019 0.071
0.023 -0.005 0.053
0.007 -0.011 0.053
0.009 -0.011 0.053
-0.013 0.017 0.055
-0.007 0.013 0.055
0.001 -0.013 0.057
-0.001 0.003 0.061
0.001 -0.013 0.057
0.001 0.001 0.065
0.001 0.001 0.065
-0.001 0.003 0.069
-0.007 0.003 0.075
-0.011 0.001 0.077
0.003 -0.005 0.069
-0.003 -0.003 0.083
-0.009 -0.001 0.081
0.001 -0.009 0.089
-0.005 -0.005 0.087
-0.001 -0.005 0.087
-0.013 0.011 0.109
-0.017 0.001 0.109
0.023 -0.003 0.045
0.025 -0.003 0.045
0.023 -0.003 0.043
0.031 -0.013 0.045
0.029 -0.009 0.059
0.039 -0.027 0.055
0.021 -0.005 0.051
0.029 -0.003 0.051
0.029 -0.005 0.047
0.023 -0.005 0.059
0.031 -0.011 0.041
0.029 -0.003 0.049
0.019 -0.003 0.041
0.025 -0.003 0.055
0.025 -0.003 0.041
0.027 -0.003 0.049
0.027 -0.003 0.055
0.019 -0.003 0.047
0.029 -0.007 0.047
0.021 -0.011 0.069
0.005 -0.015 0.063
0.031 -0.025 0.061
0.019 -0.023 0.061
0.031 -0.009 0.053
0.031 -0.005 0.051
0.027 -0.003 0.055
0.029 -0.003 0.055
0.029 -0.005 0.059
0.039 -0.019 0.039
0.035 -0.015 0.047
0.019 -0.025 0.083
0.027 -0.029 0.069
0.031 -0.033 0.069
0.023 -0.033 0.075
0.027 -0.033 0.083
0.031 -0.037 0.089
0.009 -0.017 0.071
0.019 -0.019 0.077
0.001 -0.003 0.069
0.007 -0.009 0.077
0.003 -0.003 0.073
0.025 -0.009 0.065
0.011 -0.021 0.091
0.013 -0.027 0.091
0.011 -0.025 0.093
0.003 -0.017 0.093
0.017 -0.017 0.081
0.033 -0.031 0.065
-0.007 0.025 0.047
-0.003 0.017 0.043
-0.005 0.023 0.045
-0.001 0.023 0.039
-0.001 0.023 0.039
-0.017 0.033 0.051
-0.019 0.029 0.061
-0.023 0.037 0.053
-0.029 0.039 0.047
-0.025 0.033 0.065
-0.021 0.029 0.067
-0.023 0.029 0.071
-0.031 0.035 0.063
-0.001 0.015 0.043
-0.005 0.029 0.043
-0.023 0.035 0.037
-0.001 0.023 0.037
-0.013 0.009 0.061
-0.017 0.019 0.057
-0.019 0.025 0.061
-0.003 0.007 0.061
-0.007 0.021 0.049
-0.011 0.029 0.051
-0.013 0.027 0.055
-0.031 0.037 0.041
-0.035 0.035 0.059
-0.011 0.043 0.043
-0.027 0.025 0.075
-0.031 0.033 0.067
-0.021 0.027 0.101
-0.023 0.031 0.089
-0.025 0.035 0.087
-0.029 0.035 0.089
-0.025 0.039 0.101
-0.019 0.021 0.075
-0.017 0.015 0.071
-0.015 0.009 0.079
-0.009 0.005 0.071
-0.003 0.003 0.073
-0.021 0.029 0.067
-0.023 0.027 0.073
-0.019 0.025 0.091
-0.021 0.031 0.087
-0.017 0.025 0.085
-0.019 0.027 0.097
-0.019 0.027 0.095
-0.017 0.021 0.091
-0.019 0.027 0.089
-0.033 0.049 0.087
-0.031 0.049 0.087
-0.017 0.017 0.105
-0.029 0.041 0.103
-0.019 0.021 0.101
-0.021 0.027 0.101
-0.031 0.043 0.105
-0.029 0.043 0.103
-0.029 0.043 0.103
0.017 0.003 0.035
0.011 0.001 0.039
0.001 0.001 0.061
-0.039 0.035 0.051
-0.035 0.035 0.057
-0.037 0.035 0.053
-0.037 0.035 0.047
-0.041 0.023 0.047
-0.041 0.031 0.049
-0.035 0.037 0.047
-0.033 0.037 0.051
-0.029 0.039 0.051
-0.037 0.029 0.067
-0.035 0.025 0.071
-0.033 0.023 0.075
-0.041 0.043 0.083
-0.039 0.045 0.089
-0.041 0.043 0.089
-0.039 0.049 0.093
-0.031 0.039 0.097
-0.037 0.017 0.087
-0.037 0.017 0.091
-0.043 0.033 0.095
-0.037 0.045 0.089
-0.025 0.021 0.093
-0.039 0.047 0.093
-0.035 0.011 0.103
-0.027 0.037 0.043
-0.035 0.035 0.057
-0.027 0.037 0.057
-0.011 0.029 0.051
-0.025 0.037 0.047
-0.015 0.039 0.043
-0.015 0.031 0.049
-0.011 0.043 0.043
0.023 -0.003 0.041
-0.005 0.007 0.061
-0.031 0.029 0.071
-0.029 0.031 0.069
-0.029 0.033 0.067
-0.023 0.031 0.067
-0.005 0.007 0.063
-0.005 0.007 0.063
0.027 -0.005 0.057
0.027 -0.003 0.047
0.031 -0.011 0.037
-0.027 0.029 0.073
-0.019 0.021 0.075
0.011 -0.013 0.081
0.011 -0.013 0.085
0.003 -0.005 0.083
0.017 -0.011 0.069
-0.021 0.025 0.073
-0.001 0.001 0.071
-0.039 0.045 0.085
-0.005 0.005 0.067
0.019 -0.011 0.071
-0.039 0.045 0.091
-0.027 0.039 0.095
0.005 -0.007 0.083
0.009 -0.011 0.083
-0.027 0.047 0.085
0.005 -0.013 0.091
-0.035 0.033 0.037
-0.037 0.029 0.035
-0.035 0.033 0.037
-0.041 0.021 0.041
-0.039 0.029 0.039
-0.037 0.031 0.037
-0.041 0.021 0.055
-0.041 0.031 0.053
-0.019 0.033 0.049
-0.031 0.033 0.035
-0.023 0.031 0.033
-0.035 0.035 0.061
-0.021 0.033 0.059
-0.007 0.011 0.057
-0.023 0.033 0.061
-0.019 0.033 0.053
-0.017 0.033 0.055
-0.015 0.031 0.053
-0.037 0.035 0.041
-0.033 0.037 0.057
-0.029 0.035 0.035
-0.011 0.041 0.035
-0.037 0.025 0.069
-0.037 0.027 0.069
-0.035 0.029 0.069
-0.035 0.027 0.071
-0.035 0.007 0.093
-0.043 0.029 0.095
-0.037 0.017 0.091
-0.043 0.035 0.095
-0.041 0.037 0.095
-0.041 0.037 0.095
-0.029 0.029 0.073
-0.027 0.021 0.079
-0.027 0.021 0.079
-0.021 0.023 0.077
-0.027 0.029 0.071
-0.003 0.005 0.065
-0.017 0.017 0.079
-0.021 0.029 0.065
-0.023 0.031 0.067
-0.021 0.027 0.069
-0.037 0.049 0.093
-0.037 0.049 0.091
-0.029 0.039 0.095
-0.031 0.041 0.097
-0.033 0.043 0.083
-0.033 0.049 0.085
-0.033 0.049 0.087
-0.031 0.029 0.095
-0.033 0.049 0.087
-0.041 0.041 0.103
-0.027 0.011 0.109
-0.027 0.009 0.111
-0.029 0.041 0.099
-0.031 0.043 0.101
-0.033 0.043 0.101
-0.037 0.041 0.101
-0.013 0.035 0.045
-0.011 0.031 0.047
-0.007 0.037 0.045
