0.003 -0.003 0.071
-0.007 -0.001 0.081
0.017 -0.011 0.065
0.027 -0.027 0.063
0.037 -0.031 0.061
0.005 -0.005 0.043
0.005 -0.001 0.037
0.027 -0.005 0.057
0.031 -0.007 0.057
0.041 -0.023 0.045
0.037 -0.025 0.059
0.023 -0.033 0.075
0.007 -0.011 0.089
0.009 -0.011 0.079
0.021 -0.011 0.069
-0.037 0.035 0.059
-0.019 0.025 0.069
-0.003 0.013 0.051
-0.019 0.029 0.083
-0.021 0.031 0.061
-0.021 0.031 0.087
-0.015 0.017 0.085
-0.009 0.003 0.089
-0.031 0.039 0.089
-0.025 0.017 0.105
-0.031 0.037 0.105
0.003 0.013 0.043
-0.001 -0.025 0.063
-0.009 -0.013 0.055
-0.001 -0.025 0.075
0.009 -0.035 0.035
0.005 -0.033 0.049
0.025 -0.033 0.037
-0.003 -0.013 0.039
-0.005 -0.021 0.045
0.001 -0.033 0.043
0.001 -0.027 0.067
0.035 -0.033 0.049
0.025 -0.039 0.071
0.007 -0.029 0.091
-0.003 -0.023 0.091
-0.037 0.005 0.037
-0.045 0.017 0.039
-0.043 0.015 0.041
-0.041 0.025 0.057
-0.021 0.011 0.061
-0.041 0.011 0.045
-0.031 0.007 0.075
-0.017 -0.011 0.073
-0.033 0.005 0.095
-0.035 0.005 0.099
-0.015 -0.011 0.051
0.005 -0.033 0.061
0.015 -0.035 0.077
0.029 -0.043 0.081
0.021 -0.033 0.037
0.027 -0.031 0.043
0.029 -0.033 0.039
0.037 -0.031 0.047
0.041 -0.021 0.047
0.037 -0.031 0.061
0.037 -0.043 0.079
0.031 -0.037 0.061
0.035 -0.035 0.059
0.031 -0.037 0.063
0.013 -0.037 0.071
0.033 -0.043 0.075
0.029 -0.043 0.079
0.017 -0.031 0.089
0.035 -0.043 0.085
0.037 -0.043 0.079
-0.025 0.003 0.101
-0.009 -0.001 0.097
0.037 -0.027 0.039
0.005 -0.033 0.085
-0.005 -0.019 0.091
0.005 -0.015 0.091
0.017 -0.025 0.085
0.031 -0.037 0.089
0.013 -0.007 0.051
0.033 -0.023 0.059
0.013 -0.037 0.075
0.035 -0.043 0.087
0.015 -0.017 0.087
0.013 -0.031 0.089
-0.019 -0.007 0.111
-0.007 0.015 0.051
-0.017 0.001 0.091
-0.009 -0.001 0.101
-0.017 0.021 0.057
-0.005 0.029 0.045
-0.029 0.017 0.105
-0.009 0.001 0.077
-0.027 0.017 0.105
-0.033 0.029 0.103
-0.033 0.027 0.105
-0.025 0.007 0.115
-0.017 0.001 0.109
-0.025 0.011 0.111
-0.039 0.035 0.105
0.005 0.013 0.037
0.003 0.015 0.041
-0.021 -0.003 0.061
-0.027 -0.009 0.097
-0.029 -0.005 0.099
0.005 -0.035 0.073
-0.003 -0.023 0.055
0.009 -0.035 0.083
0.027 -0.037 0.087
0.033 -0.041 0.087
0.011 -0.029 0.093
-0.039 0.029 0.061
-0.035 0.015 0.065
-0.033 0.013 0.067
-0.039 0.033 0.049
-0.033 0.025 0.073
-0.037 0.011 0.095
-0.037 0.017 0.087
-0.037 0.029 0.101
-0.035 0.003 0.107
-0.017 0.001 0.109
-0.017 0.001 0.067
-0.017 0.037 0.043
-0.001 0.005 0.053
0.001 -0.001 0.077
-0.003 -0.007 0.089
-0.013 0.013 0.091
-0.019 0.019 0.103
0.033 -0.029 0.065
0.007 0.003 0.037
0.023 -0.005 0.055
0.039 -0.019 0.049
0.009 -0.011 0.087
-0.025 0.035 0.035
-0.035 0.037 0.047
-0.017 0.011 0.057
-0.017 0.031 0.057
-0.021 0.031 0.061
-0.013 0.029 0.055
-0.013 0.041 0.037
-0.031 0.019 0.079
-0.035 0.031 0.067
-0.027 0.041 0.099
-0.001 0.001 0.073
-0.019 0.027 0.085
0.031 -0.009 0.053
0.001 0.007 0.043
-0.009 0.005 0.089
-0.017 -0.005 0.107
0.037 -0.017 0.035
0.037 -0.017 0.049
0.019 -0.027 0.059
0.013 -0.003 0.041
0.029 -0.011 0.041
0.029 -0.005 0.045
0.019 -0.021 0.067
0.017 -0.025 0.057
0.023 -0.009 0.065
0.015 -0.017 0.087
0.001 0.017 0.039
-0.019 0.037 0.043
-0.001 0.009 0.049
-0.025 0.021 0.079
-0.019 0.027 0.083
-0.015 0.017 0.083
-0.027 0.045 0.085
-0.019 0.021 0.101
0.005 0.011 0.039
0.005 0.013 0.037
-0.029 0.035 0.063
-0.017 0.031 0.057
-0.005 0.011 0.053
-0.009 0.007 0.067
-0.003 -0.011 0.091
-0.009 0.003 0.087
0.011 -0.003 0.045
0.011 -0.013 0.051
0.019 -0.005 0.043
0.001 0.013 0.045
-0.039 0.031 0.061
-0.041 0.031 0.055
-0.027 0.037 0.047
-0.005 0.015 0.047
-0.009 0.039 0.045
-0.013 0.041 0.035
-0.031 0.031 0.089
-0.023 0.029 0.103
-0.015 0.019 0.091
-0.037 0.047 0.087
-0.025 0.009 0.113
-0.021 0.027 0.103
-0.033 0.043 0.103
0.019 -0.013 0.073
-0.003 -0.013 0.065
-0.001 -0.007 0.059
-0.015 -0.005 0.111
0.037 -0.033 0.051
0.039 -0.031 0.051
0.039 -0.025 0.039
0.033 -0.037 0.083
0.033 -0.039 0.077
0.037 -0.043 0.081
0.021 -0.023 0.079
0.011 -0.029 0.093
0.003 -0.005 0.083
0.001 0.011 0.045
-0.003 0.017 0.043
-0.001 -0.001 0.051
-0.007 0.011 0.057
0.003 0.011 0.043
-0.009 0.035 0.045
-0.015 0.035 0.045
-0.025 0.033 0.065
-0.021 0.025 0.073
-0.009 0.003 0.095
-0.017 0.005 0.075
-0.017 0.005 0.075
-0.001 0.001 0.077
-0.001 0.003 0.067
-0.019 0.023 0.073
-0.019 0.029 0.085
-0.019 0.023 0.091
-0.021 0.029 0.087
-0.013 0.013 0.107
0.001 0.021 0.037
-0.027 -0.003 0.043
-0.011 -0.007 0.089
-0.017 -0.009 0.075
-0.003 -0.027 0.087
0.007 -0.033 0.087
0.031 -0.029 0.067
0.033 -0.029 0.065
-0.015 -0.013 0.113
0.007 -0.015 0.091
-0.035 0.007 0.097
-0.039 0.023 0.103
-0.043 0.029 0.097
-0.021 0.001 0.109
-0.023 0.003 0.109
-0.033 0.001 0.107
-0.041 0.031 0.099
-0.023 0.001 0.109
-0.039 0.035 0.105
0.031 -0.037 0.063
0.037 -0.027 0.059
0.019 -0.019 0.067
0.009 -0.015 0.091
-0.015 -0.009 0.111
0.023 -0.013 0.063
0.013 -0.037 0.071
0.035 -0.043 0.077
0.035 -0.041 0.075
0.035 -0.043 0.079
0.019 -0.021 0.067
0.025 -0.005 0.039
0.041 -0.021 0.047
0.041 -0.021 0.045
0.037 -0.023 0.057
0.001 -0.003 0.079
-0.015 0.017 0.091
-0.027 0.043 0.087
-0.023 0.035 0.099
0.015 0.007 0.037
0.019 0.001 0.033
-0.013 -0.015 0.063
-0.011 -0.009 0.087
-0.017 -0.007 0.113
-0.007 -0.025 0.045
-0.005 -0.017 0.043
-0.001 -0.029 0.053
0.011 -0.037 0.071
0.021 -0.037 0.075
0.023 -0.037 0.083
-0.015 -0.015 0.075
-0.009 -0.019 0.087
-0.005 -0.017 0.091
-0.041 0.013 0.045
-0.045 0.015 0.039
-0.047 0.023 0.041
-0.029 0.005 0.049
-0.041 0.017 0.047
-0.031 0.015 0.057
-0.039 0.029 0.039
-0.041 0.019 0.053
-0.041 0.027 0.055
-0.031 -0.001 0.087
-0.033 0.003 0.101
-0.037 0.015 0.095
-0.037 0.013 0.097
-0.041 0.043 0.089
-0.021 -0.003 0.059
-0.017 -0.011 0.067
-0.007 -0.027 0.041
-0.003 -0.021 0.039
-0.027 0.001 0.047
-0.003 -0.027 0.053
-0.005 -0.021 0.051
-0.019 -0.009 0.057
-0.001 -0.019 0.061
0.003 -0.033 0.067
0.003 -0.027 0.071
-0.011 -0.019 0.075
-0.003 -0.027 0.081
-0.001 -0.019 0.095
-0.003 -0.021 0.091
-0.035 0.031 0.035
-0.041 0.027 0.045
-0.035 0.037 0.055
-0.037 0.033 0.061
-0.033 0.033 0.035
-0.019 0.037 0.033
-0.011 0.043 0.039
-0.033 0.005 0.095
-0.029 0.007 0.073
-0.029 0.003 0.081
-0.035 0.011 0.087
-0.033 0.009 0.089
-0.043 0.041 0.085
-0.037 0.017 0.101
-0.031 -0.003 0.037
-0.005 -0.033 0.041
-0.003 -0.027 0.085
-0.011 -0.019 0.081
-0.027 -0.007 0.089
-0.029 -0.007 0.093
0.005 -0.033 0.037
0.001 -0.031 0.045
0.015 -0.033 0.061
0.009 -0.035 0.075
0.029 -0.043 0.079
0.029 -0.043 0.079
0.037 -0.043 0.081
0.017 -0.035 0.079
-0.005 -0.025 0.079
0.003 -0.023 0.093
-0.039 0.009 0.039
-0.007 -0.007 0.045
-0.023 -0.005 0.051
-0.033 0.013 0.053
-0.033 0.011 0.073
-0.031 0.007 0.079
-0.027 0.003 0.077
-0.017 -0.001 0.083
-0.029 -0.007 0.103
-0.021 -0.005 0.109
-0.029 -0.007 0.103
-0.039 0.029 0.099
-0.001 -0.035 0.039
0.001 -0.035 0.039
0.001 -0.031 0.061
-0.021 -0.007 0.053
0.003 -0.031 0.055
-0.003 -0.027 0.083
-0.025 -0.003 0.091
0.021 -0.035 0.031
0.011 -0.035 0.033
0.033 -0.021 0.031
0.013 -0.031 0.045
0.019 -0.033 0.039
0.005 -0.031 0.055
0.013 -0.029 0.053
0.031 -0.037 0.061
0.039 -0.031 0.051
0.041 -0.027 0.053
0.009 -0.035 0.065
0.013 -0.035 0.079
-0.025 -0.005 0.035
-0.037 0.009 0.051
-0.037 0.013 0.055
-0.021 -0.001 0.035
0.005 -0.033 0.049
0.007 -0.033 0.047
-0.013 -0.013 0.057
-0.021 -0.005 0.039
-0.003 -0.027 0.053
0.003 -0.033 0.065
-0.007 -0.023 0.081
-0.013 -0.015 0.083
-0.025 -0.003 0.093
-0.011 0.001 0.099
-0.015 0.005 0.101
0.015 -0.035 0.035
-0.007 -0.025 0.045
-0.015 -0.011 0.051
-0.005 -0.017 0.051
-0.015 -0.015 0.069
-0.009 -0.021 0.075
-0.009 -0.021 0.079
-0.029 -0.005 0.103
0.025 -0.031 0.041
0.007 -0.035 0.067
0.011 -0.037 0.075
0.009 -0.035 0.077
0.029 -0.037 0.089
-0.041 0.011 0.039
-0.037 0.007 0.039
-0.021 -0.007 0.061
-0.033 0.003 0.091
-0.013 -0.013 0.083
-0.043 0.029 0.095
-0.033 0.001 0.101
-0.035 0.011 0.099
-0.037 0.023 0.103
-0.033 0.013 0.071
-0.041 0.011 0.047
-0.039 0.021 0.057
-0.049 0.025 0.037
-0.033 0.035 0.037
-0.029 0.039 0.051
-0.035 0.015 0.071
-0.043 0.041 0.087
-0.043 0.037 0.103
-0.041 0.039 0.099
-0.045 0.039 0.101
-0.043 0.041 0.101
-0.033 0.039 0.099
-0.005 0.015 0.047
-0.001 0.009 0.047
-0.001 0.007 0.049
-0.001 0.001 0.049
-0.003 0.003 0.073
0.001 -0.007 0.063
-0.011 0.009 0.095
-0.009 -0.001 0.081
0.023 -0.007 0.061
0.037 -0.017 0.049
-0.003 0.029 0.035
-0.003 0.025 0.037
-0.031 0.031 0.069
-0.015 0.005 0.067
-0.011 0.009 0.095
-0.025 0.031 0.089
-0.015 0.019 0.087
-0.033 0.043 0.091
-0.023 0.015 0.105
0.017 0.005 0.035
0.015 0.007 0.037
-0.003 -0.035 0.039
-0.003 -0.025 0.089
-0.001 -0.015 0.095
0.029 -0.037 0.089
0.025 -0.035 0.087
0.039 -0.031 0.047
0.013 -0.023 0.089
0.009 -0.013 0.089
-0.005 -0.019 0.091
0.017 -0.019 0.083
-0.007 0.037 0.045
-0.017 0.007 0.075
0.007 -0.013 0.091
-0.009 0.005 0.097
-0.011 0.007 0.103
-0.013 0.011 0.103
-0.029 0.019 0.105
-0.031 0.001 0.107
-0.031 0.001 0.105
-0.023 0.001 0.109
-0.029 0.029 0.103
0.011 -0.013 0.051
0.011 -0.015 0.061
0.017 -0.005 0.051
0.019 -0.009 0.063
0.015 -0.015 0.049
0.021 -0.007 0.061
0.029 -0.005 0.061
0.037 -0.015 0.045
0.023 -0.037 0.083
-0.001 -0.015 0.095
0.019 -0.019 0.079
-0.001 -0.003 0.083
0.001 -0.003 0.081
-0.039 0.035 0.049
-0.039 0.035 0.049
-0.011 0.023 0.053
-0.023 0.037 0.041
-0.037 0.041 0.101
-0.003 0.007 0.059
-0.011 0.017 0.053
-0.025 0.037 0.041
-0.029 0.039 0.047
-0.043 0.035 0.101
-0.043 0.039 0.103
-0.023 0.029 0.099
-0.003 0.005 0.067
-0.035 0.037 0.089
-0.033 0.039 0.105
0.001 0.015 0.043
-0.035 0.037 0.055
-0.025 0.037 0.055
-0.023 0.037 0.047
-0.007 0.025 0.049
0.017 0.005 0.035
0.023 -0.003 0.037
0.011 -0.005 0.049
0.019 -0.009 0.063
0.019 -0.003 0.041
0.001 -0.001 0.073
0.011 -0.013 0.085
-0.019 0.025 0.091
-0.037 0.029 0.035
-0.037 0.035 0.041
-0.013 0.041 0.043
-0.013 0.031 0.051
-0.043 0.037 0.085
-0.037 0.049 0.091
-0.031 0.041 0.097
-0.035 0.047 0.087
-0.025 0.021 0.093
-0.043 0.041 0.085
-0.039 0.041 0.103
-0.043 0.039 0.099
-0.033 0.043 0.101
