-0.035 0.001 0.037
-0.009 -0.031 0.041
-0.005 -0.019 0.043
-0.005 -0.019 0.041
-0.031 -0.001 0.041
-0.033 0.003 0.041
-0.025 -0.001 0.049
-0.025 -0.005 0.051
-0.021 -0.007 0.053
-0.023 -0.003 0.053
-0.023 0.003 0.055
-0.003 -0.023 0.057
-0.019 -0.003 0.065
-0.019 0.001 0.065
-0.013 -0.017 0.077
-0.019 -0.001 0.067
-0.017 -0.007 0.069
-0.017 -0.005 0.073
-0.017 -0.007 0.073
-0.017 -0.005 0.075
-0.035 0.009 0.099
-0.033 0.003 0.095
-0.033 0.003 0.097
-0.033 0.001 0.107
-0.031 -0.003 0.101
-0.033 0.001 0.101
-0.017 -0.005 0.111
-0.021 -0.007 0.059
-0.019 0.001 0.065
-0.023 0.003 0.055
-0.021 0.005 0.059
0.001 -0.033 0.043
-0.003 -0.027 0.053
-0.015 -0.015 0.067
-0.005 -0.023 0.047
-0.005 -0.017 0.039
-0.001 -0.029 0.047
-0.017 -0.013 0.067
-0.033 0.013 0.071
-0.035 0.015 0.073
-0.033 0.007 0.085
-0.033 0.007 0.087
-0.003 -0.021 0.059
0.001 -0.029 0.063
-0.029 -0.007 0.089
-0.013 -0.015 0.081
-0.011 -0.015 0.085
-0.017 -0.003 0.069
-0.017 -0.003 0.069
-0.017 -0.003 0.071
-0.031 0.007 0.075
-0.031 -0.001 0.085
-0.035 0.011 0.085
-0.035 0.011 0.089
-0.039 0.017 0.093
-0.037 0.013 0.097
-0.035 0.011 0.099
-0.017 -0.009 0.073
-0.031 0.003 0.083
-0.031 -0.003 0.091
-0.033 0.001 0.099
0.003 -0.033 0.071
0.023 -0.039 0.081
0.005 -0.027 0.091
0.025 -0.033 0.087
0.023 -0.039 0.083
0.023 -0.037 0.085
0.027 -0.039 0.087
-0.031 -0.001 0.091
-0.007 -0.023 0.085
-0.007 -0.019 0.089
-0.029 -0.007 0.101
-0.001 -0.025 0.091
-0.001 -0.017 0.095
-0.001 -0.019 0.095
-0.041 0.011 0.039
-0.041 0.017 0.055
-0.041 0.025 0.055
-0.041 0.029 0.057
-0.017 0.039 0.037
-0.039 0.009 0.037
-0.035 0.005 0.045
-0.047 0.023 0.041
-0.047 0.023 0.041
-0.039 0.033 0.041
-0.041 0.021 0.041
-0.041 0.011 0.051
-0.039 0.017 0.057
-0.043 0.019 0.049
-0.039 0.031 0.061
-0.039 0.021 0.057
-0.037 0.023 0.067
-0.033 0.037 0.057
-0.037 0.027 0.067
-0.037 0.017 0.067
-0.033 0.013 0.071
-0.033 0.015 0.075
-0.033 0.033 0.065
-0.037 0.035 0.043
-0.037 0.035 0.059
-0.037 0.033 0.063
-0.035 0.037 0.053
-0.033 0.037 0.057
-0.033 0.037 0.057
-0.029 0.039 0.051
-0.033 0.035 0.063
-0.031 0.037 0.059
-0.033 0.021 0.075
-0.037 0.021 0.081
-0.037 0.025 0.087
-0.037 0.019 0.089
-0.039 0.021 0.095
-0.037 0.025 0.099
-0.033 0.007 0.087
-0.035 0.015 0.083
-0.033 0.009 0.091
-0.039 0.023 0.083
-0.039 0.027 0.085
-0.039 0.029 0.081
-0.039 0.029 0.083
-0.039 0.029 0.085
-0.035 0.009 0.103
-0.035 0.005 0.099
-0.037 0.021 0.103
-0.041 0.027 0.097
-0.039 0.023 0.097
-0.043 0.031 0.099
-0.043 0.035 0.099
-0.039 0.023 0.101
-0.043 0.029 0.097
-0.043 0.045 0.083
-0.043 0.043 0.087
-0.039 0.037 0.089
-0.041 0.043 0.089
-0.039 0.045 0.093
-0.039 0.049 0.091
-0.031 0.039 0.089
-0.043 0.041 0.103
-0.035 0.013 0.101
-0.039 0.031 0.101
-0.037 0.031 0.103
-0.033 0.005 0.107
-0.027 0.011 0.109
-0.027 0.011 0.107
-0.029 0.023 0.105
-0.033 0.027 0.105
-0.033 0.029 0.103
-0.029 0.019 0.105
-0.039 0.025 0.063
-0.039 0.025 0.065
-0.037 0.023 0.069
-0.039 0.029 0.063
0.033 -0.015 0.047
0.031 -0.017 0.049
0.031 -0.009 0.053
0.003 0.009 0.041
0.003 0.011 0.041
-0.001 0.003 0.047
0.017 -0.005 0.049
-0.001 0.001 0.047
0.025 -0.011 0.065
-0.001 -0.005 0.057
-0.005 0.003 0.071
0.003 -0.005 0.071
0.001 -0.003 0.079
0.001 -0.003 0.081
0.009 -0.015 0.091
-0.001 -0.001 0.081
-0.001 -0.005 0.087
-0.015 -0.007 0.109
-0.015 -0.005 0.111
-0.017 0.001 0.109
-0.017 -0.003 0.109
0.031 -0.011 0.037
0.039 -0.019 0.037
0.037 -0.015 0.037
0.025 -0.009 0.033
0.029 -0.011 0.033
0.039 -0.019 0.045
0.035 -0.017 0.049
0.033 -0.019 0.053
0.041 -0.027 0.047
0.021 -0.029 0.061
0.033 -0.013 0.045
0.037 -0.015 0.043
0.039 -0.021 0.037
0.035 -0.013 0.037
0.037 -0.017 0.047
0.041 -0.021 0.047
0.033 -0.013 0.045
0.029 -0.015 0.047
0.033 -0.015 0.047
0.027 -0.003 0.043
0.017 0.005 0.037
0.013 -0.003 0.039
0.019 0.001 0.035
0.015 -0.005 0.051
0.033 -0.013 0.037
0.029 -0.009 0.047
0.019 -0.021 0.065
0.037 -0.023 0.055
0.035 -0.023 0.059
0.017 -0.019 0.061
0.029 -0.003 0.053
0.001 -0.007 0.063
0.031 -0.011 0.055
0.037 -0.017 0.047
0.041 -0.029 0.049
0.037 -0.017 0.049
0.037 -0.017 0.049
0.037 -0.019 0.051
0.037 -0.021 0.055
0.037 -0.031 0.059
0.037 -0.027 0.061
0.021 -0.029 0.067
0.025 -0.031 0.071
0.031 -0.037 0.079
0.033 -0.041 0.077
0.029 -0.035 0.081
0.021 -0.033 0.077
0.027 -0.033 0.083
0.031 -0.035 0.081
0.033 -0.037 0.085
0.021 -0.011 0.069
0.001 -0.013 0.069
0.003 -0.013 0.071
0.001 -0.005 0.065
0.003 -0.003 0.077
0.019 -0.021 0.083
0.017 -0.021 0.087
0.013 -0.027 0.091
0.009 -0.025 0.095
0.007 -0.021 0.093
0.019 -0.023 0.083
0.007 -0.009 0.083
0.007 -0.009 0.087
0.007 -0.013 0.091
0.005 0.011 0.037
-0.003 0.025 0.039
0.005 0.013 0.037
0.005 0.013 0.037
0.005 0.015 0.035
-0.007 0.037 0.033
-0.005 0.019 0.047
-0.007 0.037 0.045
-0.007 0.037 0.045
-0.007 0.037 0.043
-0.011 0.029 0.051
-0.021 0.035 0.051
-0.021 0.029 0.063
-0.005 0.015 0.047
-0.007 0.015 0.051
0.003 0.009 0.041
0.003 0.011 0.041
-0.003 0.001 0.041
0.001 0.013 0.045
-0.005 0.027 0.039
-0.003 0.025 0.037
-0.003 0.025 0.037
-0.003 0.031 0.037
-0.005 0.033 0.037
-0.005 0.031 0.039
-0.009 0.027 0.047
-0.005 0.027 0.043
-0.009 0.017 0.053
-0.015 0.017 0.055
-0.019 0.019 0.063
-0.007 0.007 0.065
-0.003 0.007 0.061
-0.007 0.011 0.057
-0.021 0.031 0.063
-0.007 0.025 0.049
-0.015 0.019 0.055
-0.011 0.027 0.053
-0.029 0.037 0.055
-0.029 0.035 0.061
-0.009 0.039 0.045
-0.013 0.041 0.035
-0.009 0.039 0.045
-0.005 0.033 0.041
-0.021 0.035 0.049
-0.027 0.037 0.057
-0.015 0.019 0.087
-0.017 0.021 0.095
-0.019 0.029 0.085
-0.023 0.029 0.093
-0.019 0.025 0.095
-0.021 0.029 0.097
-0.009 0.007 0.067
-0.017 0.015 0.069
-0.015 0.009 0.077
-0.015 0.011 0.079
-0.019 0.019 0.079
-0.007 0.007 0.065
-0.003 0.003 0.073
-0.001 0.001 0.077
-0.023 0.029 0.071
-0.019 0.025 0.071
-0.011 0.007 0.093
-0.009 0.003 0.089
-0.009 0.005 0.089
-0.009 0.005 0.093
-0.013 0.015 0.095
-0.017 0.021 0.083
-0.017 0.021 0.085
-0.019 0.025 0.083
-0.019 0.027 0.085
-0.019 0.023 0.091
-0.023 0.033 0.095
-0.025 0.039 0.085
-0.029 0.047 0.087
-0.033 0.047 0.089
-0.031 0.047 0.089
-0.037 0.049 0.093
-0.025 0.037 0.087
-0.021 0.033 0.083
-0.027 0.047 0.085
-0.027 0.037 0.089
-0.023 0.033 0.095
-0.025 0.037 0.095
-0.031 0.049 0.087
-0.023 0.037 0.099
-0.023 0.037 0.099
-0.013 0.011 0.103
-0.009 0.005 0.101
-0.013 0.011 0.101
-0.015 0.015 0.105
-0.009 0.003 0.103
-0.013 0.009 0.103
-0.031 0.041 0.103
-0.029 0.041 0.103
-0.029 0.043 0.101
-0.031 0.043 0.101
-0.029 0.043 0.103
0.015 0.007 0.037
0.005 0.011 0.035
-0.005 -0.035 0.037
-0.005 -0.037 0.037
-0.001 -0.031 0.043
-0.025 -0.005 0.049
-0.021 -0.007 0.043
-0.019 -0.007 0.043
-0.005 -0.033 0.041
-0.009 -0.005 0.041
-0.009 -0.005 0.041
-0.007 -0.003 0.041
-0.003 -0.027 0.055
-0.025 -0.005 0.053
-0.019 -0.009 0.057
-0.021 -0.007 0.059
-0.013 -0.015 0.061
-0.001 -0.009 0.059
-0.003 -0.013 0.061
-0.013 -0.017 0.071
-0.003 -0.023 0.075
-0.017 -0.013 0.067
-0.017 -0.011 0.073
-0.003 -0.015 0.067
-0.013 -0.017 0.075
-0.015 -0.013 0.079
-0.019 -0.003 0.091
-0.019 -0.001 0.095
-0.011 -0.019 0.083
-0.003 -0.023 0.091
-0.007 -0.019 0.089
-0.021 -0.003 0.107
0.007 -0.035 0.039
0.025 -0.033 0.059
0.011 -0.033 0.041
0.011 -0.029 0.049
0.029 -0.031 0.047
0.017 -0.023 0.049
0.023 -0.021 0.047
-0.001 -0.033 0.041
0.009 -0.035 0.037
-0.001 -0.033 0.041
0.017 -0.035 0.037
0.019 -0.027 0.041
0.015 -0.025 0.049
0.017 -0.023 0.049
0.021 -0.023 0.045
0.025 -0.023 0.047
0.013 -0.025 0.049
0.021 -0.023 0.045
0.011 -0.029 0.051
0.011 -0.033 0.057
0.001 -0.031 0.061
0.001 -0.027 0.065
0.027 -0.027 0.053
0.017 -0.033 0.063
0.027 -0.035 0.059
-0.003 -0.027 0.053
0.009 -0.031 0.055
0.009 -0.031 0.055
-0.001 -0.009 0.061
0.019 -0.027 0.055
0.019 -0.031 0.059
0.015 -0.035 0.067
0.021 -0.035 0.065
0.031 -0.031 0.041
0.013 -0.035 0.067
0.013 -0.037 0.071
0.007 -0.035 0.077
0.031 -0.043 0.077
0.019 -0.035 0.079
0.009 -0.035 0.083
0.025 -0.039 0.083
0.033 -0.035 0.065
0.033 -0.033 0.067
0.033 -0.043 0.081
0.031 -0.043 0.081
0.001 -0.025 0.073
0.005 -0.033 0.075
0.011 -0.035 0.077
0.025 -0.037 0.067
0.015 -0.035 0.079
-0.001 -0.019 0.071
0.011 -0.037 0.073
-0.001 -0.025 0.091
-0.015 -0.001 0.035
-0.009 0.001 0.035
-0.021 -0.005 0.039
-0.037 0.007 0.033
-0.033 0.003 0.043
-0.037 0.007 0.045
-0.051 0.017 0.037
-0.037 0.005 0.037
-0.043 0.015 0.037
-0.037 0.005 0.037
-0.039 0.009 0.051
-0.041 0.023 0.057
-0.037 0.017 0.057
-0.023 -0.005 0.037
-0.023 -0.005 0.037
-0.005 -0.001 0.039
-0.017 -0.003 0.037
-0.011 -0.005 0.039
-0.005 -0.019 0.051
-0.005 -0.009 0.051
-0.027 -0.007 0.039
-0.013 -0.007 0.043
-0.015 -0.009 0.049
-0.015 -0.011 0.051
-0.015 -0.011 0.051
-0.021 0.011 0.061
-0.023 0.011 0.063
-0.023 0.011 0.061
-0.005 -0.009 0.053
-0.017 -0.013 0.063
-0.017 -0.013 0.065
-0.015 -0.013 0.063
-0.003 -0.011 0.059
-0.023 -0.001 0.057
-0.021 -0.007 0.059
-0.021 0.011 0.061
-0.037 0.007 0.045
-0.039 0.009 0.051
-0.041 0.013 0.053
-0.039 0.011 0.053
-0.031 -0.001 0.039
-0.029 0.003 0.043
-0.019 -0.007 0.043
-0.023 -0.007 0.043
-0.033 0.015 0.055
-0.033 0.011 0.075
-0.035 0.015 0.073
-0.035 0.015 0.073
-0.033 0.009 0.083
-0.033 0.009 0.083
-0.037 0.019 0.083
-0.035 0.011 0.091
-0.013 -0.015 0.067
-0.019 0.005 0.069
-0.019 0.001 0.075
-0.031 -0.001 0.085
-0.031 -0.003 0.089
-0.011 -0.009 0.087
-0.011 0.001 0.095
-0.027 0.001 0.083
-0.029 -0.001 0.085
-0.029 -0.007 0.097
-0.027 -0.005 0.091
-0.027 -0.005 0.091
-0.041 0.031 0.083
-0.041 0.031 0.083
-0.039 0.031 0.087
-0.039 0.031 0.087
-0.041 0.035 0.087
-0.039 0.033 0.089
-0.037 0.021 0.087
-0.037 0.017 0.087
-0.031 -0.001 0.087
-0.027 -0.007 0.087
-0.035 0.005 0.099
-0.033 0.003 0.105
-0.039 0.029 0.099
-0.027 -0.009 0.103
-0.017 0.005 0.099
-0.025 0.003 0.105
-0.019 -0.001 0.105
-0.027 0.007 0.105
-0.011 0.001 0.101
-0.015 0.005 0.101
-0.019 -0.001 0.097
-0.019 0.005 0.101
-0.029 -0.005 0.099
-0.029 -0.007 0.101
-0.029 -0.007 0.103
-0.023 0.005 0.113
-0.035 0.005 0.099
-0.001 -0.035 0.039
0.009 -0.033 0.041
