-0.031 0.015 0.105
-0.007 -0.015 0.089
-0.005 -0.009 0.091
-0.005 -0.007 0.087
-0.003 -0.015 0.095
-0.009 -0.011 0.091
-0.005 -0.009 0.089
-0.029 0.011 0.105
-0.027 0.013 0.107
-0.025 0.015 0.105
-0.031 0.013 0.105
-0.021 0.015 0.105
-0.019 0.015 0.105
-0.023 0.015 0.105
-0.025 0.011 0.111
-0.027 0.011 0.109
-0.029 0.011 0.105
-0.021 0.009 0.109
-0.003 -0.001 0.081
-0.013 0.011 0.109
-0.017 0.013 0.107
-0.011 0.011 0.093
-0.003 -0.001 0.081
-0.005 -0.003 0.083
-0.003 -0.003 0.083
-0.005 -0.013 0.093
-0.003 -0.015 0.095
-0.005 -0.013 0.093
-0.007 -0.009 0.091
-0.005 -0.007 0.087
-0.003 -0.013 0.093
-0.003 -0.013 0.093
-0.023 0.009 0.113
-0.021 0.009 0.109
-0.021 0.003 0.109
-0.019 0.001 0.109
-0.021 0.007 0.109
-0.021 0.009 0.109
-0.021 0.009 0.107
-0.011 0.003 0.103
-0.011 -0.005 0.087
-0.003 -0.003 0.083
-0.009 0.001 0.103
-0.003 0.001 0.079
-0.017 0.001 0.109
-0.013 -0.009 0.083
-0.011 -0.007 0.089
-0.003 -0.007 0.089
-0.009 -0.007 0.089
-0.003 -0.011 0.091
-0.015 -0.007 0.113
-0.009 -0.017 0.087
-0.007 -0.017 0.089
-0.017 0.009 0.103
-0.019 0.005 0.107
-0.019 -0.001 0.111
-0.003 -0.005 0.085
-0.017 -0.003 0.111
-0.001 -0.001 0.081
-0.003 -0.021 0.091
-0.029 -0.003 0.103
-0.027 -0.003 0.101
-0.025 -0.005 0.095
-0.021 0.003 0.109
-0.009 -0.013 0.089
-0.013 -0.007 0.083
-0.011 -0.005 0.087
-0.011 0.001 0.101
-0.011 -0.005 0.087
-0.003 -0.003 0.083
-0.007 -0.013 0.093
-0.031 -0.003 0.101
-0.025 -0.007 0.097
-0.021 -0.003 0.109
-0.017 -0.003 0.111
-0.009 -0.001 0.103
-0.015 -0.005 0.111
-0.017 -0.011 0.113
0.007 -0.009 0.087
0.001 -0.007 0.089
0.017 -0.013 0.073
0.025 -0.027 0.043
0.009 -0.011 0.051
0.001 -0.017 0.095
0.001 -0.017 0.095
0.005 -0.019 0.093
0.005 -0.019 0.093
0.009 -0.017 0.091
0.011 -0.019 0.091
0.013 -0.017 0.089
0.019 -0.021 0.083
0.025 -0.027 0.057
0.001 -0.019 0.095
0.009 -0.023 0.093
0.029 -0.027 0.065
0.025 -0.031 0.073
0.025 -0.029 0.069
0.025 -0.033 0.079
0.023 -0.031 0.073
0.033 -0.031 0.065
0.035 -0.029 0.063
0.001 -0.011 0.091
0.003 -0.013 0.091
0.001 -0.011 0.091
0.003 -0.015 0.091
0.013 -0.015 0.059
0.011 -0.013 0.053
0.003 -0.017 0.093
0.009 -0.017 0.091
0.011 -0.013 0.087
0.005 -0.015 0.091
0.011 -0.013 0.087
0.021 -0.009 0.067
0.017 -0.017 0.079
0.017 -0.017 0.075
0.029 -0.025 0.061
0.027 -0.023 0.051
0.027 -0.025 0.051
0.027 -0.021 0.049
0.013 -0.011 0.049
0.011 -0.009 0.049
0.009 -0.007 0.049
0.013 -0.003 0.045
0.011 -0.005 0.049
0.009 -0.005 0.047
0.009 -0.005 0.043
0.007 -0.007 0.047
0.015 -0.005 0.051
0.021 -0.005 0.057
0.021 -0.005 0.057
0.023 -0.005 0.059
0.025 -0.005 0.057
0.017 -0.003 0.047
0.023 -0.003 0.043
0.025 -0.003 0.045
0.017 -0.011 0.051
0.019 -0.007 0.053
0.023 -0.009 0.063
0.025 -0.007 0.063
0.025 -0.009 0.065
0.025 -0.009 0.065
0.021 -0.005 0.049
0.023 -0.003 0.051
0.025 -0.003 0.055
0.027 -0.003 0.051
-0.001 -0.017 0.095
0.007 -0.017 0.091
0.011 -0.015 0.089
0.013 -0.015 0.065
0.011 -0.013 0.087
-0.001 -0.015 0.093
0.001 -0.009 0.089
0.013 -0.015 0.077
0.029 -0.025 0.057
0.029 -0.025 0.059
0.031 -0.021 0.053
0.013 -0.023 0.089
0.021 -0.023 0.079
0.015 -0.019 0.087
0.025 -0.027 0.059
0.025 -0.029 0.067
0.029 -0.027 0.065
0.003 -0.005 0.081
-0.001 0.001 0.077
0.001 0.001 0.071
0.019 -0.009 0.055
0.025 -0.007 0.063
0.029 -0.007 0.061
0.021 -0.007 0.061
0.023 -0.005 0.061
0.029 -0.005 0.061
0.029 -0.003 0.055
0.025 -0.005 0.057
0.029 -0.005 0.061
0.025 -0.011 0.065
0.029 -0.007 0.061
0.021 -0.005 0.057
0.029 -0.007 0.061
0.035 -0.021 0.053
0.033 -0.021 0.055
0.033 -0.023 0.057
0.031 -0.011 0.057
0.035 -0.017 0.049
0.031 -0.011 0.057
0.031 -0.027 0.065
0.033 -0.027 0.063
0.035 -0.025 0.061
0.039 -0.025 0.055
0.037 -0.017 0.049
0.039 -0.021 0.053
0.029 -0.009 0.061
0.029 -0.007 0.061
0.029 -0.007 0.061
0.037 -0.021 0.053
0.033 -0.019 0.053
0.041 -0.023 0.051
0.039 -0.029 0.057
0.035 -0.025 0.061
0.001 -0.025 0.091
0.003 -0.025 0.091
0.003 -0.029 0.089
0.011 -0.027 0.093
0.005 -0.029 0.089
0.013 -0.031 0.089
0.015 -0.025 0.089
0.021 -0.035 0.081
0.027 -0.033 0.083
0.023 -0.039 0.083
0.027 -0.041 0.083
0.023 -0.035 0.085
0.015 -0.033 0.087
0.031 -0.041 0.085
0.031 -0.037 0.089
0.031 -0.039 0.087
0.033 -0.039 0.087
0.035 -0.043 0.087
0.031 -0.041 0.085
0.031 -0.035 0.087
-0.001 -0.015 0.095
0.001 -0.013 0.091
-0.001 -0.017 0.095
0.019 -0.025 0.083
0.025 -0.031 0.071
0.029 -0.031 0.069
0.015 -0.015 0.081
0.019 -0.023 0.083
-0.001 -0.007 0.089
-0.001 -0.007 0.089
-0.001 -0.005 0.087
-0.001 -0.001 0.081
0.001 -0.001 0.077
0.017 -0.011 0.071
0.021 -0.013 0.071
0.017 -0.011 0.071
0.021 -0.011 0.071
0.001 -0.029 0.087
0.003 -0.027 0.091
0.015 -0.017 0.087
0.015 -0.021 0.089
0.001 -0.023 0.093
0.015 -0.027 0.089
0.015 -0.025 0.089
0.009 -0.025 0.095
0.013 -0.023 0.089
0.013 -0.019 0.089
0.017 -0.025 0.087
0.007 -0.009 0.087
0.003 -0.007 0.085
0.001 -0.007 0.089
-0.025 0.017 0.105
-0.021 0.021 0.105
-0.019 0.023 0.101
-0.017 0.017 0.105
-0.013 0.019 0.053
-0.031 0.029 0.105
-0.025 0.033 0.099
-0.025 0.035 0.099
-0.027 0.037 0.101
-0.015 0.041 0.039
-0.011 0.039 0.043
-0.031 0.019 0.105
-0.035 0.021 0.103
-0.031 0.019 0.105
-0.033 0.019 0.105
-0.041 0.025 0.095
-0.035 0.019 0.103
-0.033 0.019 0.105
-0.033 0.019 0.105
-0.035 0.021 0.103
-0.049 0.017 0.039
-0.049 0.021 0.039
-0.043 0.031 0.099
-0.043 0.033 0.099
-0.041 0.031 0.099
-0.033 0.029 0.103
-0.031 0.029 0.105
-0.037 0.029 0.101
-0.033 0.037 0.107
-0.037 0.037 0.107
-0.039 0.029 0.099
-0.039 0.029 0.099
-0.037 0.029 0.101
-0.037 0.039 0.105
-0.039 0.023 0.103
-0.035 0.019 0.103
-0.035 0.025 0.103
-0.039 0.027 0.097
-0.039 0.029 0.099
-0.037 0.029 0.101
-0.039 0.039 0.105
-0.039 0.037 0.105
-0.035 0.027 0.101
-0.037 0.029 0.101
-0.039 0.035 0.105
-0.035 0.037 0.107
-0.023 0.025 0.105
-0.019 0.023 0.101
-0.031 0.017 0.105
-0.031 0.019 0.105
-0.013 0.015 0.095
-0.007 0.009 0.059
-0.013 0.017 0.055
-0.005 0.005 0.065
-0.005 0.007 0.063
-0.001 0.015 0.043
-0.007 0.015 0.051
-0.021 0.031 0.097
-0.031 0.041 0.103
-0.019 0.031 0.059
-0.013 0.023 0.053
-0.013 0.025 0.055
-0.013 0.027 0.055
-0.001 0.021 0.039
-0.015 0.031 0.053
-0.013 0.027 0.055
-0.009 0.027 0.051
-0.009 0.031 0.047
-0.005 0.027 0.045
-0.003 0.017 0.043
-0.005 0.031 0.045
-0.007 0.031 0.047
-0.005 0.031 0.045
-0.023 0.015 0.105
-0.029 0.023 0.105
-0.023 0.021 0.105
-0.021 0.011 0.105
-0.017 0.011 0.105
-0.027 0.021 0.105
-0.023 0.021 0.105
-0.021 0.023 0.103
-0.023 0.021 0.105
-0.021 0.023 0.103
-0.001 0.007 0.053
-0.003 0.011 0.053
-0.005 0.013 0.051
-0.003 0.013 0.051
-0.005 0.009 0.059
-0.003 0.011 0.053
-0.003 0.003 0.073
-0.005 0.007 0.063
-0.017 0.019 0.103
-0.015 0.017 0.101
-0.011 0.011 0.057
-0.017 0.029 0.057
-0.019 0.025 0.099
-0.019 0.027 0.065
-0.019 0.031 0.059
-0.009 0.021 0.051
-0.009 0.023 0.051
-0.011 0.017 0.053
-0.009 0.017 0.053
-0.015 0.023 0.055
-0.015 0.027 0.057
-0.033 0.043 0.105
-0.037 0.041 0.105
-0.033 0.043 0.105
-0.035 0.043 0.105
-0.035 0.041 0.105
-0.033 0.041 0.105
-0.025 0.041 0.085
-0.025 0.041 0.085
-0.025 0.041 0.085
-0.029 0.043 0.089
-0.021 0.035 0.053
-0.023 0.037 0.053
-0.003 0.033 0.035
-0.007 0.035 0.045
-0.007 0.033 0.045
-0.031 0.043 0.103
-0.029 0.041 0.103
-0.033 0.019 0.105
-0.035 0.033 0.105
-0.033 0.035 0.105
-0.035 0.015 0.105
-0.033 0.007 0.105
-0.033 0.009 0.105
-0.035 0.009 0.103
-0.035 0.015 0.105
-0.035 0.017 0.103
-0.037 0.015 0.101
-0.037 0.021 0.103
-0.037 0.023 0.103
-0.035 0.025 0.103
-0.039 0.035 0.105
-0.035 0.021 0.103
-0.033 0.025 0.105
-0.041 0.025 0.095
-0.037 0.027 0.099
-0.023 0.015 0.105
-0.019 0.011 0.103
-0.027 0.019 0.105
-0.031 0.017 0.105
-0.029 0.013 0.105
-0.027 0.011 0.109
-0.025 0.011 0.111
-0.023 0.011 0.111
-0.017 0.011 0.105
-0.031 0.017 0.105
-0.031 0.021 0.105
-0.017 0.017 0.105
-0.017 0.019 0.103
-0.013 0.011 0.109
-0.019 0.025 0.099
-0.027 0.035 0.101
-0.019 0.029 0.085
-0.023 0.035 0.099
-0.025 0.029 0.103
-0.017 0.021 0.099
-0.023 0.027 0.103
-0.027 0.029 0.103
-0.027 0.009 0.111
-0.025 0.009 0.113
-0.027 0.009 0.111
-0.031 0.007 0.105
-0.031 0.007 0.105
-0.027 0.007 0.111
-0.019 0.005 0.101
-0.031 0.017 0.105
-0.023 0.007 0.115
-0.023 0.007 0.115
-0.015 0.009 0.109
-0.015 0.013 0.107
-0.013 0.011 0.109
-0.009 0.005 0.101
-0.015 0.009 0.109
-0.011 0.009 0.101
-0.013 0.003 0.101
-0.009 0.003 0.103
-0.009 0.005 0.101
-0.011 0.011 0.093
-0.029 0.021 0.105
-0.021 0.023 0.103
-0.017 0.021 0.099
-0.023 0.025 0.105
-0.025 0.033 0.099
-0.019 0.029 0.085
-0.021 0.027 0.103
-0.031 0.021 0.105
-0.021 0.027 0.103
-0.021 0.029 0.097
-0.019 0.027 0.095
-0.021 0.027 0.099
-0.023 0.027 0.103
-0.023 0.029 0.099
-0.015 0.019 0.091
-0.043 0.041 0.103
-0.033 0.039 0.105
-0.037 0.041 0.105
-0.035 0.043 0.105
-0.041 0.035 0.101
-0.035 0.045 0.093
-0.039 0.047 0.093
-0.037 0.049 0.093
-0.027 0.039 0.101
-0.025 0.039 0.101
-0.027 0.037 0.101
-0.027 0.041 0.087
-0.027 0.047 0.085
-0.029 0.045 0.089
-0.023 0.033 0.099
-0.031 0.047 0.089
-0.033 0.009 0.105
-0.035 0.009 0.103
-0.037 0.019 0.103
-0.043 0.029 0.097
-0.043 0.031 0.099
-0.037 0.027 0.099
-0.035 0.025 0.103
-0.035 0.031 0.103
-0.019 0.003 0.109
-0.017 0.005 0.099
-0.021 0.011 0.105
-0.019 0.001 0.109
-0.019 0.005 0.109
-0.023 0.007 0.115
-0.025 0.011 0.111
-0.025 0.015 0.105
-0.021 0.013 0.105
-0.011 0.005 0.101
-0.011 0.003 0.103
-0.015 0.009 0.109
-0.011 0.009 0.101
-0.009 0.005 0.101
-0.011 0.007 0.103
-0.013 0.013 0.107
-0.017 0.023 0.097
-0.019 0.021 0.103
-0.023 0.023 0.105
-0.029 0.031 0.101
-0.019 0.027 0.097
-0.021 0.027 0.103
-0.021 0.017 0.105
-0.015 0.017 0.105
-0.043 0.035 0.101
-0.041 0.037 0.103
-0.039 0.035 0.105
-0.033 0.039 0.105
-0.039 0.041 0.105
-0.039 0.037 0.105
-0.027 0.039 0.101
-0.029 0.035 0.101
-0.029 0.039 0.101
-0.029 0.041 0.103
-0.031 0.043 0.105
-0.027 0.041 0.101
0.001 0.015 0.043
0.001 0.015 0.043
0.015 0.005 0.037
-0.001 0.013 0.049
0.003 0.013 0.043
0.001 0.009 0.045
0.017 0.003 0.037
