0.029 -0.037 0.069
0.029 -0.037 0.069
-0.001 -0.035 0.039
-0.001 -0.035 0.039
0.033 -0.043 0.077
-0.001 -0.033 0.041
-0.003 -0.033 0.041
0.003 -0.035 0.041
0.005 -0.033 0.047
0.011 -0.031 0.047
-0.007 -0.033 0.041
0.005 -0.033 0.049
0.005 -0.031 0.051
0.009 -0.031 0.049
0.011 -0.031 0.055
0.035 -0.043 0.075
0.035 -0.043 0.079
0.035 -0.043 0.075
0.035 -0.043 0.077
0.031 -0.035 0.069
0.029 -0.035 0.071
0.035 -0.045 0.081
0.035 -0.041 0.083
0.037 -0.043 0.081
0.035 -0.035 0.061
0.031 -0.037 0.061
0.031 -0.033 0.069
0.031 -0.031 0.067
0.031 -0.037 0.065
0.033 -0.035 0.065
0.029 -0.037 0.069
0.031 -0.035 0.069
0.031 -0.033 0.069
0.017 -0.019 0.059
0.003 -0.031 0.053
0.011 -0.035 0.065
0.025 -0.041 0.077
0.031 -0.043 0.081
0.037 -0.043 0.081
0.035 -0.043 0.087
0.035 -0.041 0.083
0.035 -0.041 0.087
0.031 -0.039 0.087
0.035 -0.041 0.083
0.029 -0.033 0.071
0.027 -0.031 0.073
0.021 -0.027 0.071
-0.001 -0.001 0.051
0.035 -0.043 0.087
0.031 -0.039 0.087
0.011 -0.033 0.085
0.013 -0.033 0.085
0.017 -0.027 0.087
0.017 -0.027 0.087
0.015 -0.025 0.089
0.017 -0.031 0.089
0.011 -0.029 0.093
0.011 -0.025 0.093
0.013 -0.017 0.089
0.009 -0.033 0.087
0.011 -0.033 0.087
0.007 -0.031 0.089
0.007 -0.029 0.091
0.007 -0.025 0.095
0.003 -0.029 0.089
-0.001 -0.025 0.091
0.005 -0.023 0.095
0.003 -0.019 0.095
0.001 -0.017 0.095
-0.003 -0.013 0.093
-0.025 -0.005 0.093
-0.023 -0.001 0.091
-0.027 -0.007 0.093
-0.019 -0.003 0.091
-0.019 -0.003 0.091
0.007 -0.021 0.093
0.009 -0.017 0.091
0.009 -0.015 0.091
0.007 -0.015 0.091
0.007 -0.015 0.091
-0.003 -0.013 0.093
0.001 -0.017 0.095
0.001 -0.011 0.091
-0.009 -0.001 0.103
0.019 -0.035 0.031
0.023 -0.035 0.035
0.017 -0.031 0.041
0.033 -0.033 0.045
0.033 -0.029 0.037
0.037 -0.027 0.039
0.037 -0.025 0.035
0.041 -0.027 0.051
0.041 -0.025 0.045
0.039 -0.021 0.037
0.009 -0.035 0.039
0.015 -0.035 0.033
0.021 -0.035 0.035
0.007 -0.033 0.041
0.023 -0.035 0.035
0.027 -0.035 0.033
0.009 -0.033 0.057
0.009 -0.035 0.063
0.023 -0.037 0.065
0.031 -0.043 0.075
0.031 -0.035 0.057
0.031 -0.037 0.061
0.031 -0.037 0.065
0.037 -0.033 0.049
0.035 -0.035 0.061
0.033 -0.035 0.063
0.017 -0.031 0.041
0.019 -0.035 0.037
0.015 -0.031 0.043
0.037 -0.033 0.051
0.013 -0.027 0.047
0.035 -0.035 0.061
0.027 -0.033 0.039
0.025 -0.033 0.039
0.031 -0.033 0.045
0.031 -0.031 0.037
0.029 -0.033 0.039
0.039 -0.031 0.047
0.041 -0.027 0.045
0.017 -0.029 0.043
0.029 -0.031 0.041
0.037 -0.033 0.051
0.037 -0.033 0.051
0.037 -0.033 0.059
0.037 -0.031 0.059
0.039 -0.029 0.057
0.039 -0.027 0.055
0.037 -0.033 0.057
0.035 -0.031 0.063
0.037 -0.025 0.059
0.035 -0.023 0.059
0.023 -0.011 0.049
0.033 -0.033 0.065
0.035 -0.025 0.061
0.025 -0.011 0.049
0.027 -0.011 0.051
0.041 -0.029 0.049
0.041 -0.027 0.045
0.041 -0.021 0.049
0.033 -0.013 0.045
0.027 -0.009 0.045
0.025 -0.005 0.041
0.037 -0.015 0.045
0.025 -0.003 0.035
0.039 -0.025 0.057
0.039 -0.025 0.057
0.039 -0.021 0.053
0.025 -0.011 0.047
0.029 -0.011 0.053
0.031 -0.009 0.051
0.029 -0.007 0.045
0.029 -0.005 0.045
0.033 -0.035 0.063
0.025 -0.037 0.065
0.035 -0.029 0.063
0.013 -0.035 0.063
0.033 -0.043 0.083
0.027 -0.037 0.067
0.029 -0.037 0.067
0.021 -0.023 0.069
0.031 -0.037 0.063
0.037 -0.033 0.055
0.035 -0.035 0.061
0.035 -0.035 0.057
0.033 -0.035 0.065
0.031 -0.035 0.069
0.031 -0.035 0.069
0.033 -0.035 0.063
0.035 -0.033 0.063
0.031 -0.031 0.067
0.037 -0.027 0.061
0.037 -0.027 0.061
0.031 -0.029 0.067
0.027 -0.031 0.071
0.021 -0.023 0.067
0.017 -0.013 0.073
0.019 -0.013 0.073
0.029 -0.011 0.055
0.029 -0.011 0.059
0.031 -0.007 0.051
0.031 -0.007 0.055
0.031 -0.005 0.053
0.029 -0.009 0.061
0.029 -0.007 0.059
0.027 -0.009 0.063
0.037 -0.025 0.035
0.039 -0.025 0.039
0.037 -0.031 0.043
0.037 -0.031 0.043
0.037 -0.031 0.045
0.037 -0.033 0.049
0.041 -0.029 0.047
0.041 -0.025 0.047
0.041 -0.021 0.043
0.041 -0.023 0.045
0.041 -0.021 0.047
0.039 -0.019 0.039
0.039 -0.029 0.055
0.039 -0.023 0.053
0.039 -0.021 0.053
0.041 -0.021 0.049
0.037 -0.029 0.061
0.037 -0.031 0.061
0.011 -0.037 0.071
0.013 -0.037 0.073
0.031 -0.043 0.075
0.023 -0.041 0.077
0.029 -0.043 0.077
0.011 -0.037 0.075
0.035 -0.043 0.077
0.031 -0.043 0.075
0.033 -0.043 0.079
0.035 -0.045 0.081
0.033 -0.035 0.065
0.035 -0.043 0.075
0.035 -0.043 0.077
0.029 -0.035 0.071
0.029 -0.033 0.071
0.035 -0.045 0.081
0.035 -0.045 0.081
0.035 -0.045 0.081
0.035 -0.041 0.081
0.037 -0.043 0.079
0.037 -0.043 0.081
0.011 -0.035 0.081
0.017 -0.035 0.081
0.029 -0.043 0.081
0.035 -0.041 0.083
0.037 -0.041 0.087
0.033 -0.041 0.087
0.037 -0.041 0.087
0.035 -0.039 0.087
0.035 -0.041 0.075
0.035 -0.041 0.087
0.033 -0.043 0.085
0.035 -0.041 0.085
0.035 -0.043 0.087
0.031 -0.037 0.089
0.027 -0.039 0.087
0.019 -0.033 0.085
0.031 -0.037 0.089
0.029 -0.035 0.071
0.033 -0.039 0.077
0.031 -0.029 0.067
0.029 -0.033 0.071
0.035 -0.041 0.087
0.035 -0.039 0.087
0.027 -0.033 0.073
0.021 -0.023 0.077
0.031 -0.035 0.087
0.019 -0.021 0.081
0.005 -0.007 0.075
0.021 -0.013 0.069
0.021 -0.011 0.069
0.009 -0.033 0.087
0.011 -0.033 0.087
0.017 -0.021 0.085
0.017 -0.021 0.085
0.013 -0.029 0.091
0.013 -0.027 0.091
0.015 -0.029 0.089
0.007 -0.027 0.093
0.007 -0.025 0.095
0.015 -0.025 0.089
0.031 -0.035 0.087
0.017 -0.029 0.085
0.017 -0.029 0.087
0.019 -0.021 0.081
0.007 -0.009 0.085
0.009 -0.015 0.091
0.033 -0.031 0.065
0.035 -0.041 0.075
0.029 -0.035 0.071
0.033 -0.033 0.067
0.031 -0.031 0.067
0.019 -0.019 0.065
0.033 -0.025 0.061
0.025 -0.009 0.065
-0.001 0.023 0.039
-0.003 0.031 0.035
0.037 -0.043 0.081
0.035 -0.041 0.081
0.035 -0.041 0.085
0.035 -0.041 0.083
0.037 -0.039 0.087
0.021 -0.027 0.077
0.037 -0.039 0.087
0.021 -0.025 0.071
0.033 -0.037 0.083
0.021 -0.025 0.075
0.031 -0.037 0.089
0.031 -0.035 0.085
0.021 -0.025 0.075
0.021 -0.023 0.077
0.021 -0.023 0.079
0.019 -0.021 0.079
0.019 -0.019 0.077
0.019 -0.019 0.069
0.019 -0.019 0.073
0.019 -0.019 0.079
0.017 -0.017 0.077
0.021 -0.011 0.069
0.001 -0.001 0.069
0.019 -0.025 0.083
0.017 -0.025 0.087
0.017 -0.021 0.087
-0.017 0.013 0.069
0.013 -0.015 0.087
0.011 -0.015 0.089
0.011 -0.015 0.089
0.013 -0.017 0.089
0.027 -0.031 0.071
0.037 -0.043 0.081
0.031 -0.033 0.069
0.031 -0.037 0.079
0.031 -0.035 0.081
0.021 -0.027 0.079
0.033 -0.029 0.065
0.015 -0.011 0.051
0.023 -0.013 0.057
0.025 -0.013 0.057
0.029 -0.011 0.055
0.027 -0.013 0.061
0.025 -0.013 0.063
0.025 -0.013 0.063
-0.001 0.011 0.049
0.023 -0.013 0.065
0.025 -0.011 0.065
-0.001 0.009 0.051
-0.005 0.017 0.045
0.029 -0.009 0.061
0.029 -0.009 0.061
0.029 -0.005 0.061
-0.003 0.021 0.043
-0.001 0.023 0.039
-0.003 0.025 0.041
-0.001 0.019 0.041
-0.005 0.029 0.043
0.037 -0.039 0.087
0.017 -0.017 0.081
0.017 -0.017 0.081
0.019 -0.025 0.081
0.019 -0.023 0.081
0.017 -0.017 0.081
0.017 -0.019 0.085
0.021 -0.013 0.069
-0.005 0.009 0.059
0.021 -0.013 0.071
0.003 -0.003 0.071
0.001 0.001 0.067
-0.015 0.027 0.057
-0.017 0.025 0.059
-0.019 0.025 0.063
-0.019 0.027 0.063
-0.009 0.017 0.053
-0.013 0.027 0.055
-0.003 0.007 0.061
-0.019 0.019 0.063
-0.017 0.019 0.069
-0.017 0.019 0.071
-0.017 0.021 0.071
-0.007 0.015 0.051
-0.007 0.021 0.049
-0.005 0.029 0.041
-0.009 0.029 0.047
-0.011 0.029 0.053
-0.005 0.033 0.039
-0.005 0.035 0.037
-0.007 0.039 0.041
-0.007 0.033 0.045
-0.005 0.033 0.043
-0.007 0.041 0.043
-0.017 0.027 0.059
-0.019 0.029 0.061
-0.017 0.031 0.057
-0.019 0.029 0.061
-0.021 0.031 0.063
0.009 -0.013 0.089
0.001 -0.011 0.091
-0.001 -0.007 0.089
-0.015 0.007 0.081
-0.017 0.019 0.073
-0.015 0.015 0.077
-0.009 0.001 0.087
-0.009 0.003 0.087
-0.019 -0.001 0.093
-0.017 0.001 0.091
-0.023 0.001 0.097
-0.009 -0.001 0.101
-0.009 0.003 0.095
-0.009 0.001 0.097
-0.009 0.003 0.097
-0.013 0.011 0.097
-0.011 0.009 0.099
-0.013 0.013 0.099
-0.021 0.005 0.103
-0.009 0.001 0.103
-0.015 0.017 0.105
0.015 -0.019 0.087
0.001 -0.001 0.077
0.005 -0.007 0.085
0.009 -0.017 0.091
0.007 -0.015 0.091
-0.001 -0.011 0.091
-0.015 0.011 0.075
-0.017 0.015 0.073
0.015 -0.017 0.083
0.015 -0.017 0.087
0.003 -0.003 0.071
0.003 -0.003 0.071
0.003 -0.003 0.077
-0.017 0.019 0.071
-0.017 0.019 0.073
-0.017 0.017 0.077
-0.019 0.025 0.071
-0.011 0.007 0.087
-0.013 0.011 0.085
-0.017 0.017 0.081
-0.015 0.017 0.083
-0.017 -0.001 0.089
0.001 -0.013 0.091
-0.009 0.001 0.093
-0.009 0.001 0.089
-0.007 0.001 0.095
-0.011 0.011 0.089
-0.015 0.017 0.083
-0.015 0.017 0.087
-0.011 0.011 0.093
-0.015 0.017 0.091
-0.017 0.023 0.087
-0.017 0.023 0.087
-0.009 0.003 0.101
-0.015 0.017 0.099
-0.017 0.021 0.095
-0.015 0.017 0.095
-0.017 0.023 0.097
-0.019 0.023 0.091
-0.015 0.017 0.087
-0.013 0.015 0.095
-0.019 0.023 0.091
-0.015 0.015 0.097
-0.021 0.027 0.093
-0.019 0.027 0.097
-0.027 0.037 0.089
-0.027 0.039 0.089
-0.029 0.041 0.089
-0.027 0.039 0.089
-0.015 0.015 0.107
-0.023 0.035 0.099
-0.019 0.025 0.071
-0.019 0.025 0.091
-0.023 0.033 0.087
-0.025 0.041 0.083
-0.025 0.041 0.085
-0.027 0.041 0.087
-0.027 0.039 0.089
-0.029 0.043 0.089
-0.029 -0.003 0.103
-0.019 0.003 0.107
-0.033 0.003 0.109
-0.023 0.007 0.111
-0.021 0.007 0.107
-0.019 0.005 0.109
-0.015 0.009 0.109
-0.015 0.009 0.107
-0.015 0.015 0.107
-0.023 0.001 0.097
-0.025 0.001 0.099
-0.015 -0.005 0.109
-0.019 0.001 0.099
-0.019 0.001 0.097
-0.009 -0.001 0.101
-0.019 -0.001 0.105
-0.015 0.007 0.103
-0.019 0.001 0.105
-0.015 -0.005 0.111
-0.021 0.009 0.107
-0.011 0.001 0.099
-0.009 0.003 0.097
-0.009 0.003 0.101
-0.009 0.001 0.103
-0.011 0.007 0.103
-0.015 0.017 0.101
-0.019 0.025 0.099
-0.021 0.029 0.097
-0.021 0.027 0.103
-0.023 0.013 0.107
-0.015 0.009 0.109
-0.013 0.011 0.109
-0.013 0.013 0.107
-0.029 0.025 0.105
-0.023 0.025 0.105
-0.029 0.033 0.101
-0.031 0.029 0.105
-0.035 0.035 0.107
-0.035 0.035 0.107
-0.027 0.035 0.101
-0.023 0.037 0.097
-0.023 0.035 0.099
0.027 -0.009 0.045
0.035 -0.015 0.047
0.031 -0.007 0.049
0.027 -0.011 0.051
0.031 -0.009 0.055
0.031 -0.005 0.053
0.027 -0.003 0.043
0.025 -0.003 0.039
0.005 0.017 0.035
