-0.029 -0.005 0.033
-0.003 -0.035 0.039
-0.005 -0.033 0.039
-0.005 -0.031 0.041
-0.009 -0.029 0.041
-0.005 -0.027 0.045
-0.009 -0.025 0.043
-0.029 -0.005 0.037
-0.017 -0.005 0.039
-0.023 -0.007 0.047
-0.009 -0.023 0.041
-0.017 -0.007 0.043
-0.013 -0.007 0.043
-0.013 -0.007 0.045
-0.001 -0.029 0.051
-0.003 -0.025 0.057
-0.023 -0.003 0.055
-0.021 -0.007 0.057
-0.003 -0.015 0.053
-0.009 -0.011 0.053
-0.011 -0.013 0.059
-0.015 -0.013 0.061
-0.009 -0.015 0.065
-0.003 -0.019 0.071
-0.009 -0.021 0.079
-0.001 -0.029 0.083
-0.007 -0.019 0.089
-0.027 -0.007 0.093
-0.009 -0.011 0.089
-0.009 -0.009 0.089
-0.009 -0.001 0.095
-0.029 -0.007 0.097
-0.021 -0.003 0.107
-0.003 -0.035 0.037
-0.007 -0.031 0.037
-0.007 -0.033 0.039
-0.001 -0.035 0.039
-0.003 -0.035 0.039
0.013 -0.035 0.033
0.017 -0.035 0.037
0.005 -0.033 0.043
0.005 -0.033 0.045
0.009 -0.033 0.041
0.011 -0.033 0.043
0.025 -0.033 0.037
0.027 -0.035 0.059
0.035 -0.035 0.057
0.009 -0.035 0.037
-0.007 -0.033 0.041
0.005 -0.033 0.045
0.011 -0.031 0.047
0.007 -0.033 0.047
0.015 -0.033 0.041
0.023 -0.023 0.047
-0.007 -0.027 0.041
-0.007 -0.029 0.043
-0.005 -0.029 0.045
-0.007 -0.025 0.045
-0.007 -0.025 0.045
-0.005 -0.023 0.047
-0.005 -0.025 0.047
-0.005 -0.021 0.053
0.005 -0.033 0.049
0.001 -0.031 0.049
0.001 -0.031 0.049
0.001 -0.031 0.049
0.009 -0.031 0.053
0.021 -0.021 0.047
-0.003 -0.027 0.055
-0.001 -0.029 0.057
-0.001 -0.029 0.057
0.005 -0.033 0.057
0.011 -0.031 0.055
0.001 -0.023 0.065
0.027 -0.025 0.049
0.025 -0.033 0.059
0.023 -0.035 0.063
0.021 -0.035 0.065
-0.001 -0.027 0.061
0.001 -0.029 0.065
0.003 -0.029 0.067
0.005 -0.033 0.063
0.001 -0.031 0.063
0.001 -0.031 0.063
0.003 -0.033 0.071
0.023 -0.031 0.041
0.035 -0.033 0.049
0.031 -0.037 0.061
0.023 -0.035 0.063
0.003 -0.033 0.073
0.011 -0.037 0.073
0.011 -0.037 0.075
0.021 -0.037 0.071
0.023 -0.039 0.071
0.023 -0.039 0.073
0.025 -0.041 0.077
0.017 -0.035 0.077
0.025 -0.041 0.075
0.023 -0.041 0.077
0.023 -0.041 0.079
0.017 -0.033 0.085
0.027 -0.039 0.087
0.023 -0.037 0.085
0.025 -0.035 0.087
0.033 -0.043 0.085
0.029 -0.041 0.083
0.003 -0.029 0.069
0.003 -0.023 0.069
0.001 -0.025 0.073
-0.001 -0.027 0.077
0.021 -0.037 0.069
0.005 -0.033 0.075
0.015 -0.035 0.075
-0.005 -0.017 0.069
-0.005 -0.023 0.075
0.003 -0.031 0.073
0.003 -0.031 0.075
0.001 -0.027 0.089
0.013 -0.031 0.089
0.001 -0.021 0.093
0.001 -0.021 0.095
0.009 -0.033 0.087
-0.005 -0.025 0.087
-0.009 -0.019 0.085
-0.003 -0.017 0.093
-0.033 -0.003 0.035
-0.029 -0.005 0.037
-0.037 0.005 0.037
-0.035 0.003 0.039
-0.037 0.007 0.045
-0.037 0.007 0.033
-0.037 0.007 0.045
-0.037 0.007 0.047
-0.049 0.019 0.039
-0.043 0.017 0.041
-0.045 0.015 0.039
-0.041 0.011 0.039
-0.045 0.021 0.041
-0.041 0.013 0.041
-0.043 0.015 0.041
-0.039 0.021 0.057
-0.041 0.025 0.059
-0.041 0.027 0.057
-0.039 0.025 0.061
-0.039 0.029 0.063
-0.033 -0.001 0.037
-0.031 -0.001 0.039
-0.031 0.003 0.043
-0.031 0.005 0.045
-0.017 -0.001 0.033
-0.013 -0.005 0.039
-0.017 -0.007 0.045
-0.023 -0.005 0.053
-0.017 -0.011 0.055
-0.035 0.003 0.039
-0.035 0.005 0.041
-0.029 0.003 0.043
-0.027 0.001 0.049
-0.027 0.001 0.047
-0.023 -0.003 0.055
-0.023 0.005 0.055
-0.027 0.009 0.053
-0.031 0.013 0.061
-0.017 -0.011 0.059
-0.013 -0.015 0.061
-0.015 -0.013 0.061
-0.019 -0.003 0.067
-0.019 -0.009 0.067
-0.017 -0.013 0.067
-0.017 -0.013 0.069
-0.017 -0.013 0.069
-0.031 0.011 0.063
-0.025 0.011 0.061
-0.033 0.011 0.069
-0.021 0.005 0.057
-0.025 0.013 0.055
-0.027 0.013 0.055
-0.039 0.027 0.063
-0.041 0.015 0.055
-0.039 0.009 0.051
-0.029 0.011 0.053
-0.025 0.013 0.055
-0.041 0.019 0.055
-0.039 0.021 0.061
-0.039 0.021 0.061
-0.037 0.023 0.067
-0.033 0.011 0.073
-0.033 0.009 0.083
-0.033 0.005 0.095
-0.037 0.017 0.087
-0.039 0.023 0.083
-0.037 0.021 0.089
-0.035 0.015 0.089
-0.039 0.017 0.093
-0.037 0.021 0.097
-0.025 0.003 0.073
-0.019 0.001 0.077
-0.021 0.001 0.075
-0.017 -0.009 0.075
-0.015 -0.013 0.079
-0.027 0.007 0.069
-0.029 0.007 0.071
-0.035 0.015 0.073
-0.031 0.013 0.079
-0.031 -0.001 0.085
-0.031 0.003 0.083
-0.033 0.015 0.077
-0.031 -0.003 0.089
-0.023 -0.001 0.083
-0.033 0.001 0.089
-0.021 -0.001 0.093
-0.019 -0.001 0.089
-0.011 0.001 0.093
-0.013 0.003 0.093
-0.027 -0.009 0.101
-0.035 0.011 0.087
-0.035 0.015 0.087
-0.033 0.009 0.089
-0.031 -0.001 0.089
-0.037 0.017 0.087
-0.035 0.013 0.089
-0.037 0.011 0.095
-0.033 0.003 0.097
-0.033 -0.001 0.097
-0.037 0.011 0.095
-0.029 -0.005 0.089
-0.039 0.027 0.083
-0.041 0.037 0.087
-0.043 0.039 0.087
-0.037 0.035 0.089
-0.037 0.019 0.091
-0.037 0.035 0.089
-0.037 0.013 0.095
-0.035 0.007 0.101
-0.035 0.003 0.105
-0.039 0.021 0.101
-0.029 -0.007 0.103
-0.033 0.001 0.107
-0.033 0.009 0.105
-0.031 0.013 0.105
-0.025 0.005 0.109
-0.011 0.001 0.097
-0.027 -0.009 0.103
-0.023 0.001 0.107
-0.029 -0.003 0.103
-0.035 0.015 0.105
-0.033 0.015 0.105
-0.035 0.003 0.105
-0.025 0.003 0.107
-0.023 0.005 0.113
-0.043 0.035 0.097
-0.043 0.035 0.101
-0.037 0.031 0.103
-0.039 0.019 0.101
-0.035 0.031 0.103
-0.033 0.025 0.105
-0.039 0.023 0.103
-0.005 -0.019 0.045
-0.013 -0.017 0.077
-0.005 -0.037 0.035
0.013 -0.033 0.041
0.021 -0.033 0.039
0.031 -0.031 0.041
0.011 -0.033 0.043
0.035 -0.033 0.047
0.035 -0.033 0.049
0.039 -0.029 0.043
0.039 -0.031 0.051
0.033 -0.035 0.053
0.033 -0.035 0.059
0.031 -0.037 0.061
0.039 -0.031 0.055
0.035 -0.031 0.063
0.037 -0.033 0.059
0.041 -0.027 0.053
0.039 -0.023 0.053
0.037 -0.027 0.061
0.017 -0.017 0.061
0.021 -0.027 0.071
0.029 -0.037 0.075
0.027 -0.035 0.073
0.029 -0.037 0.077
0.033 -0.033 0.067
0.031 -0.029 0.067
0.021 -0.025 0.079
0.005 -0.005 0.077
0.035 -0.041 0.083
0.031 -0.035 0.083
0.017 -0.023 0.087
0.013 -0.015 0.087
0.001 -0.015 0.093
0.019 -0.027 0.083
0.017 -0.019 0.085
0.011 -0.023 0.091
0.003 -0.019 0.095
0.005 -0.021 0.095
-0.013 -0.011 0.111
-0.015 -0.013 0.113
0.023 -0.035 0.031
0.027 -0.033 0.031
0.031 -0.023 0.031
0.035 -0.017 0.033
0.033 -0.019 0.031
0.003 -0.035 0.039
0.015 -0.035 0.033
0.003 -0.033 0.043
0.033 -0.035 0.059
0.033 -0.035 0.055
0.023 -0.035 0.035
0.031 -0.031 0.037
0.033 -0.029 0.037
0.035 -0.029 0.039
0.011 -0.033 0.043
0.029 -0.033 0.037
0.035 -0.029 0.039
0.037 -0.021 0.035
0.033 -0.033 0.043
0.039 -0.031 0.047
0.039 -0.025 0.039
0.039 -0.025 0.041
0.039 -0.023 0.039
0.039 -0.019 0.041
0.039 -0.029 0.045
0.037 -0.015 0.045
0.039 -0.019 0.037
0.041 -0.023 0.041
0.039 -0.017 0.041
0.039 -0.019 0.037
0.041 -0.021 0.047
0.041 -0.021 0.047
0.007 -0.031 0.055
0.029 -0.035 0.055
0.013 -0.035 0.063
0.033 -0.035 0.063
0.035 -0.035 0.055
0.037 -0.033 0.057
0.039 -0.029 0.051
0.039 -0.027 0.055
0.035 -0.035 0.061
0.033 -0.035 0.063
0.039 -0.031 0.057
0.041 -0.027 0.053
0.039 -0.027 0.057
0.039 -0.021 0.051
0.035 -0.025 0.061
0.027 -0.011 0.053
0.031 -0.007 0.053
0.023 -0.013 0.057
0.027 -0.013 0.061
0.037 -0.025 0.035
0.037 -0.019 0.035
0.039 -0.031 0.057
0.015 -0.035 0.067
0.021 -0.039 0.073
0.035 -0.043 0.075
0.029 -0.037 0.069
0.027 -0.037 0.071
0.037 -0.043 0.079
0.033 -0.043 0.083
0.033 -0.043 0.077
0.033 -0.043 0.085
0.035 -0.043 0.075
0.031 -0.039 0.073
0.033 -0.039 0.077
0.027 -0.031 0.071
0.031 -0.031 0.067
0.021 -0.023 0.073
0.021 -0.013 0.071
0.019 -0.021 0.075
0.009 -0.013 0.077
0.023 -0.013 0.067
0.035 -0.043 0.087
0.035 -0.043 0.087
0.011 -0.029 0.093
0.015 -0.029 0.089
0.011 -0.029 0.093
0.011 -0.025 0.091
0.019 -0.027 0.081
0.037 -0.039 0.087
0.013 -0.015 0.083
0.015 -0.017 0.087
0.009 -0.011 0.083
0.011 -0.015 0.089
0.033 -0.031 0.065
0.039 -0.017 0.041
0.039 -0.021 0.039
0.017 0.005 0.037
0.017 0.005 0.035
0.037 -0.031 0.045
0.041 -0.025 0.049
0.041 -0.025 0.043
0.039 -0.021 0.053
0.039 -0.017 0.045
0.037 -0.015 0.041
0.039 -0.017 0.045
0.027 -0.005 0.043
0.029 -0.005 0.045
0.029 -0.005 0.049
0.027 -0.013 0.057
0.029 -0.011 0.059
0.027 -0.013 0.059
0.031 -0.009 0.057
0.029 -0.007 0.061
0.041 -0.023 0.041
0.041 -0.025 0.051
0.039 -0.025 0.053
0.041 -0.021 0.045
0.039 -0.017 0.043
0.025 -0.005 0.039
0.017 0.001 0.037
0.017 0.003 0.037
0.027 -0.005 0.043
0.037 -0.019 0.051
0.027 -0.011 0.049
0.029 -0.011 0.051
0.031 -0.007 0.049
0.017 0.003 0.037
0.017 0.005 0.037
0.003 0.017 0.037
0.001 0.021 0.037
-0.001 0.019 0.041
-0.005 0.021 0.045
-0.003 0.023 0.041
0.029 -0.011 0.059
0.025 -0.013 0.063
0.027 -0.011 0.061
0.025 -0.013 0.063
0.027 -0.009 0.063
0.031 -0.009 0.055
-0.015 0.027 0.057
-0.003 0.011 0.053
-0.009 0.027 0.049
-0.009 0.019 0.051
-0.011 0.019 0.053
-0.017 0.023 0.057
-0.019 0.023 0.063
-0.003 0.031 0.037
-0.005 0.031 0.039
-0.007 0.025 0.047
-0.005 0.027 0.043
-0.005 0.029 0.043
-0.003 0.031 0.037
-0.005 0.031 0.043
-0.019 0.031 0.059
-0.015 0.027 0.057
0.001 -0.001 0.069
-0.001 0.001 0.075
0.011 -0.015 0.089
-0.009 0.003 0.089
-0.017 0.017 0.081
-0.013 0.013 0.095
-0.015 0.017 0.093
0.021 -0.013 0.071
0.005 -0.009 0.075
0.007 -0.009 0.077
0.005 -0.009 0.075
0.019 -0.013 0.073
0.003 -0.005 0.075
0.021 -0.011 0.069
0.007 -0.009 0.077
-0.017 0.017 0.069
-0.017 0.021 0.071
-0.019 0.023 0.067
-0.015 0.015 0.075
-0.017 0.019 0.075
-0.017 0.019 0.073
0.003 -0.007 0.087
-0.007 -0.001 0.095
-0.009 0.005 0.095
-0.013 0.013 0.093
-0.015 0.017 0.083
-0.019 0.027 0.083
-0.017 0.023 0.085
-0.015 0.019 0.091
-0.015 0.017 0.087
-0.019 0.027 0.083
-0.035 0.031 0.081
-0.019 0.025 0.083
-0.023 0.033 0.087
-0.019 0.025 0.095
-0.021 0.031 0.083
-0.023 0.033 0.087
-0.025 0.041 0.085
-0.027 0.039 0.087
-0.007 0.001 0.095
-0.017 -0.005 0.107
-0.011 0.009 0.095
-0.011 0.009 0.101
-0.013 0.013 0.099
-0.017 0.021 0.097
-0.027 -0.001 0.101
-0.009 -0.001 0.101
-0.011 0.007 0.103
-0.021 0.009 0.107
-0.015 0.009 0.105
-0.021 0.007 0.109
-0.009 0.005 0.099
-0.015 0.015 0.101
-0.017 0.023 0.097
-0.021 0.029 0.097
-0.021 0.027 0.103
-0.019 0.025 0.099
-0.019 0.025 0.097
-0.019 0.025 0.099
-0.035 0.035 0.107
-0.023 0.033 0.099
-0.023 0.035 0.097
-0.029 0.033 0.101
-0.023 0.037 0.099
0.025 -0.005 0.039
0.017 0.005 0.035
0.025 -0.003 0.039
