-0.005 -0.035 0.033
-0.003 -0.035 0.037
0.001 -0.035 0.039
0.013 -0.035 0.037
0.009 -0.035 0.039
0.009 -0.035 0.039
0.007 -0.033 0.041
0.001 -0.033 0.043
0.007 -0.035 0.039
0.005 -0.033 0.045
0.005 -0.033 0.049
0.013 -0.033 0.041
0.009 -0.033 0.045
0.013 -0.029 0.045
0.001 -0.031 0.057
0.001 -0.031 0.061
0.007 -0.031 0.051
0.013 -0.035 0.063
0.003 -0.033 0.065
0.009 -0.035 0.067
0.023 -0.039 0.069
0.003 -0.033 0.073
0.007 -0.035 0.073
0.013 -0.037 0.073
0.001 -0.031 0.085
0.005 -0.033 0.085
-0.001 -0.027 0.089
0.009 -0.033 0.087
-0.027 -0.007 0.089
0.003 -0.031 0.087
-0.025 -0.007 0.095
0.007 -0.033 0.087
0.013 -0.035 0.081
0.013 -0.035 0.083
0.015 -0.031 0.089
0.017 -0.031 0.087
-0.027 -0.003 0.101
0.025 -0.035 0.033
0.027 -0.035 0.033
0.033 -0.025 0.033
0.033 -0.019 0.031
0.007 -0.035 0.037
0.009 -0.035 0.037
0.021 -0.035 0.035
0.019 -0.035 0.037
0.031 -0.035 0.055
0.029 -0.037 0.061
0.033 -0.033 0.047
0.035 -0.033 0.049
0.035 -0.033 0.051
0.037 -0.033 0.049
0.013 -0.035 0.035
0.021 -0.035 0.033
0.027 -0.033 0.035
0.029 -0.033 0.037
0.003 -0.035 0.041
0.033 -0.025 0.033
0.033 -0.025 0.033
0.025 -0.031 0.043
0.027 -0.031 0.043
0.031 -0.033 0.045
0.031 -0.033 0.047
0.033 -0.033 0.047
0.029 -0.033 0.037
0.033 -0.027 0.035
0.031 -0.033 0.047
0.019 -0.023 0.047
0.035 -0.031 0.045
0.037 -0.025 0.037
0.039 -0.025 0.041
0.035 -0.025 0.035
0.041 -0.027 0.045
0.039 -0.029 0.043
0.041 -0.027 0.045
0.041 -0.027 0.047
0.005 -0.031 0.055
0.005 -0.033 0.061
0.011 -0.033 0.057
0.031 -0.033 0.049
0.037 -0.033 0.049
0.031 -0.037 0.059
0.017 -0.025 0.051
0.031 -0.033 0.049
0.031 -0.033 0.051
0.013 -0.031 0.057
0.031 -0.037 0.059
0.041 -0.023 0.049
0.031 -0.009 0.055
0.037 -0.031 0.059
0.039 -0.031 0.057
0.041 -0.023 0.045
0.041 -0.021 0.041
0.041 -0.027 0.047
0.041 -0.027 0.051
0.039 -0.031 0.053
0.039 -0.025 0.055
0.009 -0.035 0.077
0.013 -0.037 0.073
0.013 -0.035 0.079
0.025 -0.037 0.067
0.035 -0.043 0.077
0.033 -0.043 0.081
0.027 -0.041 0.083
0.033 -0.043 0.075
0.035 -0.045 0.081
0.037 -0.041 0.087
0.037 -0.039 0.087
0.009 -0.035 0.067
0.017 -0.035 0.067
0.015 -0.035 0.069
0.025 -0.039 0.069
0.029 -0.037 0.069
0.021 -0.039 0.073
0.033 -0.043 0.075
0.033 -0.035 0.065
0.031 -0.035 0.067
0.031 -0.035 0.067
0.035 -0.043 0.079
0.035 -0.043 0.077
0.035 -0.043 0.075
0.029 -0.039 0.073
0.019 -0.013 0.069
0.005 -0.033 0.081
0.007 -0.029 0.091
0.033 -0.041 0.087
0.011 -0.023 0.091
0.033 -0.043 0.079
0.017 -0.031 0.089
0.013 -0.029 0.091
0.033 -0.033 0.065
0.021 -0.033 0.037
0.029 -0.033 0.037
-0.001 -0.035 0.037
0.009 -0.035 0.039
0.009 -0.035 0.039
0.005 -0.033 0.047
0.005 -0.033 0.043
0.011 -0.033 0.043
0.015 -0.033 0.041
0.011 -0.029 0.051
0.003 -0.031 0.055
0.009 -0.035 0.063
0.007 -0.033 0.057
0.011 -0.035 0.061
0.013 -0.035 0.063
0.013 -0.035 0.037
0.015 -0.035 0.037
0.011 -0.035 0.037
0.005 -0.033 0.045
0.025 -0.033 0.037
0.029 -0.031 0.043
0.033 -0.033 0.047
0.021 -0.033 0.039
0.023 -0.033 0.039
0.027 -0.031 0.041
0.031 -0.031 0.041
0.033 -0.031 0.039
0.033 -0.029 0.037
0.035 -0.029 0.039
0.035 -0.033 0.047
0.017 -0.029 0.057
0.013 -0.033 0.059
0.031 -0.033 0.051
0.029 -0.035 0.057
0.031 -0.035 0.055
0.031 -0.037 0.059
0.029 -0.037 0.063
0.033 -0.035 0.059
0.037 -0.033 0.053
0.015 -0.027 0.053
0.023 -0.033 0.061
0.037 -0.029 0.041
0.029 -0.033 0.053
0.031 -0.035 0.055
0.027 -0.035 0.057
0.031 -0.037 0.061
0.015 -0.035 0.071
0.015 -0.035 0.079
0.007 -0.033 0.087
0.009 -0.033 0.087
0.003 -0.027 0.091
0.011 -0.031 0.089
0.013 -0.035 0.065
0.023 -0.037 0.065
0.007 -0.035 0.073
0.023 -0.041 0.077
0.025 -0.039 0.069
0.027 -0.037 0.065
0.031 -0.037 0.065
0.017 -0.035 0.077
0.027 -0.037 0.071
0.027 -0.037 0.071
0.029 -0.035 0.071
0.013 -0.035 0.079
0.015 -0.035 0.079
0.031 -0.043 0.079
0.011 -0.023 0.091
0.031 -0.043 0.079
0.031 -0.043 0.081
0.035 -0.043 0.079
0.017 -0.031 0.087
0.013 -0.029 0.091
0.035 -0.043 0.085
0.031 -0.037 0.089
0.023 -0.039 0.083
0.025 -0.041 0.077
0.035 -0.045 0.081
0.023 -0.039 0.083
0.031 -0.043 0.083
0.027 -0.041 0.083
0.033 -0.043 0.079
0.035 -0.043 0.079
0.035 -0.041 0.083
-0.025 0.039 0.083
0.035 -0.041 0.083
-0.027 -0.003 0.099
-0.019 0.005 0.101
0.009 -0.025 0.095
-0.021 0.003 0.103
-0.017 -0.001 0.109
-0.009 0.003 0.103
-0.009 0.005 0.101
-0.009 0.003 0.103
-0.017 0.021 0.099
-0.017 0.023 0.097
-0.021 0.025 0.103
-0.009 0.001 0.103
-0.015 0.013 0.105
-0.007 -0.001 0.095
-0.015 0.017 0.101
-0.009 0.001 0.101
-0.013 0.013 0.097
-0.019 0.025 0.095
-0.015 0.017 0.099
-0.017 0.019 0.103
0.033 -0.031 0.039
0.033 -0.031 0.039
0.033 -0.029 0.037
0.037 -0.027 0.039
0.037 -0.029 0.041
0.035 -0.033 0.047
0.037 -0.025 0.037
0.037 -0.025 0.037
0.037 -0.025 0.037
0.003 -0.009 0.043
0.007 -0.005 0.043
0.005 -0.005 0.043
0.003 -0.009 0.049
-0.001 -0.011 0.045
-0.001 -0.001 0.047
-0.017 0.033 0.047
-0.007 0.037 0.045
-0.017 0.033 0.051
-0.017 0.033 0.053
-0.013 0.031 0.053
-0.003 -0.013 0.043
0.001 -0.015 0.059
-0.013 0.009 0.061
0.001 -0.003 0.079
-0.013 0.003 0.071
-0.015 0.001 0.077
-0.015 0.001 0.073
-0.009 0.003 0.073
0.003 -0.005 0.069
0.001 0.001 0.071
-0.009 0.003 0.075
0.005 -0.009 0.087
0.003 -0.007 0.085
-0.005 -0.009 0.089
0.001 -0.015 0.093
-0.019 0.023 0.091
-0.013 0.013 0.087
-0.013 0.015 0.095
-0.011 -0.003 0.085
0.001 -0.007 0.089
-0.007 -0.007 0.089
-0.013 0.013 0.099
-0.015 -0.005 0.109
-0.021 0.007 0.107
0.017 -0.001 0.037
0.013 0.005 0.039
0.015 0.007 0.037
0.025 -0.003 0.035
0.009 -0.005 0.045
0.029 -0.011 0.043
0.027 -0.027 0.061
0.033 -0.025 0.061
0.037 -0.017 0.047
0.007 -0.005 0.043
0.007 -0.005 0.043
0.015 -0.003 0.043
0.019 -0.003 0.039
0.013 -0.005 0.049
0.019 -0.005 0.051
0.035 -0.013 0.039
0.029 -0.007 0.045
0.035 -0.013 0.043
0.029 -0.011 0.035
0.031 -0.005 0.053
0.027 -0.003 0.051
0.005 -0.007 0.039
0.013 0.005 0.039
0.019 -0.001 0.037
0.015 0.007 0.037
0.017 0.003 0.037
0.011 0.001 0.039
0.017 0.003 0.037
0.007 -0.005 0.045
0.033 -0.013 0.033
0.025 -0.009 0.033
0.023 -0.003 0.033
0.021 -0.001 0.035
0.019 -0.003 0.039
0.021 -0.005 0.047
0.025 -0.003 0.049
0.029 -0.003 0.047
0.029 -0.003 0.047
0.005 -0.011 0.055
0.021 -0.009 0.067
0.031 -0.007 0.053
0.029 -0.005 0.061
0.011 -0.015 0.061
0.013 -0.015 0.063
0.019 -0.005 0.051
0.017 -0.007 0.053
0.023 -0.005 0.057
0.023 -0.005 0.053
0.027 -0.003 0.055
0.025 -0.007 0.063
0.027 -0.009 0.063
0.037 -0.015 0.041
0.035 -0.013 0.037
0.037 -0.015 0.037
0.037 -0.017 0.047
0.039 -0.017 0.043
0.041 -0.021 0.045
0.041 -0.019 0.043
0.037 -0.015 0.041
0.039 -0.023 0.053
0.041 -0.023 0.051
0.037 -0.023 0.057
0.033 -0.027 0.063
0.035 -0.023 0.057
0.007 -0.017 0.069
0.021 -0.011 0.071
0.023 -0.031 0.071
0.029 -0.029 0.069
0.027 -0.031 0.071
0.025 -0.033 0.075
0.011 -0.015 0.089
0.027 -0.033 0.083
0.025 -0.033 0.083
0.027 -0.033 0.081
0.025 -0.033 0.083
0.031 -0.035 0.087
0.003 -0.019 0.067
0.007 -0.019 0.071
0.007 -0.013 0.075
0.005 -0.013 0.073
0.021 -0.027 0.065
0.025 -0.031 0.071
0.023 -0.011 0.067
0.021 -0.011 0.071
0.021 -0.025 0.073
0.021 -0.023 0.073
0.001 -0.001 0.065
0.001 0.001 0.065
0.011 -0.013 0.087
0.013 -0.023 0.089
0.013 -0.027 0.091
0.001 -0.007 0.087
-0.011 0.043 0.041
0.001 0.021 0.033
-0.023 0.035 0.037
-0.007 0.039 0.033
-0.021 0.037 0.045
-0.025 0.037 0.043
-0.027 0.037 0.045
-0.027 0.037 0.049
-0.029 0.037 0.053
-0.025 0.037 0.055
-0.043 0.027 0.037
-0.039 0.033 0.043
-0.045 0.029 0.035
-0.041 0.027 0.037
-0.033 0.031 0.033
-0.031 0.035 0.037
-0.029 0.039 0.049
-0.041 0.031 0.047
-0.029 0.037 0.057
-0.027 0.037 0.059
-0.039 0.035 0.051
-0.029 0.035 0.063
-0.035 0.035 0.061
-0.037 0.035 0.057
-0.019 0.037 0.043
-0.007 0.041 0.043
-0.001 0.015 0.043
-0.003 0.031 0.037
-0.003 0.025 0.037
-0.001 0.023 0.035
-0.023 0.035 0.039
-0.025 0.031 0.033
-0.019 0.037 0.035
-0.011 0.043 0.039
-0.005 0.033 0.041
-0.001 0.023 0.035
-0.009 0.043 0.041
-0.003 0.033 0.035
-0.003 0.027 0.041
-0.005 0.031 0.041
-0.005 0.029 0.045
-0.017 0.033 0.055
-0.019 0.031 0.057
-0.019 0.027 0.063
-0.001 0.003 0.049
-0.001 0.005 0.053
-0.013 0.017 0.055
-0.003 0.013 0.051
-0.017 0.021 0.057
-0.017 0.031 0.057
-0.019 0.029 0.061
-0.007 0.023 0.049
-0.013 0.031 0.049
-0.011 0.029 0.049
-0.011 0.029 0.053
-0.013 0.029 0.055
-0.033 0.035 0.037
-0.037 0.035 0.041
-0.033 0.037 0.055
-0.033 0.037 0.057
-0.015 0.041 0.039
-0.025 0.037 0.045
-0.009 0.041 0.037
-0.007 0.037 0.033
-0.007 0.037 0.037
-0.007 0.039 0.041
-0.007 0.041 0.043
-0.025 0.037 0.055
-0.019 0.033 0.051
-0.023 0.035 0.055
-0.029 0.037 0.059
-0.029 0.037 0.059
-0.031 0.031 0.069
-0.031 0.023 0.075
-0.031 0.025 0.075
-0.027 0.039 0.087
-0.027 0.041 0.099
-0.027 0.043 0.087
-0.037 0.035 0.097
-0.031 0.043 0.091
-0.035 0.033 0.097
-0.031 0.041 0.097
-0.015 0.015 0.077
-0.003 0.005 0.065
-0.007 0.001 0.079
-0.015 0.013 0.075
-0.023 0.025 0.075
-0.027 0.023 0.077
-0.027 0.025 0.075
-0.021 0.027 0.091
-0.013 0.013 0.089
-0.013 0.013 0.089
-0.011 0.009 0.095
-0.011 0.011 0.093
-0.007 0.001 0.095
-0.013 0.013 0.095
-0.021 0.033 0.083
-0.023 0.033 0.087
-0.015 0.019 0.085
-0.023 0.033 0.087
-0.017 0.021 0.091
-0.019 0.025 0.091
-0.027 0.037 0.089
-0.023 0.037 0.097
-0.025 0.039 0.097
-0.021 0.029 0.095
-0.037 0.047 0.085
-0.037 0.047 0.085
-0.031 0.049 0.085
-0.033 0.049 0.087
-0.033 0.047 0.089
-0.029 0.045 0.089
-0.041 0.045 0.085
-0.037 0.049 0.091
-0.041 0.037 0.095
-0.031 0.047 0.089
-0.025 0.037 0.095
-0.031 0.015 0.105
-0.031 0.037 0.105
-0.039 0.039 0.097
-0.025 0.027 0.105
-0.015 0.015 0.103
-0.015 0.015 0.107
-0.023 0.013 0.107
-0.017 0.017 0.105
-0.021 0.023 0.103
-0.021 0.027 0.103
-0.019 0.021 0.103
-0.021 0.029 0.097
-0.027 0.027 0.105
-0.021 0.021 0.105
-0.039 0.039 0.097
-0.043 0.037 0.097
-0.035 0.043 0.103
-0.031 0.043 0.105
-0.039 0.041 0.105
-0.027 0.041 0.099
0.013 0.009 0.035
0.003 0.017 0.037
0.003 0.015 0.039
0.003 0.019 0.033
