-0.007 -0.033 0.041
-0.033 -0.003 0.035
-0.007 -0.033 0.041
-0.017 -0.007 0.045
-0.013 -0.015 0.063
-0.011 -0.007 0.089
-0.031 -0.003 0.101
0.007 -0.033 0.061
0.025 -0.025 0.045
-0.005 -0.023 0.047
0.007 -0.033 0.043
0.005 -0.033 0.049
0.025 -0.021 0.047
-0.001 -0.029 0.055
0.001 -0.031 0.051
-0.001 -0.025 0.063
0.029 -0.033 0.053
0.025 -0.029 0.057
0.003 -0.029 0.067
0.025 -0.035 0.061
0.005 -0.033 0.085
0.001 -0.025 0.073
0.003 -0.025 0.069
0.021 -0.037 0.071
-0.001 -0.027 0.089
0.015 -0.031 0.089
0.017 -0.031 0.089
-0.035 0.001 0.035
-0.037 0.017 0.061
-0.035 0.001 0.037
-0.025 -0.001 0.045
-0.015 -0.005 0.039
-0.031 -0.001 0.041
-0.021 -0.003 0.061
-0.023 0.013 0.059
-0.021 -0.003 0.057
-0.041 0.019 0.045
-0.037 0.009 0.051
-0.031 0.011 0.053
-0.037 0.017 0.061
-0.033 0.009 0.083
-0.037 0.019 0.097
-0.013 -0.009 0.081
-0.035 0.015 0.073
-0.031 0.007 0.075
-0.019 -0.003 0.091
-0.033 0.003 0.089
-0.035 0.005 0.097
-0.033 0.001 0.101
-0.037 0.033 0.089
-0.029 -0.005 0.103
-0.027 0.007 0.111
-0.027 0.007 0.111
-0.013 0.003 0.099
-0.027 -0.009 0.103
-0.033 0.023 0.105
-0.039 0.035 0.105
-0.011 -0.009 0.047
-0.017 -0.009 0.051
0.005 -0.007 0.045
-0.005 0.019 0.047
-0.009 0.007 0.063
0.001 -0.001 0.077
-0.013 0.001 0.075
-0.005 -0.009 0.091
0.001 -0.011 0.091
-0.021 0.027 0.091
-0.011 -0.001 0.081
-0.005 -0.009 0.089
-0.003 -0.007 0.089
0.015 0.007 0.037
0.033 -0.019 0.053
0.035 -0.025 0.061
0.015 -0.003 0.037
0.029 -0.003 0.047
0.023 -0.005 0.037
0.017 0.001 0.037
0.023 -0.003 0.051
0.039 -0.019 0.037
0.039 -0.017 0.045
0.015 -0.015 0.081
0.003 -0.019 0.067
0.009 -0.011 0.079
0.007 -0.009 0.077
0.015 -0.021 0.089
0.015 -0.021 0.089
0.005 -0.007 0.085
0.003 -0.011 0.091
0.033 -0.029 0.065
-0.007 0.041 0.041
-0.019 0.037 0.035
-0.027 0.037 0.039
-0.027 0.037 0.059
-0.025 0.035 0.059
-0.027 0.035 0.061
-0.035 0.037 0.053
-0.033 0.035 0.063
-0.017 0.033 0.049
-0.017 0.033 0.051
-0.007 0.035 0.041
-0.009 0.043 0.041
-0.007 0.041 0.043
-0.005 0.033 0.041
-0.017 0.027 0.059
-0.001 0.005 0.055
-0.003 0.009 0.055
-0.015 0.031 0.055
-0.017 0.023 0.061
-0.021 0.031 0.061
-0.037 0.037 0.049
-0.031 0.035 0.063
-0.015 0.041 0.033
-0.023 0.029 0.093
-0.029 0.025 0.091
-0.031 0.023 0.091
-0.031 0.029 0.089
-0.017 0.021 0.069
-0.005 0.003 0.073
-0.017 0.025 0.085
-0.013 0.013 0.093
-0.013 0.013 0.093
-0.017 0.025 0.085
-0.019 0.029 0.083
-0.023 0.029 0.093
-0.027 0.037 0.089
-0.023 0.029 0.093
-0.039 0.047 0.087
-0.041 0.037 0.095
-0.039 0.045 0.089
-0.031 0.047 0.089
-0.031 0.033 0.065
-0.025 0.027 0.105
-0.021 0.009 0.107
-0.021 0.007 0.109
-0.017 0.017 0.105
-0.023 0.007 0.115
-0.027 0.039 0.097
-0.029 0.043 0.101
0.001 0.007 0.043
0.017 -0.003 0.045
-0.003 0.007 0.055
-0.003 0.007 0.059
-0.001 -0.009 0.063
0.007 -0.011 0.077
0.015 -0.015 0.081
0.003 -0.007 0.071
-0.019 -0.001 0.105
0.035 -0.017 0.033
0.031 -0.017 0.049
0.041 -0.023 0.045
0.021 -0.003 0.041
0.017 0.001 0.037
0.029 -0.011 0.033
0.035 -0.025 0.061
0.007 -0.011 0.053
0.023 -0.003 0.051
0.031 -0.011 0.057
0.041 -0.027 0.047
0.035 -0.041 0.081
0.015 -0.023 0.089
0.013 -0.015 0.085
0.003 0.015 0.039
-0.001 0.003 0.045
-0.007 0.025 0.047
-0.007 0.013 0.055
-0.017 0.021 0.057
-0.019 0.017 0.057
-0.001 0.005 0.061
-0.015 0.019 0.055
-0.007 0.035 0.033
-0.007 0.037 0.045
-0.017 0.019 0.073
-0.017 0.011 0.071
-0.007 0.005 0.071
-0.025 0.027 0.073
-0.011 0.009 0.087
-0.013 0.009 0.097
-0.011 0.007 0.095
-0.029 0.045 0.087
-0.019 0.003 0.105
-0.013 0.013 0.107
-0.021 0.033 0.097
-0.021 0.021 0.105
-0.029 0.043 0.101
0.005 0.011 0.037
0.037 -0.031 0.061
0.033 -0.025 0.061
0.031 -0.027 0.065
0.021 -0.025 0.071
-0.001 -0.005 0.053
0.021 -0.009 0.067
0.017 -0.027 0.087
0.017 -0.017 0.081
0.035 -0.035 0.053
0.037 -0.033 0.059
0.035 -0.035 0.061
0.035 -0.033 0.061
0.037 -0.031 0.061
0.031 -0.013 0.045
0.031 -0.005 0.051
0.023 -0.013 0.047
0.031 -0.009 0.051
0.031 -0.015 0.047
0.031 -0.007 0.049
0.035 -0.031 0.063
0.033 -0.023 0.059
0.027 -0.013 0.059
0.027 -0.013 0.061
0.039 -0.029 0.043
0.035 -0.025 0.061
0.031 -0.035 0.083
0.035 -0.039 0.085
0.033 -0.037 0.081
0.013 -0.031 0.089
0.017 -0.023 0.085
0.011 -0.013 0.083
-0.001 0.019 0.041
-0.009 0.015 0.053
-0.013 0.015 0.055
-0.017 0.021 0.067
0.001 0.007 0.043
-0.001 0.005 0.047
0.001 0.017 0.039
-0.021 0.013 0.059
0.001 -0.001 0.067
-0.009 0.009 0.061
-0.013 0.031 0.051
-0.005 0.035 0.035
-0.007 0.041 0.043
-0.011 0.007 0.099
-0.017 0.011 0.071
-0.003 0.003 0.073
-0.015 0.007 0.079
-0.021 0.023 0.077
-0.009 0.001 0.097
-0.011 0.007 0.087
-0.011 0.011 0.093
-0.015 0.015 0.091
-0.015 0.017 0.087
-0.017 0.025 0.085
-0.029 0.045 0.087
-0.031 0.043 0.091
-0.013 0.005 0.103
-0.021 0.027 0.101
-0.031 0.037 0.103
-0.025 0.039 0.101
0.005 0.011 0.039
-0.007 -0.027 0.041
-0.007 -0.027 0.045
-0.009 -0.023 0.041
-0.005 -0.023 0.053
-0.021 -0.007 0.053
-0.015 -0.015 0.071
-0.017 -0.001 0.071
-0.029 -0.007 0.089
-0.031 -0.005 0.097
-0.001 -0.021 0.033
-0.009 -0.029 0.041
0.001 -0.025 0.035
-0.007 -0.023 0.041
-0.005 -0.017 0.039
-0.003 -0.015 0.037
-0.029 0.005 0.047
-0.005 -0.019 0.053
-0.017 0.001 0.067
-0.005 -0.015 0.043
-0.015 -0.013 0.057
0.001 -0.031 0.079
-0.001 -0.029 0.083
0.003 -0.027 0.069
0.003 -0.023 0.067
-0.045 0.029 0.035
-0.041 0.011 0.039
-0.039 0.009 0.041
-0.039 0.017 0.057
-0.039 0.009 0.047
-0.039 0.011 0.053
-0.035 0.015 0.063
-0.021 0.009 0.063
-0.041 0.029 0.055
-0.013 0.039 0.043
-0.031 0.039 0.049
-0.039 0.023 0.065
-0.037 0.027 0.067
-0.033 0.019 0.077
-0.039 0.031 0.081
-0.039 0.017 0.093
-0.041 0.023 0.093
-0.033 0.013 0.075
-0.033 0.021 0.075
-0.035 0.009 0.093
-0.037 0.019 0.089
-0.039 0.033 0.081
-0.043 0.039 0.087
-0.039 0.021 0.101
-0.037 0.021 0.103
-0.041 0.029 0.099
-0.039 0.031 0.101
-0.037 0.031 0.103
-0.035 0.007 0.097
-0.045 0.039 0.101
-0.043 0.041 0.103
-0.039 0.009 0.047
-0.003 -0.029 0.045
-0.009 -0.031 0.039
-0.023 -0.007 0.047
0.001 -0.031 0.059
-0.017 -0.011 0.057
-0.015 -0.013 0.063
-0.021 -0.001 0.081
-0.009 -0.021 0.083
-0.001 -0.029 0.085
0.031 -0.023 0.031
0.009 -0.035 0.039
0.015 -0.033 0.063
0.017 -0.035 0.037
0.011 -0.033 0.043
0.009 -0.035 0.035
0.033 -0.033 0.045
0.005 -0.031 0.055
0.005 -0.033 0.057
0.005 -0.033 0.063
0.019 -0.029 0.057
0.039 -0.029 0.043
0.039 -0.029 0.045
0.035 -0.031 0.041
0.005 -0.033 0.075
0.017 -0.035 0.079
0.029 -0.041 0.073
0.029 -0.039 0.087
0.035 -0.045 0.081
0.033 -0.043 0.083
0.021 -0.037 0.071
0.011 -0.037 0.075
0.013 -0.035 0.077
0.003 -0.029 0.089
0.003 -0.027 0.091
0.003 -0.023 0.095
-0.037 0.005 0.037
-0.045 0.015 0.039
-0.025 -0.007 0.037
-0.019 -0.001 0.033
0.007 -0.031 0.049
0.007 -0.033 0.043
-0.017 -0.011 0.055
-0.019 -0.009 0.051
-0.017 -0.011 0.061
0.007 -0.033 0.057
-0.009 -0.013 0.055
-0.031 0.013 0.059
-0.005 -0.029 0.045
-0.033 0.013 0.067
-0.031 -0.001 0.085
-0.031 -0.001 0.085
0.007 -0.035 0.071
-0.017 -0.013 0.071
-0.007 -0.023 0.085
-0.007 -0.023 0.083
-0.001 -0.027 0.087
-0.005 -0.013 0.093
-0.023 -0.001 0.083
-0.009 -0.021 0.083
-0.007 -0.023 0.083
-0.011 -0.019 0.083
-0.007 -0.023 0.085
-0.021 -0.001 0.083
-0.021 -0.001 0.085
-0.031 -0.003 0.095
-0.027 -0.009 0.103
-0.021 -0.001 0.105
-0.023 0.001 0.095
-0.019 0.009 0.103
-0.027 -0.009 0.095
-0.023 0.001 0.099
-0.025 0.005 0.103
0.015 -0.033 0.039
0.019 -0.035 0.037
0.023 -0.033 0.039
-0.009 0.019 0.051
-0.009 0.017 0.053
-0.001 0.013 0.047
-0.001 0.011 0.049
-0.001 0.005 0.057
0.003 -0.011 0.053
0.003 -0.013 0.059
0.001 0.001 0.061
0.003 -0.013 0.059
-0.005 -0.001 0.081
-0.001 -0.003 0.083
-0.015 -0.005 0.111
0.035 -0.031 0.063
0.011 -0.003 0.043
0.031 -0.011 0.039
0.019 -0.001 0.037
0.013 -0.017 0.071
0.031 -0.027 0.065
0.039 -0.017 0.039
0.041 -0.021 0.049
0.041 -0.021 0.045
0.039 -0.017 0.045
0.035 -0.019 0.051
0.019 -0.033 0.083
0.017 -0.013 0.073
0.019 -0.021 0.079
0.011 -0.021 0.091
-0.011 0.037 0.045
-0.015 0.033 0.047
0.001 0.011 0.045
-0.013 0.033 0.047
-0.017 0.019 0.057
-0.013 0.007 0.063
-0.005 0.007 0.063
-0.027 0.037 0.043
-0.033 0.037 0.053
-0.029 0.039 0.049
-0.007 0.035 0.039
-0.019 0.027 0.095
-0.027 0.029 0.101
-0.017 0.009 0.073
-0.015 0.011 0.079
-0.017 0.017 0.073
-0.009 0.005 0.093
-0.019 0.025 0.091
-0.029 0.047 0.087
-0.029 0.043 0.101
-0.025 0.043 0.083
-0.031 0.039 0.103
-0.009 0.005 0.101
0.015 0.005 0.037
0.003 0.011 0.041
-0.041 0.023 0.045
-0.031 0.039 0.049
-0.039 0.031 0.057
-0.039 0.031 0.061
-0.025 0.035 0.057
-0.041 0.043 0.089
-0.025 0.021 0.093
-0.029 0.021 0.091
-0.027 0.011 0.107
-0.029 0.039 0.047
-0.027 0.037 0.055
-0.017 0.033 0.051
0.027 -0.029 0.055
0.019 -0.009 0.065
-0.025 0.037 0.047
-0.011 0.037 0.045
-0.015 0.031 0.053
-0.019 0.035 0.047
-0.007 0.031 0.047
-0.009 0.039 0.045
0.015 0.005 0.037
0.021 -0.003 0.043
0.019 -0.009 0.055
0.021 -0.009 0.057
-0.017 0.033 0.055
0.015 -0.005 0.051
0.027 -0.003 0.049
0.021 -0.007 0.061
0.013 -0.015 0.077
-0.029 0.029 0.071
0.015 -0.017 0.067
-0.023 0.027 0.073
0.021 -0.009 0.065
0.019 -0.011 0.067
-0.031 0.041 0.097
-0.029 0.041 0.097
-0.027 0.039 0.097
-0.021 0.035 0.037
-0.043 0.027 0.039
-0.041 0.017 0.045
-0.039 0.025 0.061
-0.039 0.027 0.061
-0.039 0.027 0.037
-0.013 0.033 0.047
-0.031 0.033 0.067
-0.033 0.035 0.063
-0.035 0.035 0.061
-0.017 0.033 0.053
-0.019 0.037 0.033
-0.025 0.037 0.041
-0.013 0.041 0.037
-0.015 0.041 0.037
-0.029 0.037 0.059
-0.041 0.031 0.093
-0.031 0.025 0.075
-0.023 0.023 0.077
-0.027 0.031 0.069
-0.023 0.029 0.069
-0.029 0.025 0.075
-0.023 0.025 0.075
-0.035 0.011 0.087
-0.037 0.049 0.091
-0.035 0.047 0.085
-0.033 0.049 0.085
-0.033 0.049 0.087
-0.043 0.039 0.081
-0.043 0.039 0.083
-0.041 0.037 0.095
-0.029 0.039 0.095
-0.045 0.037 0.099
-0.043 0.041 0.103
-0.043 0.037 0.103
-0.027 0.011 0.109
-0.031 0.043 0.101
-0.017 0.015 0.107
-0.015 0.011 0.109
-0.031 0.043 0.101
-0.035 0.041 0.101
-0.037 0.041 0.103
-0.033 0.041 0.099
-0.013 0.041 0.041
-0.009 0.031 0.047
