-0.001 -0.013 0.055
-0.001 0.003 0.069
-0.001 0.005 0.055
0.001 0.001 0.063
-0.025 0.011 0.111
0.027 -0.003 0.053
0.015 -0.007 0.051
0.005 -0.013 0.059
0.033 -0.013 0.035
0.011 -0.013 0.087
0.025 -0.033 0.085
-0.037 0.035 0.055
-0.019 0.025 0.069
-0.003 0.013 0.051
-0.001 0.023 0.039
-0.009 0.037 0.045
-0.019 0.025 0.071
-0.015 0.015 0.055
-0.013 0.037 0.043
-0.023 0.037 0.097
-0.017 0.017 0.075
-0.019 0.025 0.071
-0.021 0.029 0.097
-0.021 0.029 0.097
-0.035 0.047 0.093
-0.035 0.037 0.089
-0.031 0.043 0.105
-0.029 0.045 0.089
-0.009 -0.031 0.039
-0.007 -0.009 0.049
-0.013 -0.013 0.057
-0.031 -0.003 0.101
0.021 -0.035 0.035
0.005 -0.033 0.059
0.005 -0.035 0.071
0.029 -0.037 0.069
0.011 -0.031 0.089
-0.043 0.017 0.051
-0.041 0.015 0.055
-0.031 -0.001 0.039
-0.033 0.001 0.039
-0.017 -0.011 0.065
-0.043 0.029 0.095
-0.033 0.017 0.075
-0.029 -0.001 0.085
-0.027 -0.005 0.091
-0.035 0.007 0.095
-0.039 0.043 0.091
-0.031 0.001 0.103
-0.041 0.033 0.101
-0.035 0.033 0.105
-0.003 -0.027 0.047
-0.007 -0.023 0.085
0.007 -0.033 0.081
0.007 -0.029 0.091
0.025 -0.035 0.033
0.029 -0.033 0.039
0.025 -0.035 0.035
0.033 -0.033 0.047
0.017 -0.025 0.051
0.017 -0.023 0.049
0.039 -0.021 0.039
0.037 -0.031 0.059
0.035 -0.043 0.077
0.025 -0.037 0.065
0.029 -0.039 0.087
0.005 -0.033 0.041
0.017 -0.031 0.041
0.035 -0.035 0.053
0.033 -0.035 0.061
0.017 -0.029 0.043
0.021 -0.025 0.043
0.025 -0.039 0.069
0.023 -0.041 0.077
0.013 -0.031 0.089
0.005 -0.033 0.085
-0.021 0.033 0.083
-0.017 0.021 0.097
-0.007 -0.033 0.041
0.001 -0.019 0.095
-0.013 -0.015 0.081
-0.013 -0.011 0.083
-0.011 -0.003 0.085
-0.027 -0.005 0.103
0.035 -0.035 0.055
0.011 -0.029 0.093
0.029 -0.029 0.069
0.021 -0.021 0.047
0.021 -0.023 0.079
0.005 -0.009 0.087
0.037 -0.017 0.049
0.011 -0.035 0.081
0.007 -0.023 0.095
0.003 -0.003 0.077
0.001 -0.021 0.095
-0.017 0.003 0.093
-0.003 0.009 0.055
-0.019 0.021 0.103
-0.033 0.025 0.105
-0.011 0.007 0.103
-0.017 0.021 0.071
-0.009 0.005 0.101
-0.043 0.037 0.103
0.013 0.003 0.037
-0.003 0.021 0.043
-0.001 0.013 0.049
-0.007 0.007 0.065
0.017 -0.005 0.051
0.029 -0.003 0.051
0.023 -0.003 0.037
0.021 -0.009 0.067
0.011 -0.005 0.049
0.027 -0.003 0.053
0.023 -0.009 0.063
0.017 -0.017 0.079
0.009 -0.023 0.093
-0.021 0.037 0.045
-0.027 0.037 0.043
-0.049 0.025 0.033
-0.037 0.035 0.041
-0.001 0.023 0.039
-0.029 0.029 0.073
-0.015 0.017 0.089
-0.033 0.049 0.087
-0.037 0.049 0.091
-0.031 0.041 0.099
-0.017 0.015 0.107
-0.031 0.043 0.101
-0.033 0.041 0.099
-0.023 0.037 0.099
0.031 -0.005 0.055
-0.001 0.001 0.051
-0.001 -0.001 0.047
-0.001 -0.003 0.053
0.001 -0.003 0.079
-0.009 -0.007 0.089
0.037 -0.023 0.035
0.021 -0.029 0.063
0.039 -0.021 0.037
0.041 -0.027 0.049
0.003 -0.013 0.071
-0.003 0.033 0.035
-0.007 0.021 0.049
-0.017 0.027 0.059
-0.007 0.015 0.051
0.001 0.007 0.041
0.001 0.021 0.037
-0.021 0.015 0.061
-0.003 0.005 0.063
-0.029 0.039 0.051
-0.021 0.033 0.059
-0.017 0.021 0.089
-0.017 0.021 0.085
-0.015 0.015 0.107
-0.015 0.015 0.107
0.003 0.013 0.039
-0.029 0.033 0.065
-0.025 0.031 0.067
-0.005 0.003 0.073
-0.005 -0.009 0.089
-0.017 0.021 0.099
0.019 -0.005 0.049
-0.005 0.007 0.063
0.015 -0.003 0.043
-0.041 0.031 0.051
-0.011 0.009 0.095
-0.017 0.023 0.097
-0.035 0.047 0.093
-0.033 0.015 0.105
-0.029 0.023 0.105
-0.013 0.013 0.101
0.021 -0.011 0.071
0.025 -0.007 0.063
0.009 -0.021 0.091
0.035 -0.033 0.047
0.019 -0.015 0.047
0.033 -0.031 0.065
0.031 -0.031 0.067
0.033 -0.031 0.065
0.033 -0.029 0.065
0.041 -0.029 0.047
0.035 -0.027 0.061
0.037 -0.043 0.079
0.035 -0.041 0.083
0.023 -0.013 0.067
0.009 -0.011 0.083
0.001 0.017 0.039
-0.005 0.007 0.063
0.001 0.013 0.045
-0.005 0.007 0.063
-0.021 0.021 0.079
-0.007 0.001 0.095
-0.015 0.017 0.085
-0.017 0.021 0.095
-0.031 0.039 0.105
0.003 0.019 0.031
-0.001 -0.031 0.043
-0.011 -0.017 0.067
-0.013 -0.017 0.079
-0.003 -0.025 0.089
-0.013 -0.011 0.113
-0.001 -0.019 0.095
0.015 -0.033 0.087
0.029 -0.029 0.069
-0.003 -0.015 0.095
0.025 -0.005 0.059
0.037 -0.023 0.057
-0.003 -0.027 0.083
-0.001 -0.011 0.091
-0.027 0.001 0.045
-0.049 0.023 0.039
-0.043 0.017 0.051
-0.029 -0.007 0.103
-0.027 0.011 0.107
-0.029 0.013 0.105
-0.029 0.017 0.105
-0.027 0.023 0.105
-0.035 0.013 0.103
-0.031 0.009 0.071
-0.019 -0.003 0.111
-0.035 0.019 0.103
-0.029 0.021 0.105
-0.043 0.039 0.087
-0.037 0.047 0.093
-0.027 0.027 0.105
-0.031 0.031 0.101
-0.019 -0.003 0.111
0.037 -0.031 0.045
0.021 -0.029 0.075
0.009 -0.015 0.091
0.005 -0.033 0.059
0.007 -0.033 0.043
0.023 -0.005 0.037
0.029 -0.011 0.053
0.017 -0.017 0.067
0.015 -0.021 0.089
0.025 -0.003 0.039
0.031 -0.005 0.051
-0.017 0.023 0.061
-0.017 0.021 0.087
0.011 -0.013 0.079
-0.017 0.019 0.073
-0.011 0.009 0.087
-0.035 0.031 0.081
-0.013 0.013 0.099
-0.015 0.013 0.105
0.005 0.017 0.035
-0.003 -0.013 0.049
0.013 -0.035 0.065
-0.001 -0.019 0.035
-0.005 -0.023 0.045
-0.003 -0.015 0.037
0.005 -0.031 0.053
0.005 -0.035 0.073
0.007 -0.033 0.087
0.003 -0.027 0.069
-0.013 -0.017 0.079
-0.007 -0.013 0.091
-0.041 0.011 0.051
-0.035 0.001 0.037
-0.041 0.013 0.053
-0.019 -0.003 0.067
-0.019 0.005 0.061
-0.041 0.031 0.051
-0.037 0.017 0.091
-0.033 0.011 0.071
-0.037 0.019 0.081
-0.039 0.021 0.093
-0.039 0.023 0.103
-0.025 0.005 0.111
-0.023 0.001 0.105
-0.033 0.027 0.105
-0.041 0.039 0.105
-0.021 -0.007 0.049
-0.019 -0.007 0.049
-0.025 0.007 0.053
-0.007 -0.031 0.037
-0.017 -0.011 0.063
-0.019 -0.005 0.069
-0.007 -0.023 0.085
0.001 -0.031 0.045
-0.009 -0.027 0.039
-0.027 0.001 0.043
-0.023 0.001 0.055
0.005 -0.033 0.075
0.009 -0.035 0.083
-0.007 -0.015 0.089
-0.031 0.001 0.085
-0.039 0.009 0.035
-0.041 0.011 0.047
-0.039 0.009 0.045
-0.021 0.001 0.061
-0.017 0.039 0.033
-0.033 0.037 0.057
-0.033 0.013 0.065
-0.033 0.017 0.077
-0.037 0.017 0.085
-0.031 0.033 0.067
-0.041 0.035 0.085
-0.035 0.011 0.101
-0.043 0.039 0.103
-0.005 -0.025 0.047
-0.025 -0.005 0.053
-0.017 -0.013 0.071
-0.003 -0.035 0.039
-0.001 -0.033 0.041
0.017 -0.031 0.041
0.021 -0.035 0.065
0.001 -0.031 0.079
-0.031 -0.003 0.035
-0.027 0.001 0.045
-0.011 -0.009 0.049
-0.025 0.001 0.053
-0.021 -0.007 0.049
-0.031 0.013 0.055
-0.035 0.015 0.071
-0.035 0.011 0.083
-0.041 0.023 0.093
-0.013 -0.017 0.071
-0.011 -0.019 0.081
-0.031 -0.003 0.093
-0.035 0.009 0.103
-0.023 0.001 0.099
-0.037 0.017 0.103
-0.033 0.037 0.107
-0.027 -0.005 0.099
-0.007 -0.035 0.033
-0.005 -0.037 0.037
-0.007 -0.029 0.043
-0.015 -0.009 0.047
0.017 -0.029 0.043
0.021 -0.023 0.045
0.031 -0.031 0.043
0.007 -0.033 0.057
0.025 -0.037 0.063
0.023 -0.041 0.079
0.013 -0.037 0.075
0.011 -0.029 0.091
0.007 -0.033 0.085
-0.025 -0.005 0.033
-0.005 -0.037 0.035
0.009 -0.035 0.035
-0.021 0.001 0.033
0.005 -0.033 0.047
0.009 -0.031 0.047
-0.021 -0.007 0.061
-0.029 -0.007 0.101
-0.017 0.003 0.093
-0.003 -0.035 0.039
-0.019 -0.001 0.079
-0.029 -0.003 0.103
0.007 -0.035 0.063
0.003 -0.031 0.051
0.003 -0.021 0.065
0.003 -0.033 0.063
0.027 -0.027 0.051
-0.005 -0.025 0.087
-0.003 -0.023 0.091
0.005 -0.029 0.089
-0.023 -0.001 0.057
-0.041 0.015 0.055
-0.033 0.011 0.075
-0.037 0.013 0.097
-0.011 -0.009 0.087
-0.029 -0.007 0.097
-0.035 0.007 0.093
-0.011 0.001 0.089
-0.037 0.021 0.097
-0.021 -0.001 0.109
-0.017 -0.013 0.069
-0.025 -0.003 0.047
-0.041 0.023 0.049
-0.021 -0.007 0.061
-0.015 -0.013 0.079
-0.031 -0.003 0.089
-0.037 0.021 0.087
-0.023 0.001 0.109
-0.041 0.021 0.051
-0.041 0.029 0.049
-0.041 0.027 0.053
-0.039 0.033 0.053
-0.039 0.033 0.051
-0.033 0.005 0.087
-0.033 0.005 0.087
-0.013 -0.017 0.079
-0.039 0.019 0.093
-0.041 0.015 0.045
-0.025 0.035 0.037
-0.013 0.033 0.047
-0.041 0.017 0.053
-0.041 0.025 0.057
-0.027 0.033 0.063
-0.029 0.035 0.061
-0.035 0.037 0.047
-0.033 0.013 0.075
-0.033 0.017 0.075
-0.035 0.017 0.071
-0.041 0.035 0.083
-0.029 0.025 0.091
-0.033 0.019 0.105
-0.039 0.019 0.101
-0.035 0.015 0.105
-0.017 0.015 0.107
-0.041 0.033 0.101
0.007 -0.011 0.053
0.001 -0.003 0.069
-0.011 0.009 0.087
-0.015 0.013 0.107
0.031 -0.005 0.055
0.027 -0.017 0.047
0.023 -0.007 0.061
0.037 -0.015 0.041
0.041 -0.027 0.053
0.033 -0.039 0.077
0.031 -0.035 0.083
0.027 -0.033 0.087
0.021 -0.023 0.075
-0.011 0.021 0.053
-0.017 0.023 0.057
-0.017 0.025 0.059
-0.027 0.037 0.051
0.001 0.015 0.043
-0.003 0.017 0.043
-0.017 0.023 0.061
-0.005 0.003 0.071
-0.011 0.009 0.095
-0.031 0.037 0.105
0.017 0.005 0.035
-0.005 -0.025 0.081
0.007 -0.035 0.075
-0.009 -0.015 0.087
-0.025 -0.007 0.097
-0.009 -0.011 0.091
-0.027 -0.005 0.103
0.027 -0.033 0.039
0.007 -0.033 0.047
0.023 -0.031 0.041
0.033 -0.031 0.039
0.035 -0.033 0.047
0.029 -0.037 0.089
0.033 -0.031 0.065
0.013 -0.033 0.059
0.033 -0.035 0.063
0.031 -0.011 0.057
-0.035 0.013 0.055
-0.001 0.013 0.049
0.009 -0.011 0.087
0.011 -0.015 0.089
-0.011 0.031 0.047
-0.007 0.039 0.041
-0.017 0.021 0.071
-0.019 0.025 0.071
-0.021 -0.001 0.091
-0.017 0.001 0.109
-0.023 0.007 0.115
0.001 -0.021 0.095
-0.025 0.001 0.079
-0.009 0.005 0.091
-0.007 -0.001 0.095
-0.009 0.005 0.099
-0.015 0.019 0.087
-0.021 0.015 0.105
-0.023 0.025 0.105
-0.013 0.013 0.089
-0.027 0.029 0.103
-0.023 0.015 0.105
-0.015 0.011 0.109
0.011 -0.013 0.055
0.033 -0.025 0.061
0.009 -0.023 0.093
-0.003 -0.007 0.089
-0.009 0.027 0.051
-0.003 0.013 0.045
-0.033 0.041 0.091
-0.039 0.039 0.105
-0.021 0.021 0.105
-0.041 0.039 0.105
-0.035 0.043 0.105
-0.001 0.017 0.041
-0.039 0.033 0.055
-0.029 0.039 0.047
-0.029 0.039 0.051
-0.035 0.033 0.063
-0.031 0.027 0.073
-0.025 0.027 0.073
-0.009 0.043 0.043
-0.031 0.031 0.069
0.009 -0.007 0.049
0.025 -0.003 0.055
0.025 -0.007 0.063
0.027 -0.033 0.085
-0.035 0.031 0.035
-0.021 0.031 0.033
-0.029 0.035 0.063
-0.037 0.035 0.059
-0.013 0.041 0.035
-0.011 0.041 0.043
-0.023 0.035 0.057
-0.043 0.041 0.085
-0.003 0.005 0.067
-0.001 0.003 0.069
-0.039 0.025 0.085
-0.043 0.039 0.085
-0.031 0.039 0.097
-0.025 0.037 0.095
-0.043 0.043 0.087
-0.033 0.021 0.105
-0.025 0.011 0.111
-0.031 0.043 0.101
-0.037 0.041 0.101
-0.013 0.041 0.041
-0.015 0.033 0.047
