-0.007 -0.035 0.033
-0.007 -0.031 0.041
-0.009 -0.029 0.037
-0.001 -0.023 0.035
-0.003 -0.023 0.037
-0.005 -0.019 0.039
-0.001 -0.029 0.047
-0.005 -0.025 0.047
-0.005 -0.021 0.041
-0.005 -0.017 0.043
-0.029 -0.003 0.039
-0.029 -0.003 0.041
-0.031 -0.001 0.041
-0.029 -0.001 0.043
-0.025 -0.005 0.047
-0.029 -0.003 0.043
-0.021 -0.007 0.049
-0.029 -0.003 0.043
-0.025 -0.001 0.051
-0.025 0.001 0.051
-0.003 -0.027 0.053
-0.003 -0.017 0.055
-0.001 -0.021 0.061
-0.019 -0.009 0.051
-0.025 -0.005 0.051
-0.023 -0.003 0.055
-0.023 -0.001 0.055
-0.017 -0.013 0.063
-0.023 -0.001 0.057
-0.019 -0.009 0.057
-0.019 -0.009 0.053
-0.015 -0.013 0.057
-0.021 -0.003 0.059
-0.021 -0.001 0.059
-0.017 -0.011 0.059
-0.017 -0.011 0.061
-0.017 -0.011 0.065
-0.019 -0.005 0.065
-0.021 -0.001 0.061
-0.021 -0.001 0.061
-0.015 -0.015 0.071
-0.015 -0.015 0.071
-0.013 -0.017 0.079
-0.011 -0.019 0.075
-0.017 -0.013 0.067
-0.015 -0.009 0.079
-0.025 0.001 0.079
-0.027 0.001 0.081
-0.007 -0.023 0.081
-0.011 -0.019 0.083
-0.011 -0.019 0.083
-0.007 -0.023 0.085
-0.009 -0.017 0.087
-0.005 -0.023 0.089
-0.005 -0.021 0.089
-0.029 -0.007 0.087
-0.029 -0.005 0.087
-0.031 0.001 0.087
-0.031 -0.003 0.091
-0.031 -0.001 0.091
-0.029 -0.005 0.093
-0.031 -0.003 0.093
-0.031 -0.001 0.093
-0.033 0.001 0.091
-0.013 -0.007 0.081
-0.031 -0.001 0.085
-0.031 0.001 0.085
-0.031 -0.001 0.087
-0.031 -0.001 0.085
-0.031 -0.003 0.089
-0.009 -0.011 0.091
-0.009 -0.009 0.089
-0.029 -0.007 0.095
-0.031 -0.005 0.097
-0.029 -0.005 0.099
-0.033 0.001 0.097
-0.029 -0.007 0.101
-0.031 0.001 0.105
-0.017 -0.009 0.111
-0.017 -0.007 0.113
-0.027 -0.007 0.041
-0.027 -0.007 0.039
-0.029 -0.003 0.039
-0.029 -0.005 0.041
-0.027 -0.007 0.041
-0.029 -0.005 0.041
-0.027 -0.007 0.041
-0.029 -0.005 0.041
-0.007 -0.031 0.041
0.001 -0.031 0.049
0.001 -0.031 0.061
0.003 -0.033 0.065
0.001 -0.031 0.063
0.001 -0.031 0.063
0.001 -0.031 0.063
-0.001 -0.027 0.059
-0.001 -0.027 0.061
-0.003 -0.025 0.055
-0.001 -0.025 0.059
-0.009 -0.027 0.039
-0.009 -0.027 0.039
-0.007 -0.027 0.039
-0.009 -0.027 0.037
-0.003 -0.021 0.037
-0.007 -0.029 0.043
-0.005 -0.027 0.045
-0.003 -0.027 0.047
-0.005 -0.025 0.047
-0.003 -0.027 0.049
-0.003 -0.023 0.039
-0.009 -0.023 0.043
-0.003 -0.015 0.037
-0.001 -0.013 0.037
-0.003 -0.013 0.039
-0.003 -0.013 0.039
-0.005 -0.023 0.045
-0.005 -0.025 0.047
-0.005 -0.019 0.051
-0.005 -0.017 0.045
-0.005 -0.019 0.049
-0.003 -0.015 0.051
-0.003 -0.015 0.037
-0.029 -0.005 0.041
-0.027 -0.005 0.043
-0.029 -0.003 0.041
-0.029 0.001 0.041
-0.035 0.005 0.043
-0.035 0.005 0.043
-0.029 -0.001 0.043
-0.027 0.001 0.043
-0.027 0.003 0.045
-0.025 -0.001 0.047
-0.025 -0.001 0.051
-0.027 0.001 0.049
-0.001 -0.011 0.039
-0.025 -0.005 0.047
-0.027 -0.005 0.043
-0.029 -0.003 0.043
-0.029 -0.001 0.043
-0.033 0.003 0.043
-0.027 0.001 0.043
-0.027 0.001 0.047
-0.027 0.003 0.047
-0.021 -0.007 0.051
-0.025 -0.005 0.053
-0.025 -0.005 0.051
-0.023 -0.001 0.055
-0.025 0.003 0.053
-0.025 0.003 0.051
-0.001 -0.029 0.057
-0.005 -0.023 0.053
-0.001 -0.029 0.057
-0.017 -0.011 0.055
-0.003 -0.017 0.055
-0.001 -0.017 0.057
-0.015 -0.013 0.059
-0.001 -0.029 0.059
0.001 -0.031 0.061
-0.013 -0.015 0.065
-0.017 -0.011 0.067
-0.003 -0.021 0.055
-0.003 -0.019 0.057
-0.001 -0.017 0.057
-0.013 -0.015 0.061
0.001 -0.027 0.065
-0.001 -0.025 0.061
-0.001 -0.019 0.061
0.001 -0.021 0.063
0.003 -0.019 0.065
-0.013 -0.015 0.065
-0.017 -0.013 0.065
-0.017 -0.011 0.067
-0.019 -0.009 0.059
-0.021 -0.007 0.057
-0.021 -0.003 0.057
-0.019 0.001 0.065
-0.021 -0.005 0.055
-0.021 0.003 0.059
-0.019 0.003 0.061
-0.019 -0.001 0.063
-0.019 -0.003 0.067
-0.019 -0.001 0.063
-0.019 0.001 0.063
-0.005 -0.019 0.041
-0.023 -0.007 0.047
-0.005 -0.017 0.049
-0.005 -0.019 0.051
-0.019 -0.009 0.053
-0.003 -0.015 0.053
-0.025 -0.005 0.049
-0.025 -0.005 0.053
-0.003 -0.017 0.055
-0.017 -0.011 0.063
-0.015 -0.013 0.059
0.003 -0.021 0.067
0.003 -0.033 0.065
0.003 -0.033 0.071
0.003 -0.033 0.071
0.003 -0.029 0.067
0.003 -0.031 0.069
0.001 -0.029 0.073
0.021 -0.039 0.077
0.023 -0.039 0.081
0.007 -0.035 0.075
-0.001 -0.027 0.077
0.001 -0.029 0.077
0.001 -0.029 0.079
-0.001 -0.029 0.081
-0.001 -0.029 0.081
0.027 -0.041 0.083
-0.003 -0.027 0.083
0.001 -0.031 0.083
0.003 -0.029 0.089
0.003 -0.025 0.071
-0.017 -0.011 0.069
-0.017 -0.011 0.071
-0.017 -0.011 0.071
-0.017 -0.011 0.073
0.001 -0.027 0.073
0.001 -0.027 0.073
0.001 -0.031 0.077
-0.005 -0.023 0.077
-0.011 -0.019 0.075
-0.013 -0.017 0.075
-0.015 -0.015 0.075
-0.015 -0.013 0.077
0.003 -0.023 0.069
0.003 -0.021 0.069
-0.017 -0.011 0.069
-0.015 -0.013 0.075
-0.011 -0.019 0.081
-0.011 -0.017 0.081
-0.019 -0.005 0.069
-0.017 -0.003 0.071
-0.015 -0.005 0.077
-0.017 -0.007 0.075
-0.015 -0.009 0.079
-0.015 -0.005 0.075
-0.017 -0.005 0.071
-0.017 -0.005 0.071
-0.017 -0.007 0.075
-0.017 -0.007 0.075
-0.005 -0.021 0.089
-0.007 -0.017 0.089
-0.003 -0.023 0.091
0.003 -0.029 0.089
-0.001 -0.025 0.091
-0.003 -0.023 0.091
0.003 -0.023 0.095
-0.005 -0.019 0.091
-0.009 -0.019 0.087
-0.011 -0.013 0.087
-0.029 -0.003 0.087
-0.029 -0.005 0.089
-0.031 -0.003 0.089
-0.029 -0.007 0.087
-0.029 -0.007 0.089
-0.035 0.003 0.033
-0.035 0.003 0.033
-0.039 0.009 0.035
-0.041 0.011 0.037
-0.049 0.015 0.035
-0.039 0.007 0.037
-0.047 0.015 0.039
-0.049 0.017 0.039
-0.045 0.027 0.037
-0.017 0.039 0.033
-0.049 0.015 0.037
-0.039 0.007 0.035
-0.047 0.015 0.039
-0.047 0.015 0.039
-0.039 0.009 0.039
-0.041 0.011 0.039
-0.041 0.011 0.039
-0.049 0.017 0.039
-0.037 0.007 0.045
-0.051 0.021 0.037
-0.049 0.023 0.039
-0.047 0.017 0.039
-0.049 0.023 0.039
-0.045 0.021 0.041
-0.041 0.027 0.045
-0.041 0.013 0.053
-0.035 0.015 0.063
-0.043 0.017 0.051
-0.041 0.029 0.049
-0.039 0.025 0.061
-0.039 0.031 0.063
-0.039 0.009 0.037
-0.049 0.015 0.037
-0.035 0.005 0.045
-0.033 0.003 0.043
-0.027 0.001 0.047
-0.037 0.007 0.039
-0.035 0.005 0.039
-0.039 0.009 0.039
-0.035 0.005 0.045
-0.041 0.011 0.047
-0.041 0.013 0.043
-0.043 0.015 0.041
-0.029 0.007 0.051
-0.041 0.011 0.051
-0.043 0.017 0.051
-0.043 0.027 0.039
-0.033 0.033 0.035
-0.035 0.033 0.037
-0.039 0.033 0.051
-0.047 0.023 0.041
-0.039 0.025 0.041
-0.041 0.027 0.043
-0.039 0.029 0.041
-0.041 0.027 0.045
-0.041 0.021 0.051
-0.041 0.031 0.047
-0.039 0.033 0.051
-0.025 0.005 0.053
-0.039 0.011 0.053
-0.035 0.015 0.057
-0.021 0.007 0.057
-0.019 0.001 0.063
-0.031 0.013 0.059
-0.035 0.015 0.063
-0.027 0.009 0.053
-0.035 0.011 0.053
-0.035 0.015 0.059
-0.039 0.019 0.057
-0.041 0.015 0.055
-0.041 0.017 0.055
-0.041 0.019 0.055
-0.021 0.005 0.059
-0.019 0.005 0.061
-0.019 0.007 0.061
-0.039 0.019 0.059
-0.039 0.019 0.059
-0.039 0.023 0.061
-0.039 0.031 0.061
-0.041 0.025 0.059
-0.039 0.033 0.045
-0.037 0.035 0.045
-0.039 0.035 0.053
-0.037 0.037 0.049
-0.037 0.033 0.061
-0.035 0.035 0.061
-0.035 0.033 0.037
-0.037 0.035 0.041
-0.031 0.037 0.039
-0.017 0.039 0.039
-0.035 0.037 0.045
-0.035 0.037 0.047
-0.037 0.037 0.049
-0.035 0.037 0.043
-0.035 0.037 0.043
-0.023 0.037 0.041
-0.037 0.037 0.049
-0.037 0.035 0.047
-0.035 0.037 0.047
-0.039 0.035 0.049
-0.037 0.035 0.057
-0.037 0.035 0.057
-0.033 0.033 0.065
-0.033 0.011 0.069
-0.035 0.015 0.073
-0.037 0.019 0.067
-0.037 0.021 0.065
-0.037 0.029 0.067
-0.035 0.027 0.071
-0.033 0.001 0.089
-0.033 0.005 0.093
-0.035 0.011 0.091
-0.037 0.017 0.083
-0.037 0.017 0.083
-0.037 0.023 0.087
-0.039 0.029 0.083
-0.039 0.027 0.085
-0.037 0.025 0.087
-0.037 0.025 0.087
-0.039 0.031 0.087
-0.035 0.023 0.089
-0.039 0.017 0.093
-0.039 0.019 0.093
-0.041 0.025 0.093
-0.041 0.027 0.093
-0.041 0.027 0.095
-0.043 0.031 0.095
-0.031 0.009 0.073
-0.031 0.009 0.069
-0.029 0.007 0.071
-0.035 0.017 0.071
-0.029 0.005 0.073
-0.029 0.005 0.075
-0.031 0.007 0.075
-0.029 0.003 0.079
-0.033 0.011 0.077
-0.031 0.017 0.079
-0.037 0.017 0.081
-0.029 0.005 0.073
-0.029 0.005 0.073
-0.031 0.009 0.071
-0.031 0.009 0.069
-0.029 0.007 0.071
-0.029 0.007 0.073
-0.029 0.005 0.075
-0.031 0.013 0.081
-0.031 0.015 0.079
-0.037 0.023 0.067
-0.035 0.031 0.067
-0.035 0.027 0.071
-0.033 0.031 0.069
-0.031 0.027 0.073
-0.033 0.023 0.075
-0.029 0.023 0.077
-0.027 0.021 0.079
-0.037 0.019 0.081
-0.031 0.025 0.075
-0.031 0.003 0.083
-0.033 0.005 0.087
-0.033 0.001 0.089
-0.033 0.003 0.091
-0.033 0.005 0.091
-0.033 0.005 0.095
-0.035 0.015 0.091
-0.033 0.007 0.089
-0.033 0.009 0.089
-0.035 0.007 0.093
-0.035 0.009 0.093
-0.033 0.005 0.095
-0.033 0.005 0.095
-0.035 0.007 0.097
-0.037 0.015 0.095
-0.037 0.019 0.085
-0.037 0.021 0.085
-0.039 0.031 0.087
-0.037 0.021 0.091
-0.041 0.023 0.095
-0.041 0.025 0.095
-0.033 0.029 0.089
-0.033 0.029 0.089
-0.041 0.027 0.095
-0.039 0.027 0.091
-0.041 0.027 0.093
-0.033 0.031 0.089
-0.041 0.033 0.083
-0.039 0.033 0.087
-0.041 0.035 0.089
-0.041 0.037 0.095
-0.041 0.035 0.089
-0.039 0.041 0.091
-0.039 0.045 0.089
-0.031 0.033 0.067
-0.041 0.035 0.085
-0.041 0.035 0.087
-0.041 0.039 0.089
-0.041 0.035 0.089
-0.043 0.045 0.085
-0.041 0.045 0.087
-0.041 0.039 0.089
-0.039 0.045 0.091
-0.035 0.005 0.103
-0.035 0.011 0.099
-0.037 0.013 0.097
-0.035 0.011 0.103
-0.035 0.013 0.103
-0.037 0.017 0.103
-0.039 0.023 0.103
-0.039 0.023 0.103
-0.037 0.025 0.099
-0.043 0.031 0.099
-0.033 0.003 0.101
-0.035 0.007 0.101
-0.035 0.007 0.097
-0.035 0.013 0.103
-0.031 0.001 0.105
-0.035 0.003 0.107
-0.033 0.009 0.105
-0.035 0.005 0.105
-0.033 0.005 0.107
-0.035 0.015 0.105
-0.035 0.015 0.105
-0.027 0.011 0.109
-0.027 0.009 0.111
-0.033 0.017 0.105
-0.035 0.007 0.099
-0.035 0.007 0.101
-0.037 0.013 0.099
-0.037 0.015 0.099
-0.031 0.013 0.105
-0.037 0.023 0.099
-0.039 0.025 0.097
-0.039 0.023 0.101
-0.039 0.023 0.103
-0.033 0.029 0.103
-0.033 0.019 0.105
-0.025 0.007 0.113
-0.043 0.033 0.097
-0.039 0.039 0.097
-0.043 0.039 0.099
-0.039 0.033 0.103
-0.039 0.035 0.105
-0.045 0.037 0.099
-0.039 0.039 0.097
-0.043 0.041 0.101
-0.043 0.039 0.099
-0.037 0.041 0.101
-0.041 0.039 0.105
-0.035 0.043 0.105
-0.045 0.021 0.041
-0.039 0.009 0.041
-0.041 0.013 0.045
-0.039 0.011 0.043
-0.043 0.015 0.041
-0.041 0.013 0.047
-0.041 0.013 0.051
