-0.007 -0.033 0.039
-0.001 -0.035 0.039
-0.005 -0.033 0.039
-0.009 -0.025 0.043
-0.007 -0.029 0.043
-0.003 -0.029 0.043
-0.001 -0.029 0.045
-0.003 -0.029 0.045
-0.009 -0.025 0.043
-0.025 -0.007 0.037
-0.029 -0.005 0.041
-0.027 -0.005 0.043
-0.025 -0.005 0.047
-0.025 -0.005 0.047
-0.021 -0.007 0.041
-0.021 -0.007 0.043
-0.005 -0.033 0.041
-0.005 -0.033 0.041
-0.005 -0.029 0.043
-0.013 -0.005 0.039
-0.009 -0.003 0.039
-0.005 -0.025 0.049
-0.011 -0.007 0.043
-0.011 -0.007 0.043
-0.009 -0.005 0.041
-0.007 -0.007 0.045
-0.005 -0.015 0.047
-0.005 -0.023 0.051
-0.003 -0.025 0.057
-0.023 -0.005 0.051
-0.021 -0.007 0.053
-0.023 -0.005 0.053
-0.021 -0.007 0.059
-0.021 -0.007 0.061
-0.015 -0.011 0.053
-0.005 -0.009 0.051
-0.003 -0.021 0.055
-0.005 -0.007 0.049
-0.003 -0.021 0.057
-0.013 -0.015 0.063
-0.011 -0.015 0.063
-0.007 -0.015 0.061
-0.005 -0.015 0.063
-0.003 -0.013 0.061
-0.009 -0.021 0.075
-0.003 -0.027 0.079
-0.019 -0.009 0.065
-0.017 -0.011 0.073
-0.017 -0.001 0.079
-0.015 -0.015 0.067
-0.015 -0.015 0.069
-0.001 -0.017 0.069
-0.003 -0.019 0.071
-0.015 -0.015 0.073
-0.015 -0.013 0.077
-0.015 -0.013 0.079
-0.005 -0.025 0.081
-0.003 -0.027 0.087
-0.009 -0.021 0.083
-0.011 -0.019 0.083
-0.007 -0.023 0.083
-0.007 -0.023 0.087
-0.003 -0.023 0.091
-0.003 -0.017 0.093
-0.025 -0.003 0.087
-0.025 -0.003 0.091
-0.013 -0.015 0.081
-0.013 -0.015 0.083
-0.011 -0.013 0.087
-0.011 -0.017 0.085
-0.009 -0.019 0.087
-0.009 -0.017 0.087
-0.009 -0.021 0.085
-0.005 -0.025 0.087
-0.009 -0.011 0.091
-0.007 -0.013 0.091
-0.005 -0.019 0.091
-0.001 -0.019 0.093
-0.027 -0.005 0.099
-0.029 -0.007 0.101
-0.027 -0.009 0.101
-0.021 -0.001 0.105
-0.017 -0.009 0.109
-0.013 -0.011 0.111
-0.015 -0.011 0.111
0.007 -0.027 0.033
0.001 -0.033 0.035
0.001 -0.033 0.035
0.007 -0.027 0.033
0.007 -0.031 0.035
0.017 -0.035 0.033
0.025 -0.035 0.033
0.019 -0.035 0.035
0.015 -0.035 0.035
0.019 -0.035 0.035
0.027 -0.033 0.035
0.005 -0.033 0.041
0.023 -0.035 0.033
0.023 -0.033 0.037
0.025 -0.035 0.035
0.007 -0.033 0.059
0.025 -0.033 0.059
0.027 -0.037 0.063
0.033 -0.035 0.053
0.001 -0.035 0.037
0.005 -0.027 0.035
0.007 -0.031 0.035
-0.001 -0.033 0.041
0.009 -0.035 0.035
0.011 -0.035 0.037
0.009 -0.035 0.035
-0.003 -0.035 0.037
-0.001 -0.035 0.039
0.005 -0.033 0.037
0.011 -0.033 0.043
0.011 -0.031 0.047
0.021 -0.031 0.039
0.025 -0.035 0.035
0.025 -0.035 0.035
0.029 -0.033 0.035
0.017 -0.035 0.037
0.019 -0.035 0.037
0.019 -0.027 0.041
0.025 -0.031 0.043
0.029 -0.031 0.045
0.017 -0.023 0.047
0.019 -0.023 0.047
0.029 -0.027 0.049
-0.001 -0.031 0.043
0.001 -0.033 0.043
0.007 -0.035 0.037
0.001 -0.031 0.045
0.005 -0.035 0.039
0.003 -0.033 0.043
0.005 -0.033 0.043
0.007 -0.033 0.043
0.005 -0.033 0.045
-0.003 -0.027 0.047
-0.001 -0.029 0.051
0.007 -0.031 0.051
0.015 -0.033 0.041
0.017 -0.033 0.039
0.025 -0.031 0.041
0.013 -0.033 0.041
0.013 -0.031 0.045
0.015 -0.031 0.043
0.015 -0.025 0.049
0.023 -0.013 0.047
0.029 -0.027 0.047
0.027 -0.025 0.047
0.017 -0.025 0.051
0.021 -0.023 0.045
0.025 -0.023 0.049
0.013 -0.025 0.049
0.001 -0.031 0.059
0.003 -0.033 0.063
0.001 -0.027 0.065
0.027 -0.027 0.051
0.029 -0.035 0.057
0.027 -0.027 0.051
0.025 -0.033 0.059
0.025 -0.037 0.063
0.003 -0.031 0.053
0.003 -0.031 0.055
0.001 -0.031 0.059
0.005 -0.031 0.053
-0.001 -0.029 0.059
0.005 -0.033 0.061
0.005 -0.033 0.065
0.007 -0.035 0.065
0.007 -0.035 0.065
0.025 -0.027 0.057
0.019 -0.027 0.055
0.025 -0.031 0.059
0.033 -0.031 0.041
0.035 -0.033 0.047
0.035 -0.033 0.047
0.031 -0.031 0.043
0.029 -0.031 0.045
0.029 -0.031 0.047
0.029 -0.031 0.047
0.037 -0.033 0.055
0.029 -0.031 0.051
0.031 -0.035 0.053
0.037 -0.033 0.053
0.005 -0.033 0.065
0.005 -0.035 0.071
0.015 -0.035 0.065
0.011 -0.037 0.073
0.009 -0.035 0.079
0.015 -0.035 0.079
0.017 -0.035 0.067
0.021 -0.037 0.069
0.027 -0.037 0.071
0.029 -0.043 0.077
0.029 -0.043 0.077
0.031 -0.043 0.083
0.017 -0.033 0.083
0.025 -0.041 0.081
0.031 -0.041 0.085
0.033 -0.043 0.075
0.001 -0.029 0.065
0.003 -0.033 0.067
0.001 -0.027 0.067
0.009 -0.035 0.069
0.011 -0.037 0.069
0.007 -0.035 0.073
0.001 -0.031 0.079
0.001 -0.029 0.075
0.019 -0.035 0.073
0.023 -0.037 0.067
0.023 -0.039 0.071
0.023 -0.039 0.071
0.015 -0.035 0.067
0.017 -0.035 0.073
0.019 -0.035 0.077
0.025 -0.041 0.075
0.013 -0.035 0.077
0.017 -0.035 0.079
-0.001 -0.017 0.069
-0.003 -0.017 0.069
-0.001 -0.021 0.073
-0.003 -0.021 0.073
0.005 -0.033 0.079
-0.003 -0.025 0.077
0.013 -0.035 0.069
0.011 -0.037 0.073
0.003 -0.031 0.085
0.001 -0.029 0.087
0.003 -0.027 0.091
0.007 -0.029 0.091
0.011 -0.031 0.089
0.015 -0.031 0.089
0.011 -0.029 0.091
0.015 -0.031 0.089
0.003 -0.023 0.093
0.005 -0.025 0.093
0.013 -0.031 0.089
0.009 -0.029 0.091
0.009 -0.031 0.089
0.017 -0.033 0.085
0.015 -0.033 0.085
0.017 -0.033 0.085
0.015 -0.031 0.089
-0.001 -0.029 0.083
0.001 -0.031 0.083
-0.003 -0.027 0.083
-0.003 -0.027 0.087
0.001 -0.029 0.087
-0.001 -0.025 0.091
0.003 -0.027 0.091
-0.025 -0.005 0.033
-0.025 -0.005 0.033
-0.029 -0.005 0.033
-0.025 -0.005 0.033
-0.011 0.001 0.033
-0.015 -0.001 0.035
-0.017 -0.001 0.035
-0.009 0.001 0.033
-0.011 -0.001 0.035
-0.023 -0.005 0.037
-0.017 -0.001 0.035
-0.019 -0.001 0.035
-0.007 0.003 0.035
-0.005 0.005 0.035
-0.025 -0.007 0.039
-0.033 -0.001 0.037
-0.033 0.001 0.039
-0.037 0.005 0.037
-0.033 -0.003 0.035
-0.039 0.007 0.037
-0.037 0.007 0.039
-0.035 0.005 0.043
-0.035 0.007 0.047
-0.033 0.007 0.047
-0.037 0.007 0.045
-0.051 0.017 0.035
-0.041 0.013 0.041
-0.037 0.005 0.037
-0.037 0.007 0.039
-0.047 0.015 0.037
-0.037 0.005 0.037
-0.039 0.009 0.043
-0.041 0.015 0.045
-0.041 0.013 0.047
-0.041 0.021 0.047
-0.041 0.013 0.053
-0.037 0.013 0.055
-0.035 0.013 0.055
-0.041 0.015 0.055
-0.041 0.015 0.055
-0.041 0.015 0.053
-0.041 0.013 0.053
-0.039 0.017 0.057
-0.039 0.019 0.059
-0.031 -0.003 0.037
-0.031 -0.003 0.037
-0.027 0.001 0.047
-0.011 -0.003 0.037
-0.011 -0.005 0.039
-0.009 -0.001 0.037
-0.005 -0.001 0.039
-0.007 -0.001 0.037
-0.005 -0.017 0.047
-0.009 -0.009 0.047
-0.005 -0.007 0.047
-0.013 -0.011 0.051
-0.029 -0.005 0.037
-0.023 -0.007 0.039
-0.025 -0.007 0.039
-0.033 0.001 0.039
-0.027 -0.007 0.041
-0.015 -0.005 0.041
-0.009 -0.001 0.037
-0.019 -0.005 0.041
-0.015 -0.007 0.045
-0.015 -0.005 0.039
-0.011 -0.011 0.051
-0.019 -0.009 0.053
-0.015 -0.011 0.051
-0.025 -0.005 0.053
-0.023 -0.003 0.055
-0.021 -0.003 0.057
-0.023 -0.001 0.055
-0.021 -0.007 0.059
-0.021 -0.007 0.059
-0.027 0.013 0.059
-0.029 0.011 0.061
-0.025 0.011 0.061
-0.017 -0.011 0.057
-0.005 -0.009 0.053
-0.005 -0.011 0.055
-0.009 -0.013 0.055
-0.011 -0.011 0.053
-0.007 -0.011 0.053
-0.017 -0.013 0.065
-0.009 -0.015 0.065
-0.007 -0.015 0.065
-0.015 -0.013 0.061
-0.013 -0.015 0.061
-0.023 0.013 0.059
-0.025 0.011 0.061
-0.021 0.013 0.059
-0.021 0.009 0.063
-0.019 -0.009 0.055
-0.017 -0.011 0.057
-0.021 -0.007 0.057
-0.017 -0.011 0.057
-0.015 -0.011 0.055
-0.039 0.009 0.047
-0.037 0.007 0.045
-0.041 0.013 0.053
-0.037 0.011 0.053
-0.031 -0.001 0.041
-0.025 -0.005 0.041
-0.027 -0.007 0.041
-0.033 0.007 0.047
-0.035 0.007 0.049
-0.035 0.009 0.051
-0.025 -0.005 0.051
-0.025 -0.005 0.053
-0.027 0.003 0.049
-0.019 -0.007 0.043
-0.015 -0.005 0.041
-0.013 -0.007 0.043
-0.015 -0.007 0.045
-0.013 -0.007 0.045
-0.019 -0.007 0.049
-0.019 -0.009 0.051
-0.023 -0.001 0.057
-0.033 0.011 0.077
-0.037 0.017 0.067
-0.037 0.017 0.067
-0.037 0.019 0.069
-0.035 0.015 0.071
-0.035 0.011 0.085
-0.033 0.001 0.093
-0.033 0.005 0.091
-0.037 0.013 0.093
-0.035 0.007 0.093
-0.037 0.017 0.081
-0.035 0.011 0.083
-0.035 0.013 0.083
-0.037 0.017 0.087
-0.037 0.017 0.085
-0.035 0.011 0.085
-0.037 0.013 0.093
-0.037 0.011 0.095
-0.041 0.023 0.093
-0.035 0.011 0.091
-0.035 0.011 0.091
-0.037 0.013 0.097
-0.025 0.007 0.069
-0.025 0.007 0.067
-0.025 0.007 0.067
-0.029 0.007 0.069
-0.021 0.007 0.067
-0.027 0.003 0.075
-0.025 0.001 0.079
-0.029 0.005 0.077
-0.019 0.003 0.073
-0.019 0.001 0.077
-0.021 0.001 0.077
-0.019 0.001 0.075
-0.013 -0.015 0.067
-0.015 -0.015 0.073
-0.007 -0.017 0.069
-0.009 -0.019 0.071
-0.009 -0.021 0.075
-0.011 -0.019 0.079
-0.007 -0.023 0.081
-0.021 0.003 0.073
-0.029 0.005 0.073
-0.025 0.005 0.071
-0.033 0.011 0.077
-0.021 0.001 0.075
-0.025 0.003 0.075
-0.025 0.001 0.081
-0.031 0.007 0.077
-0.029 0.005 0.075
-0.029 0.005 0.077
-0.031 0.007 0.075
-0.025 0.001 0.083
-0.031 -0.001 0.085
-0.033 0.003 0.087
-0.017 -0.001 0.089
-0.019 -0.001 0.095
-0.011 -0.007 0.087
-0.013 -0.003 0.085
-0.009 0.001 0.089
-0.011 0.003 0.091
-0.009 0.001 0.093
-0.009 0.001 0.093
-0.025 0.001 0.085
-0.029 -0.001 0.085
-0.029 -0.007 0.089
-0.033 0.001 0.093
-0.029 -0.007 0.095
-0.023 0.001 0.093
-0.027 -0.009 0.095
-0.029 -0.007 0.097
-0.027 -0.005 0.091
-0.027 -0.009 0.095
-0.029 -0.007 0.095
-0.019 -0.001 0.095
-0.039 0.025 0.085
-0.039 0.027 0.085
-0.041 0.035 0.089
-0.037 0.019 0.089
-0.037 0.017 0.091
-0.039 0.019 0.095
-0.031 -0.001 0.085
-0.033 0.001 0.089
-0.029 -0.007 0.087
-0.033 0.007 0.087
-0.033 0.007 0.089
-0.033 0.001 0.089
-0.033 0.001 0.097
-0.033 -0.001 0.097
-0.033 0.009 0.091
-0.035 0.011 0.091
-0.035 0.005 0.097
-0.033 0.001 0.109
-0.037 0.017 0.103
-0.037 0.017 0.103
-0.035 0.005 0.103
-0.039 0.029 0.099
-0.029 -0.007 0.101
-0.031 0.001 0.103
-0.031 -0.003 0.101
-0.031 0.001 0.107
-0.019 -0.005 0.107
-0.023 0.001 0.109
-0.023 0.001 0.109
-0.027 0.007 0.105
-0.019 -0.001 0.105
-0.025 0.003 0.105
-0.021 -0.001 0.105
-0.015 0.003 0.097
-0.011 0.001 0.103
-0.011 0.001 0.101
-0.015 0.005 0.101
-0.017 -0.005 0.107
-0.021 0.003 0.103
-0.027 -0.009 0.097
-0.029 -0.005 0.099
-0.027 -0.009 0.103
-0.027 0.007 0.105
-0.033 0.003 0.105
-0.031 0.001 0.105
-0.025 0.005 0.115
-0.023 0.005 0.113
-0.041 0.027 0.097
-0.043 0.035 0.101
-0.041 0.037 0.103
-0.039 0.035 0.105
-0.035 0.013 0.101
-0.043 0.035 0.101
-0.035 0.015 0.105
-0.033 0.001 0.099
-0.029 -0.005 0.099
-0.035 0.005 0.099
-0.035 0.003 0.105
-0.009 -0.031 0.041
-0.001 -0.035 0.039
-0.001 -0.033 0.041
0.003 -0.035 0.041
0.001 -0.031 0.045
0.001 -0.033 0.043
-0.005 -0.025 0.049
-0.005 -0.021 0.051
-0.007 -0.029 0.045
