0.003 -0.009 0.041
0.005 -0.007 0.047
-0.001 -0.011 0.039
0.005 -0.007 0.047
-0.001 -0.001 0.047
-0.015 0.033 0.047
-0.011 0.037 0.045
-0.011 0.031 0.047
-0.007 0.031 0.047
-0.013 0.031 0.053
-0.013 0.031 0.053
-0.013 0.019 0.053
-0.005 0.031 0.045
-0.003 -0.013 0.047
-0.007 0.015 0.051
-0.001 0.013 0.045
-0.001 -0.001 0.053
0.001 -0.015 0.059
-0.015 0.027 0.057
-0.017 0.007 0.063
-0.015 0.007 0.063
-0.015 0.005 0.065
0.001 -0.011 0.053
-0.003 0.007 0.061
0.001 0.001 0.061
0.001 0.001 0.065
-0.001 0.001 0.071
0.001 -0.001 0.075
0.003 -0.005 0.081
-0.007 -0.001 0.081
0.003 -0.005 0.079
0.003 -0.003 0.077
0.001 -0.003 0.081
-0.015 0.005 0.067
-0.015 0.001 0.077
-0.003 0.003 0.069
-0.007 0.003 0.075
-0.009 0.001 0.077
-0.009 0.003 0.075
-0.011 0.001 0.075
-0.001 -0.005 0.087
-0.005 -0.009 0.091
0.001 -0.015 0.093
-0.017 0.019 0.093
-0.013 0.013 0.091
-0.013 0.013 0.093
-0.009 -0.005 0.085
-0.013 -0.001 0.081
-0.007 -0.007 0.087
-0.001 -0.015 0.093
-0.019 0.019 0.103
-0.013 0.011 0.109
0.027 -0.011 0.033
0.025 -0.003 0.033
0.027 -0.003 0.033
0.027 -0.011 0.031
0.013 -0.005 0.047
0.017 -0.003 0.047
0.011 -0.005 0.049
0.029 -0.011 0.041
0.011 -0.015 0.063
0.039 -0.025 0.057
0.011 -0.003 0.045
0.013 0.001 0.037
0.017 -0.005 0.051
0.023 -0.003 0.047
0.027 -0.003 0.047
0.025 -0.009 0.037
0.025 -0.003 0.039
0.021 -0.003 0.043
0.023 -0.003 0.049
0.029 -0.003 0.049
0.007 0.003 0.035
0.007 0.003 0.039
0.009 0.001 0.039
0.015 0.005 0.037
0.011 -0.003 0.043
0.023 -0.003 0.037
0.029 -0.011 0.033
0.033 -0.013 0.033
0.019 -0.001 0.037
0.023 -0.003 0.049
0.029 -0.003 0.049
0.027 -0.003 0.049
0.027 -0.003 0.043
0.029 -0.005 0.045
0.005 -0.013 0.059
0.015 -0.021 0.053
0.007 -0.017 0.067
0.019 -0.009 0.063
0.023 -0.005 0.061
0.021 -0.005 0.057
0.031 -0.007 0.053
0.031 -0.021 0.053
0.023 -0.029 0.063
0.023 -0.029 0.063
0.023 -0.011 0.067
0.005 -0.011 0.051
0.007 -0.013 0.059
0.001 -0.005 0.063
0.019 -0.005 0.051
0.017 -0.005 0.051
0.019 -0.005 0.051
0.023 -0.003 0.049
0.021 -0.005 0.055
0.029 -0.005 0.061
0.029 -0.005 0.059
0.037 -0.015 0.037
0.035 -0.013 0.041
0.037 -0.017 0.035
0.039 -0.019 0.037
0.039 -0.017 0.041
0.039 -0.025 0.053
0.035 -0.023 0.059
0.035 -0.023 0.059
0.017 -0.017 0.079
0.021 -0.023 0.071
0.033 -0.029 0.065
0.027 -0.031 0.071
0.029 -0.033 0.071
0.023 -0.031 0.073
0.023 -0.033 0.077
0.027 -0.035 0.073
0.027 -0.035 0.077
0.033 -0.041 0.075
0.007 -0.017 0.067
0.007 -0.009 0.083
0.005 -0.007 0.075
0.021 -0.027 0.069
0.017 -0.017 0.075
0.017 -0.017 0.079
0.001 -0.003 0.069
0.007 -0.009 0.079
0.001 -0.001 0.073
0.009 -0.011 0.087
0.009 -0.013 0.089
0.015 -0.021 0.089
0.013 -0.015 0.085
0.007 -0.013 0.091
0.007 -0.019 0.093
0.003 -0.019 0.095
0.019 -0.027 0.081
0.019 -0.021 0.081
0.007 -0.009 0.081
0.011 -0.013 0.081
0.009 -0.011 0.081
0.013 -0.015 0.085
0.001 -0.005 0.083
0.033 -0.029 0.065
0.001 0.021 0.033
-0.025 0.035 0.035
-0.009 0.041 0.037
-0.013 0.039 0.031
-0.021 0.037 0.045
-0.035 0.037 0.043
-0.023 0.037 0.053
-0.047 0.025 0.039
-0.043 0.027 0.037
-0.035 0.037 0.043
-0.037 0.035 0.041
-0.033 0.037 0.043
-0.033 0.037 0.053
-0.031 0.037 0.047
-0.037 0.035 0.041
-0.025 0.035 0.059
-0.027 0.033 0.063
-0.033 0.035 0.061
-0.021 0.037 0.043
-0.007 0.041 0.043
-0.017 0.033 0.053
-0.003 0.025 0.039
-0.003 0.023 0.035
-0.005 0.033 0.039
-0.007 0.039 0.041
-0.005 0.029 0.041
-0.023 0.033 0.059
-0.019 0.031 0.059
-0.023 0.033 0.061
-0.017 0.023 0.059
-0.023 0.031 0.065
-0.017 0.023 0.061
-0.001 0.007 0.051
-0.001 0.009 0.051
-0.009 0.015 0.053
-0.017 0.021 0.057
-0.025 0.033 0.063
-0.017 0.027 0.059
-0.009 0.027 0.051
-0.009 0.025 0.051
-0.011 0.029 0.049
-0.033 0.037 0.041
-0.017 0.039 0.039
-0.017 0.039 0.041
-0.009 0.041 0.043
-0.013 0.035 0.045
-0.009 0.043 0.041
-0.025 0.037 0.055
-0.027 0.033 0.063
-0.033 0.031 0.069
-0.031 0.023 0.075
-0.021 0.033 0.097
-0.023 0.035 0.097
-0.025 0.035 0.095
-0.027 0.043 0.087
-0.017 0.005 0.069
-0.017 0.021 0.073
-0.017 0.013 0.071
-0.017 0.021 0.071
-0.015 0.015 0.075
-0.015 0.015 0.075
-0.003 0.005 0.065
-0.001 0.001 0.073
-0.019 0.021 0.065
-0.019 0.027 0.065
-0.027 0.025 0.075
-0.025 0.025 0.075
-0.019 0.029 0.085
-0.011 0.011 0.091
-0.009 0.005 0.093
-0.021 0.033 0.085
-0.025 0.037 0.087
-0.027 0.027 0.091
-0.023 0.031 0.089
-0.021 0.031 0.095
-0.039 0.047 0.087
-0.037 0.047 0.085
-0.033 0.049 0.085
-0.031 0.043 0.091
-0.025 0.039 0.085
-0.025 0.041 0.085
-0.027 0.043 0.087
-0.029 0.043 0.089
-0.023 0.029 0.103
-0.027 0.029 0.101
-0.031 0.035 0.105
-0.031 0.041 0.099
-0.021 0.027 0.103
-0.021 0.021 0.105
-0.017 0.017 0.105
-0.017 0.017 0.103
-0.015 0.015 0.107
-0.015 0.015 0.097
-0.019 0.023 0.099
-0.019 0.023 0.101
-0.029 0.029 0.103
-0.023 0.025 0.105
-0.029 0.027 0.105
-0.037 0.039 0.099
-0.031 0.041 0.099
-0.035 0.043 0.103
0.003 0.019 0.033
0.009 0.003 0.039
0.017 0.005 0.037
0.001 0.017 0.039
-0.007 -0.033 0.041
-0.007 -0.031 0.041
-0.005 -0.023 0.047
-0.005 -0.021 0.049
-0.007 -0.029 0.045
-0.005 -0.025 0.047
-0.007 -0.029 0.045
-0.021 -0.007 0.051
-0.029 -0.003 0.043
-0.011 -0.019 0.077
-0.019 -0.009 0.067
-0.017 -0.013 0.067
-0.005 -0.023 0.053
-0.003 -0.021 0.059
-0.025 -0.005 0.053
-0.023 -0.005 0.053
-0.021 -0.007 0.061
-0.023 -0.001 0.057
-0.017 -0.013 0.069
-0.013 -0.009 0.083
-0.015 -0.015 0.075
-0.011 -0.013 0.087
-0.011 -0.019 0.083
-0.011 -0.019 0.081
-0.009 -0.021 0.083
-0.005 -0.025 0.087
-0.017 -0.013 0.071
-0.013 -0.017 0.073
-0.011 -0.017 0.085
-0.015 -0.015 0.075
-0.013 -0.009 0.083
-0.015 -0.005 0.077
-0.017 -0.007 0.113
-0.001 -0.029 0.085
-0.009 -0.017 0.087
-0.007 -0.023 0.085
-0.001 -0.023 0.091
-0.029 -0.003 0.103
-0.011 -0.015 0.085
-0.017 -0.011 0.113
-0.007 -0.013 0.093
-0.007 -0.013 0.093
-0.029 -0.005 0.103
-0.027 -0.001 0.101
-0.021 -0.003 0.109
0.001 -0.029 0.065
-0.001 -0.029 0.081
0.003 -0.029 0.089
0.009 -0.029 0.091
0.009 -0.035 0.039
0.009 -0.035 0.039
0.007 -0.035 0.063
0.005 -0.033 0.049
0.021 -0.037 0.079
0.001 -0.031 0.063
-0.003 -0.025 0.055
-0.005 -0.025 0.087
0.003 -0.031 0.047
0.005 -0.035 0.073
0.009 -0.035 0.083
0.011 -0.035 0.081
0.001 -0.027 0.089
0.001 -0.029 0.087
0.013 -0.033 0.085
0.009 -0.031 0.089
0.001 -0.025 0.091
0.001 -0.025 0.091
0.003 -0.025 0.091
0.009 -0.023 0.093
-0.005 -0.023 0.089
-0.009 -0.013 0.089
-0.005 -0.015 0.091
-0.005 -0.011 0.093
0.011 -0.019 0.091
-0.001 -0.017 0.095
-0.001 -0.013 0.091
-0.003 -0.015 0.095
0.003 -0.019 0.095
0.001 -0.021 0.095
0.003 -0.011 0.091
0.003 -0.033 0.063
0.003 -0.031 0.087
0.001 -0.027 0.089
0.003 -0.027 0.091
0.017 -0.025 0.087
0.015 -0.023 0.089
0.009 -0.033 0.087
0.009 -0.033 0.087
0.029 -0.027 0.065
0.017 -0.033 0.087
-0.003 -0.017 0.093
0.001 -0.011 0.091
-0.007 -0.017 0.089
-0.005 -0.019 0.091
0.001 -0.021 0.095
-0.015 -0.011 0.113
0.005 -0.015 0.091
0.011 -0.017 0.089
0.013 -0.017 0.089
0.015 -0.017 0.087
0.025 -0.007 0.063
0.025 -0.009 0.065
0.027 -0.007 0.061
0.017 -0.023 0.087
0.017 -0.035 0.081
0.019 -0.033 0.085
0.017 -0.019 0.085
0.035 -0.029 0.063
0.037 -0.019 0.051
0.033 -0.025 0.061
0.009 -0.035 0.067
0.009 -0.035 0.083
0.013 -0.035 0.081
0.013 -0.035 0.081
0.015 -0.035 0.081
0.021 -0.039 0.075
0.009 -0.035 0.083
0.027 -0.039 0.087
0.031 -0.039 0.087
0.031 -0.043 0.083
0.033 -0.043 0.085
0.035 -0.041 0.087
-0.001 -0.029 0.081
0.025 -0.031 0.073
0.011 -0.023 0.091
0.013 -0.029 0.091
0.015 -0.027 0.089
0.011 -0.019 0.091
-0.007 -0.013 0.093
-0.013 -0.011 0.113
-0.003 -0.011 0.091
0.021 -0.013 0.071
0.009 -0.015 0.091
0.011 -0.015 0.089
0.005 -0.029 0.089
0.001 -0.025 0.091
0.005 -0.025 0.093
0.015 -0.031 0.089
0.003 -0.019 0.095
0.015 -0.023 0.089
0.007 -0.023 0.095
0.017 -0.027 0.087
0.003 -0.013 0.091
0.009 -0.017 0.091
0.005 -0.013 0.091
-0.031 -0.001 0.041
-0.027 0.003 0.049
-0.029 0.017 0.105
-0.033 0.019 0.105
-0.035 0.003 0.039
-0.049 0.017 0.039
-0.043 0.017 0.051
-0.045 0.025 0.039
-0.043 0.021 0.041
-0.033 0.013 0.063
-0.041 0.029 0.057
-0.033 0.005 0.045
-0.027 0.001 0.049
-0.027 0.003 0.049
-0.019 -0.003 0.091
-0.039 0.023 0.065
-0.037 0.015 0.101
-0.027 0.007 0.107
-0.027 0.011 0.109
-0.025 0.007 0.115
-0.027 0.013 0.107
-0.025 0.005 0.113
-0.025 0.009 0.113
-0.025 0.007 0.115
-0.027 0.005 0.051
-0.031 -0.005 0.097
-0.031 0.007 0.075
-0.033 0.003 0.109
-0.019 -0.007 0.111
-0.021 -0.001 0.109
-0.023 0.001 0.095
-0.023 0.001 0.099
-0.031 0.013 0.105
-0.031 0.017 0.105
-0.033 0.019 0.105
-0.031 0.019 0.105
-0.027 0.013 0.107
-0.037 0.033 0.063
-0.041 0.025 0.093
-0.039 0.019 0.101
-0.041 0.023 0.095
-0.039 0.023 0.101
-0.037 0.019 0.103
-0.035 0.019 0.103
-0.025 0.015 0.105
-0.027 0.019 0.105
-0.031 0.017 0.105
-0.031 0.019 0.105
-0.025 0.021 0.105
-0.037 0.017 0.067
-0.037 0.011 0.095
-0.039 0.021 0.101
-0.039 0.023 0.103
-0.039 0.021 0.101
-0.037 0.029 0.101
-0.031 0.009 0.071
-0.021 -0.001 0.093
-0.027 -0.001 0.101
-0.015 -0.007 0.113
-0.019 -0.003 0.091
-0.017 -0.007 0.113
-0.027 0.009 0.111
-0.039 0.021 0.101
-0.029 0.013 0.105
-0.033 0.001 0.099
-0.029 -0.003 0.103
-0.021 -0.001 0.093
-0.021 -0.001 0.109
-0.019 -0.003 0.111
-0.013 0.003 0.101
-0.013 0.003 0.101
-0.027 0.023 0.105
-0.031 0.019 0.105
-0.021 0.017 0.105
-0.021 0.017 0.105
-0.023 0.017 0.105
-0.033 0.023 0.105
-0.031 0.021 0.105
-0.043 0.037 0.085
-0.043 0.037 0.085
-0.043 0.035 0.097
-0.045 0.037 0.101
-0.045 0.039 0.101
-0.043 0.041 0.103
-0.041 0.031 0.099
-0.043 0.041 0.103
-0.039 0.023 0.103
-0.029 0.031 0.101
-0.035 0.003 0.107
-0.035 0.007 0.101
-0.035 0.007 0.105
-0.033 0.009 0.105
-0.037 0.017 0.103
-0.039 0.019 0.101
-0.037 0.019 0.103
-0.039 0.023 0.103
-0.037 0.023 0.103
-0.035 0.027 0.101
-0.027 0.001 0.101
-0.023 0.001 0.109
-0.025 0.005 0.113
-0.021 0.003 0.109
-0.029 0.011 0.105
-0.013 0.005 0.103
-0.009 0.001 0.103
-0.013 0.007 0.103
-0.013 0.011 0.109
-0.021 0.021 0.105
-0.031 0.025 0.105
-0.017 0.015 0.107
-0.039 0.037 0.105
-0.027 0.035 0.101
-0.021 -0.001 0.109
