-0.015 -0.013 0.113
-0.007 -0.029 0.045
0.003 -0.033 0.081
0.005 -0.033 0.085
0.009 -0.029 0.091
0.005 -0.033 0.085
0.005 -0.035 0.073
-0.005 -0.029 0.045
0.007 -0.031 0.089
-0.001 -0.029 0.085
0.003 -0.027 0.091
0.003 -0.025 0.091
-0.029 -0.003 0.043
-0.025 -0.005 0.053
-0.019 -0.005 0.069
-0.013 -0.015 0.083
-0.013 -0.013 0.083
-0.009 -0.013 0.089
-0.003 -0.011 0.091
0.001 -0.017 0.095
0.003 -0.011 0.091
0.001 -0.015 0.093
0.005 -0.023 0.095
0.003 -0.027 0.091
0.003 -0.027 0.091
0.005 -0.029 0.089
0.005 -0.025 0.093
-0.011 -0.017 0.085
-0.011 -0.013 0.087
-0.013 -0.013 0.083
-0.013 -0.011 0.083
-0.013 -0.005 0.085
0.005 -0.007 0.085
-0.007 -0.017 0.089
-0.009 -0.015 0.087
0.005 -0.017 0.091
-0.007 -0.021 0.087
-0.003 -0.021 0.091
-0.003 -0.025 0.089
-0.001 -0.025 0.091
-0.013 -0.013 0.083
-0.017 -0.005 0.075
-0.013 -0.005 0.085
-0.007 -0.019 0.089
-0.011 -0.017 0.085
0.005 -0.019 0.093
0.003 -0.011 0.091
-0.011 -0.015 0.085
-0.011 -0.005 0.087
-0.025 -0.007 0.097
-0.027 -0.009 0.097
-0.027 -0.007 0.097
-0.019 -0.007 0.111
-0.029 -0.003 0.103
-0.017 -0.005 0.111
-0.011 -0.013 0.087
-0.009 -0.015 0.087
-0.011 -0.007 0.089
-0.009 -0.005 0.087
-0.009 -0.009 0.091
-0.009 -0.005 0.087
-0.031 -0.003 0.101
-0.027 -0.005 0.103
-0.029 -0.003 0.103
-0.029 -0.003 0.103
-0.015 -0.005 0.111
-0.017 -0.009 0.113
-0.017 -0.001 0.109
-0.017 -0.003 0.111
-0.013 -0.011 0.113
-0.015 -0.007 0.113
0.027 -0.039 0.087
0.017 -0.031 0.089
0.027 -0.037 0.087
0.029 -0.035 0.087
0.023 -0.031 0.073
0.029 -0.027 0.065
0.031 -0.027 0.065
0.033 -0.023 0.059
0.025 -0.015 0.045
0.031 -0.019 0.051
0.033 -0.019 0.053
0.031 -0.017 0.049
0.003 -0.035 0.041
0.011 -0.037 0.075
0.011 -0.037 0.075
0.023 -0.039 0.083
0.033 -0.041 0.087
0.035 -0.039 0.087
0.009 -0.035 0.077
0.009 -0.035 0.069
0.009 -0.035 0.083
0.019 -0.035 0.081
0.033 -0.037 0.085
0.033 -0.039 0.087
0.029 -0.039 0.087
0.037 -0.039 0.087
0.037 -0.033 0.059
0.035 -0.033 0.061
0.013 -0.035 0.083
0.011 -0.031 0.089
0.009 -0.035 0.083
0.021 -0.031 0.075
0.011 -0.029 0.091
0.017 -0.025 0.085
0.009 -0.035 0.083
0.011 -0.035 0.081
0.019 -0.033 0.085
0.033 -0.037 0.085
0.023 -0.035 0.085
0.023 -0.029 0.065
0.031 -0.037 0.089
0.031 -0.033 0.069
0.033 -0.033 0.067
0.031 -0.031 0.067
0.031 -0.029 0.067
0.015 -0.017 0.087
0.011 -0.013 0.087
0.011 -0.015 0.089
0.007 -0.005 0.047
0.017 -0.011 0.071
0.019 -0.011 0.071
0.013 -0.005 0.049
0.025 -0.013 0.063
0.033 -0.015 0.047
0.027 -0.013 0.061
0.021 -0.011 0.071
0.027 -0.011 0.061
0.025 -0.007 0.063
0.021 -0.013 0.047
0.027 -0.013 0.059
0.033 -0.015 0.047
0.031 -0.011 0.057
0.021 -0.009 0.067
0.019 -0.009 0.065
0.027 -0.011 0.061
0.027 -0.007 0.061
0.027 -0.007 0.061
0.029 -0.009 0.061
0.013 -0.033 0.085
0.017 -0.029 0.087
0.019 -0.029 0.083
0.019 -0.029 0.083
0.019 -0.023 0.083
0.021 -0.029 0.079
0.031 -0.031 0.067
0.031 -0.029 0.067
0.029 -0.027 0.065
0.021 -0.025 0.079
0.031 -0.025 0.061
0.021 -0.033 0.081
0.021 -0.031 0.075
0.021 -0.031 0.075
0.021 -0.027 0.079
0.031 -0.035 0.087
0.029 -0.029 0.069
0.031 -0.025 0.061
0.011 -0.007 0.049
0.015 -0.021 0.089
0.017 -0.019 0.085
0.029 -0.011 0.059
0.023 -0.009 0.065
0.019 -0.011 0.071
0.023 -0.007 0.061
0.031 -0.009 0.057
0.023 -0.013 0.063
0.023 -0.011 0.067
0.035 -0.031 0.063
0.037 -0.027 0.061
0.039 -0.027 0.057
0.039 -0.025 0.057
0.039 -0.025 0.057
0.035 -0.031 0.063
0.037 -0.033 0.059
0.037 -0.031 0.045
0.041 -0.019 0.043
0.035 -0.015 0.047
0.039 -0.029 0.053
0.039 -0.031 0.055
0.039 -0.021 0.053
0.037 -0.017 0.049
0.039 -0.023 0.053
0.011 -0.035 0.081
0.013 -0.035 0.083
0.027 -0.039 0.087
0.031 -0.037 0.089
0.025 -0.039 0.083
0.025 -0.039 0.085
0.021 -0.037 0.081
0.031 -0.041 0.085
0.031 -0.039 0.087
0.011 -0.033 0.087
0.029 -0.041 0.085
0.029 -0.041 0.085
0.029 -0.041 0.085
0.019 -0.035 0.081
0.033 -0.039 0.087
0.027 -0.037 0.087
0.029 -0.037 0.089
0.025 -0.037 0.085
0.031 -0.037 0.089
0.027 -0.033 0.087
0.035 -0.043 0.081
0.035 -0.043 0.081
0.035 -0.039 0.087
0.035 -0.041 0.087
0.007 -0.027 0.093
0.009 -0.025 0.095
0.011 -0.023 0.091
0.015 -0.021 0.089
0.017 -0.019 0.085
0.005 -0.031 0.087
0.005 -0.027 0.091
0.027 -0.033 0.087
0.019 -0.019 0.079
0.019 -0.019 0.079
0.019 -0.021 0.083
0.021 -0.023 0.079
0.021 -0.025 0.077
0.005 -0.019 0.093
0.007 -0.009 0.087
0.005 -0.007 0.085
0.007 -0.017 0.091
0.007 -0.011 0.089
0.023 -0.009 0.065
0.021 -0.013 0.071
0.003 -0.031 0.087
0.015 -0.021 0.089
0.015 -0.017 0.087
0.015 -0.019 0.087
0.011 -0.029 0.093
0.013 -0.029 0.091
0.009 -0.027 0.093
0.007 -0.019 0.093
0.001 -0.017 0.095
0.001 -0.017 0.095
0.011 -0.023 0.091
0.013 -0.021 0.089
0.017 -0.029 0.087
0.013 -0.017 0.089
0.011 -0.013 0.087
0.013 -0.017 0.089
0.003 -0.011 0.091
-0.013 -0.011 0.113
-0.013 -0.007 0.083
-0.009 -0.005 0.087
-0.007 0.007 0.065
-0.005 0.009 0.057
0.001 0.011 0.047
-0.015 0.005 0.099
-0.011 0.013 0.055
-0.011 0.015 0.055
-0.013 0.009 0.103
0.001 0.019 0.037
-0.011 0.029 0.053
-0.009 0.027 0.051
-0.015 -0.013 0.113
-0.015 -0.009 0.113
-0.033 0.001 0.039
-0.029 0.001 0.103
-0.027 -0.001 0.101
-0.021 -0.001 0.109
-0.019 -0.001 0.111
-0.023 -0.001 0.107
-0.021 0.001 0.109
-0.031 0.003 0.105
-0.031 0.003 0.107
-0.031 0.005 0.107
-0.031 0.007 0.105
-0.023 0.001 0.109
-0.025 0.005 0.115
-0.025 0.005 0.115
-0.019 0.007 0.101
-0.021 0.001 0.109
-0.025 0.007 0.115
-0.025 0.009 0.113
-0.021 0.007 0.109
-0.017 0.009 0.103
-0.021 0.009 0.109
-0.021 0.011 0.105
-0.021 0.013 0.105
-0.025 0.003 0.107
-0.025 0.005 0.115
-0.019 0.003 0.109
-0.021 0.005 0.109
-0.025 0.013 0.107
-0.029 0.005 0.103
-0.023 0.005 0.115
-0.023 0.005 0.115
-0.023 0.005 0.115
-0.025 0.013 0.107
-0.017 0.001 0.091
-0.007 -0.001 0.095
-0.015 -0.011 0.113
-0.019 -0.001 0.079
-0.003 -0.009 0.089
-0.001 -0.007 0.089
0.003 -0.003 0.077
-0.009 0.007 0.067
-0.001 0.005 0.061
0.001 0.001 0.071
-0.011 0.007 0.103
-0.013 0.011 0.057
-0.011 0.011 0.057
-0.007 0.019 0.049
-0.009 0.025 0.051
-0.005 0.025 0.043
-0.003 0.027 0.041
-0.003 0.031 0.037
-0.003 0.015 0.043
-0.005 0.019 0.047
-0.003 0.023 0.041
-0.005 0.027 0.045
-0.019 0.001 0.097
-0.011 0.001 0.103
-0.015 -0.003 0.081
-0.015 -0.003 0.081
-0.009 -0.001 0.103
-0.019 0.001 0.109
-0.017 0.001 0.109
-0.009 -0.001 0.103
-0.011 0.001 0.103
-0.011 0.001 0.103
-0.011 0.003 0.103
-0.013 0.005 0.103
-0.003 0.007 0.061
-0.003 0.013 0.051
-0.001 0.001 0.077
-0.003 0.007 0.061
-0.007 0.005 0.071
-0.009 0.007 0.067
-0.003 0.007 0.061
-0.011 0.007 0.103
-0.015 0.021 0.055
-0.011 0.025 0.053
-0.015 0.015 0.107
-0.017 0.015 0.107
-0.021 0.021 0.105
-0.021 0.021 0.105
-0.023 0.021 0.105
-0.021 0.021 0.105
-0.025 0.021 0.105
-0.015 0.027 0.057
-0.017 0.027 0.059
-0.019 0.029 0.061
-0.015 0.031 0.055
-0.017 0.031 0.057
-0.019 0.029 0.059
-0.011 0.035 0.045
-0.007 0.037 0.045
-0.005 0.029 0.045
-0.005 0.031 0.045
-0.005 0.035 0.037
-0.005 0.033 0.043
-0.007 0.035 0.039
-0.009 0.037 0.045
-0.007 0.041 0.043
-0.013 0.029 0.055
-0.011 0.041 0.043
-0.009 0.043 0.043
-0.009 0.039 0.045
-0.007 0.041 0.043
-0.019 0.025 0.099
-0.019 0.025 0.097
-0.019 0.031 0.059
-0.017 0.023 0.097
-0.023 0.003 0.109
-0.023 0.005 0.113
-0.023 0.005 0.115
-0.025 0.017 0.105
-0.025 0.015 0.105
-0.023 0.009 0.113
-0.025 0.003 0.107
-0.029 -0.001 0.101
-0.029 0.011 0.105
-0.033 0.009 0.105
-0.033 0.013 0.103
-0.031 0.013 0.105
-0.029 0.013 0.105
-0.031 0.017 0.105
-0.033 0.019 0.105
-0.027 0.019 0.105
-0.031 0.023 0.105
-0.029 0.023 0.105
-0.033 0.023 0.105
-0.029 0.025 0.105
-0.029 0.019 0.105
-0.031 0.017 0.105
-0.037 0.019 0.103
-0.039 0.029 0.099
-0.031 0.021 0.105
-0.013 -0.003 0.085
-0.013 0.003 0.101
-0.013 0.007 0.103
-0.019 0.001 0.093
-0.017 0.001 0.091
-0.017 0.001 0.081
-0.023 0.005 0.109
-0.007 0.005 0.071
-0.011 -0.003 0.085
0.001 -0.003 0.081
-0.001 -0.001 0.081
-0.005 -0.001 0.081
-0.005 0.001 0.079
-0.013 0.015 0.095
-0.019 0.023 0.099
-0.017 0.021 0.089
-0.023 0.011 0.111
-0.021 0.015 0.105
-0.013 0.011 0.097
-0.019 -0.005 0.111
-0.021 -0.001 0.109
-0.015 -0.005 0.111
-0.015 -0.005 0.111
-0.023 0.005 0.115
-0.017 -0.003 0.111
-0.015 0.003 0.097
-0.009 0.001 0.103
-0.011 0.001 0.103
-0.011 0.009 0.101
-0.011 0.009 0.099
-0.009 -0.001 0.103
-0.013 0.003 0.101
-0.021 0.013 0.105
-0.025 0.015 0.105
-0.019 0.023 0.101
-0.017 0.019 0.103
-0.017 0.025 0.085
-0.019 0.027 0.095
-0.025 0.017 0.105
-0.015 0.015 0.107
-0.015 0.017 0.101
-0.015 0.017 0.105
-0.023 0.021 0.105
-0.023 0.029 0.103
-0.019 0.023 0.101
-0.035 0.029 0.101
-0.035 0.027 0.101
-0.035 0.031 0.103
-0.031 0.027 0.105
-0.027 0.027 0.105
-0.031 0.033 0.103
-0.027 0.037 0.101
-0.031 0.039 0.105
-0.033 0.041 0.105
-0.037 0.031 0.103
-0.031 0.029 0.105
-0.035 0.035 0.107
-0.033 0.037 0.107
-0.017 0.023 0.097
-0.025 0.029 0.103
-0.023 0.035 0.099
-0.027 0.039 0.101
-0.027 0.041 0.101
-0.027 0.047 0.085
-0.025 0.027 0.105
-0.027 0.039 0.101
-0.031 0.047 0.089
-0.031 0.001 0.107
-0.031 0.005 0.107
-0.033 0.007 0.105
-0.033 0.009 0.105
-0.031 0.015 0.105
-0.035 0.015 0.105
-0.031 0.021 0.105
-0.033 0.027 0.105
-0.031 0.025 0.105
-0.021 -0.003 0.109
-0.021 -0.001 0.109
-0.025 0.005 0.115
-0.017 0.001 0.109
-0.021 0.001 0.109
-0.015 0.007 0.103
-0.017 0.011 0.107
-0.031 0.001 0.107
-0.017 -0.001 0.109
-0.019 0.005 0.109
-0.019 0.001 0.109
-0.025 0.007 0.115
-0.027 0.011 0.109
-0.023 0.011 0.111
-0.025 0.011 0.111
-0.009 0.003 0.101
-0.011 0.003 0.103
-0.009 0.003 0.103
-0.011 0.009 0.101
-0.013 0.011 0.103
-0.013 0.013 0.099
-0.013 0.011 0.109
-0.015 0.009 0.109
-0.031 0.021 0.105
-0.023 0.019 0.105
-0.023 0.007 0.115
-0.043 0.037 0.103
-0.039 0.037 0.105
-0.031 0.031 0.101
-0.037 0.035 0.107
-0.033 0.039 0.105
-0.035 0.041 0.105
-0.037 0.035 0.107
-0.037 0.041 0.105
-0.035 0.041 0.105
-0.029 0.033 0.101
-0.029 0.035 0.101
0.003 0.011 0.043
0.005 0.013 0.037
0.013 -0.001 0.037
0.011 0.001 0.039
0.001 0.009 0.043
0.003 0.017 0.037
0.003 0.019 0.035
0.003 -0.003 0.077
