-0.027 -0.003 0.043
-0.005 -0.033 0.039
-0.005 -0.031 0.041
-0.005 -0.031 0.041
-0.005 -0.031 0.041
-0.005 -0.025 0.049
-0.007 -0.031 0.041
-0.007 -0.029 0.045
-0.003 -0.029 0.045
-0.029 -0.005 0.039
-0.027 -0.007 0.037
-0.023 -0.007 0.047
-0.025 -0.005 0.049
-0.023 -0.007 0.047
-0.011 -0.017 0.071
-0.013 -0.017 0.077
-0.013 -0.007 0.083
-0.003 -0.027 0.053
-0.003 -0.027 0.055
-0.009 -0.021 0.077
-0.001 -0.029 0.059
-0.001 -0.025 0.063
-0.025 -0.005 0.053
-0.025 -0.001 0.051
-0.017 -0.011 0.067
-0.019 -0.007 0.067
-0.011 -0.017 0.085
-0.011 -0.017 0.085
-0.011 -0.019 0.083
-0.015 -0.011 0.079
-0.013 -0.013 0.083
-0.011 -0.009 0.087
-0.015 -0.015 0.071
-0.015 -0.015 0.067
-0.013 -0.017 0.079
-0.009 -0.019 0.087
-0.009 -0.021 0.083
-0.011 -0.019 0.081
-0.005 -0.023 0.089
-0.007 -0.021 0.087
-0.005 -0.025 0.087
-0.017 -0.013 0.071
-0.027 -0.007 0.101
-0.017 -0.007 0.075
-0.011 -0.017 0.085
-0.009 -0.017 0.087
-0.009 -0.015 0.087
-0.009 -0.013 0.089
-0.007 -0.019 0.089
-0.007 -0.017 0.089
-0.013 -0.015 0.079
-0.015 -0.013 0.079
-0.013 -0.015 0.083
-0.015 -0.009 0.079
-0.003 -0.003 0.083
-0.003 -0.027 0.087
-0.009 -0.021 0.085
-0.007 -0.023 0.083
-0.005 -0.023 0.089
-0.001 -0.027 0.089
-0.003 -0.023 0.091
-0.019 -0.003 0.091
-0.027 -0.005 0.103
-0.029 -0.007 0.097
-0.031 -0.005 0.097
-0.019 -0.001 0.093
-0.013 -0.005 0.085
-0.013 -0.005 0.085
-0.013 -0.003 0.085
-0.017 -0.007 0.113
-0.009 -0.013 0.089
-0.007 -0.013 0.093
-0.007 -0.013 0.093
-0.001 -0.017 0.095
-0.001 -0.015 0.095
-0.005 -0.011 0.093
-0.015 -0.011 0.113
-0.029 -0.005 0.103
-0.019 -0.005 0.111
-0.017 -0.011 0.113
0.001 -0.029 0.065
0.001 -0.027 0.065
0.003 -0.033 0.073
0.005 -0.033 0.085
0.005 -0.025 0.093
0.005 -0.033 0.043
0.011 -0.035 0.037
0.015 -0.035 0.037
0.009 -0.035 0.039
0.005 -0.033 0.047
0.005 -0.033 0.049
0.025 -0.035 0.035
0.011 -0.037 0.075
0.019 -0.035 0.077
0.005 -0.035 0.073
0.021 -0.035 0.081
0.023 -0.039 0.083
0.001 -0.031 0.059
-0.001 -0.029 0.047
-0.003 -0.027 0.055
0.005 -0.033 0.063
0.003 -0.033 0.067
0.001 -0.031 0.079
0.001 -0.029 0.079
-0.005 -0.023 0.053
-0.003 -0.027 0.085
-0.003 -0.025 0.089
-0.003 -0.023 0.091
0.001 -0.031 0.051
0.001 -0.031 0.085
-0.001 -0.029 0.085
0.009 -0.035 0.081
0.013 -0.035 0.083
0.005 -0.025 0.093
0.009 -0.035 0.083
0.011 -0.031 0.089
0.001 -0.027 0.089
0.001 -0.027 0.089
0.007 -0.027 0.093
-0.005 -0.021 0.089
-0.007 -0.017 0.089
-0.011 -0.011 0.085
-0.011 -0.009 0.087
-0.011 -0.015 0.085
-0.001 -0.019 0.095
-0.001 -0.023 0.091
-0.001 -0.019 0.095
0.001 -0.023 0.093
0.001 -0.017 0.095
0.003 -0.019 0.095
0.007 -0.019 0.093
0.005 -0.017 0.091
0.007 -0.019 0.093
0.011 -0.019 0.091
0.003 -0.013 0.091
-0.001 -0.011 0.091
0.001 -0.021 0.095
0.005 -0.019 0.093
0.007 -0.019 0.093
0.007 -0.021 0.093
0.011 -0.021 0.091
0.013 -0.021 0.089
0.007 -0.017 0.091
0.007 -0.013 0.091
0.003 -0.031 0.069
0.001 -0.027 0.089
0.001 -0.023 0.093
0.003 -0.031 0.085
0.003 -0.029 0.089
0.017 -0.035 0.081
0.015 -0.027 0.089
0.015 -0.031 0.089
0.017 -0.033 0.087
0.017 -0.031 0.089
0.017 -0.031 0.089
0.005 -0.027 0.091
0.005 -0.021 0.095
-0.007 -0.019 0.089
-0.005 -0.019 0.091
-0.001 -0.021 0.091
0.001 -0.021 0.093
-0.001 -0.019 0.093
-0.015 -0.011 0.113
0.007 -0.017 0.091
0.003 -0.015 0.091
0.005 -0.015 0.091
0.027 -0.011 0.061
0.007 -0.013 0.091
0.025 -0.009 0.065
0.009 -0.015 0.091
0.013 -0.017 0.089
0.009 -0.015 0.091
0.019 -0.009 0.065
0.023 -0.009 0.065
0.013 -0.033 0.085
0.029 -0.027 0.065
0.031 -0.023 0.059
0.021 -0.023 0.079
0.033 -0.019 0.053
0.033 -0.015 0.047
0.017 -0.019 0.085
0.033 -0.023 0.059
0.033 -0.025 0.061
0.031 -0.023 0.059
0.039 -0.021 0.053
0.035 -0.029 0.063
0.031 -0.025 0.061
0.007 -0.035 0.079
0.021 -0.039 0.079
0.023 -0.039 0.083
0.029 -0.041 0.083
0.029 -0.043 0.081
0.021 -0.039 0.077
0.021 -0.039 0.077
0.015 -0.035 0.077
0.017 -0.035 0.081
0.021 -0.039 0.079
0.023 -0.035 0.085
0.015 -0.033 0.087
0.031 -0.043 0.083
0.023 -0.037 0.085
0.025 -0.035 0.087
0.027 -0.037 0.087
0.025 -0.033 0.087
0.031 -0.043 0.083
0.031 -0.043 0.083
0.031 -0.043 0.081
0.031 -0.043 0.083
0.033 -0.041 0.087
-0.003 -0.027 0.081
-0.001 -0.029 0.085
-0.003 -0.025 0.089
0.001 -0.031 0.079
-0.003 -0.027 0.087
-0.005 -0.025 0.087
0.009 -0.019 0.091
0.013 -0.029 0.091
0.023 -0.033 0.081
0.023 -0.033 0.081
0.011 -0.027 0.093
0.015 -0.033 0.087
0.015 -0.031 0.089
0.017 -0.027 0.087
0.013 -0.023 0.089
0.015 -0.023 0.089
0.015 -0.021 0.089
-0.005 -0.015 0.091
-0.007 -0.011 0.091
-0.001 -0.019 0.095
-0.003 -0.013 0.093
-0.001 -0.015 0.095
-0.003 -0.007 0.089
-0.001 -0.011 0.091
-0.003 -0.005 0.087
0.007 -0.017 0.091
0.015 -0.017 0.087
0.009 -0.015 0.091
0.023 -0.011 0.067
0.003 -0.031 0.087
0.009 -0.019 0.091
0.011 -0.029 0.093
0.015 -0.027 0.089
0.017 -0.025 0.087
0.003 -0.011 0.091
-0.001 -0.007 0.089
-0.001 -0.009 0.089
-0.001 -0.017 0.095
0.007 -0.015 0.091
0.007 -0.013 0.091
0.003 -0.011 0.091
0.009 -0.013 0.089
-0.027 0.005 0.051
-0.031 -0.003 0.101
-0.029 -0.001 0.101
-0.035 0.015 0.069
-0.037 0.017 0.087
-0.035 0.009 0.099
-0.031 0.017 0.105
-0.035 0.005 0.039
-0.043 0.013 0.039
-0.047 0.015 0.039
-0.039 0.011 0.053
-0.041 0.011 0.049
-0.041 0.011 0.047
-0.043 0.019 0.041
-0.041 0.013 0.049
-0.037 0.015 0.055
-0.047 0.023 0.041
-0.045 0.023 0.041
-0.047 0.023 0.041
-0.045 0.023 0.041
-0.039 0.021 0.063
-0.041 0.025 0.059
-0.043 0.019 0.041
-0.041 0.019 0.053
-0.041 0.017 0.055
-0.041 0.019 0.055
-0.039 0.011 0.053
-0.035 0.011 0.053
-0.037 0.011 0.053
-0.037 0.015 0.055
-0.035 0.015 0.061
-0.033 0.013 0.063
-0.043 0.017 0.051
-0.041 0.029 0.057
-0.041 0.023 0.057
-0.037 0.017 0.063
-0.037 0.017 0.065
-0.041 0.025 0.059
-0.039 0.031 0.063
-0.027 0.009 0.053
-0.029 0.005 0.049
-0.015 -0.003 0.073
-0.031 -0.003 0.101
-0.019 -0.001 0.097
-0.021 -0.005 0.109
-0.025 0.003 0.107
-0.021 -0.001 0.109
-0.033 0.011 0.071
-0.035 0.003 0.107
-0.033 0.001 0.107
-0.027 0.007 0.105
-0.029 0.007 0.103
-0.025 0.005 0.115
-0.025 0.005 0.115
-0.033 0.013 0.103
-0.027 0.011 0.107
-0.027 0.011 0.109
-0.025 0.011 0.111
-0.027 0.009 0.111
-0.027 0.013 0.107
-0.025 0.007 0.115
-0.025 0.009 0.113
-0.027 0.013 0.107
-0.025 0.007 0.053
-0.027 0.009 0.053
-0.031 0.009 0.067
-0.029 0.001 0.103
-0.035 0.003 0.107
-0.033 0.003 0.109
-0.033 0.005 0.107
-0.019 -0.005 0.111
-0.027 0.003 0.101
-0.025 0.003 0.107
-0.021 0.001 0.109
-0.021 -0.001 0.109
-0.021 -0.003 0.109
-0.025 0.001 0.099
-0.025 0.001 0.099
-0.031 0.009 0.103
-0.031 0.009 0.103
-0.031 0.013 0.105
-0.025 0.005 0.109
-0.025 0.005 0.111
-0.025 0.007 0.115
-0.027 0.015 0.105
-0.027 0.017 0.105
-0.039 0.029 0.063
-0.039 0.031 0.063
-0.041 0.029 0.057
-0.041 0.029 0.057
-0.037 0.029 0.067
-0.037 0.031 0.065
-0.041 0.031 0.055
-0.039 0.031 0.063
-0.039 0.031 0.061
-0.039 0.023 0.083
-0.035 0.019 0.103
-0.035 0.019 0.103
-0.037 0.019 0.103
-0.039 0.019 0.101
-0.037 0.019 0.103
-0.033 0.021 0.105
-0.033 0.021 0.105
-0.035 0.021 0.103
-0.033 0.021 0.105
-0.027 0.015 0.105
-0.031 0.023 0.105
-0.031 0.021 0.105
-0.027 0.021 0.105
-0.027 0.023 0.105
-0.023 0.017 0.105
-0.025 0.017 0.105
-0.041 0.027 0.097
-0.037 0.023 0.103
-0.035 0.019 0.103
-0.039 0.025 0.097
-0.035 0.021 0.103
-0.033 0.021 0.105
-0.035 0.021 0.103
-0.033 0.011 0.071
-0.033 0.011 0.071
-0.035 0.015 0.073
-0.035 0.011 0.087
-0.035 0.005 0.097
-0.037 0.013 0.099
-0.037 0.017 0.085
-0.037 0.013 0.099
-0.041 0.031 0.083
-0.037 0.019 0.103
-0.041 0.027 0.097
-0.039 0.023 0.103
-0.039 0.023 0.097
-0.039 0.027 0.097
-0.039 0.019 0.095
-0.037 0.019 0.103
-0.035 0.017 0.103
-0.039 0.021 0.101
-0.035 0.027 0.101
-0.037 0.027 0.099
-0.033 0.001 0.097
-0.029 -0.001 0.101
-0.025 -0.001 0.097
-0.027 -0.001 0.101
-0.029 0.001 0.103
-0.033 0.001 0.109
-0.031 -0.001 0.099
-0.021 -0.001 0.095
-0.021 -0.001 0.093
-0.023 0.001 0.099
-0.033 0.007 0.087
-0.035 0.009 0.099
-0.021 -0.003 0.107
-0.019 -0.003 0.091
-0.017 -0.007 0.113
-0.019 -0.005 0.111
-0.031 0.011 0.105
-0.035 0.021 0.103
-0.035 0.021 0.103
-0.031 0.019 0.105
-0.033 0.019 0.105
-0.031 0.019 0.105
-0.031 0.015 0.105
-0.027 0.009 0.111
-0.031 0.015 0.105
-0.037 0.021 0.103
-0.031 -0.003 0.101
-0.031 -0.003 0.101
-0.033 0.001 0.097
-0.019 -0.001 0.111
-0.025 0.005 0.115
-0.019 0.003 0.109
-0.025 0.007 0.115
-0.017 0.001 0.109
-0.013 0.003 0.101
-0.023 0.009 0.113
-0.023 0.007 0.115
-0.033 0.011 0.103
-0.035 0.017 0.103
-0.033 0.017 0.105
-0.029 0.013 0.105
-0.025 0.011 0.111
-0.037 0.021 0.103
-0.027 0.023 0.105
-0.027 0.019 0.105
-0.025 0.021 0.105
-0.027 0.023 0.105
-0.033 0.017 0.105
-0.031 0.019 0.105
-0.033 0.017 0.105
-0.033 0.021 0.105
-0.033 0.023 0.105
-0.025 0.021 0.105
-0.023 0.021 0.105
-0.023 0.011 0.111
-0.019 0.013 0.105
-0.043 0.033 0.095
-0.043 0.037 0.085
-0.043 0.029 0.097
-0.041 0.029 0.099
-0.045 0.037 0.101
-0.039 0.035 0.105
-0.039 0.035 0.105
-0.039 0.035 0.105
-0.041 0.039 0.105
-0.037 0.031 0.103
-0.037 0.033 0.105
-0.039 0.047 0.093
-0.035 0.029 0.101
-0.035 0.031 0.103
-0.029 0.031 0.101
-0.035 0.033 0.105
-0.033 0.037 0.107
-0.031 0.035 0.105
-0.035 0.039 0.105
-0.033 0.031 0.103
-0.035 0.007 0.101
-0.033 0.007 0.105
-0.035 0.011 0.103
-0.037 0.015 0.101
-0.037 0.021 0.103
-0.039 0.019 0.101
-0.041 0.027 0.097
-0.041 0.029 0.099
-0.039 0.029 0.099
-0.035 0.031 0.103
-0.033 0.001 0.109
-0.031 0.003 0.107
-0.031 0.003 0.107
-0.025 0.003 0.105
-0.023 0.001 0.107
-0.019 0.005 0.109
-0.027 0.007 0.111
-0.011 0.001 0.101
-0.009 0.003 0.103
-0.017 0.011 0.107
-0.015 0.009 0.107
-0.021 0.021 0.105
-0.027 0.027 0.105
-0.029 0.017 0.105
-0.021 0.017 0.105
-0.031 0.027 0.105
-0.017 0.015 0.107
-0.043 0.035 0.101
-0.043 0.037 0.103
-0.041 0.033 0.101
-0.037 0.035 0.107
-0.037 0.033 0.105
-0.039 0.037 0.105
-0.027 0.037 0.101
-0.029 0.033 0.101
-0.027 0.037 0.101
-0.031 0.039 0.105
-0.021 0.003 0.109
-0.017 -0.011 0.113
-0.017 -0.011 0.113
-0.017 -0.011 0.113
-0.019 -0.003 0.111
-0.019 -0.001 0.111
-0.019 -0.007 0.111
-0.019 -0.005 0.111
-0.019 -0.001 0.111
