0.023 -0.005 0.053
0.023 -0.005 0.057
0.009 -0.011 0.053
0.015 -0.005 0.051
0.007 -0.011 0.053
0.005 -0.009 0.049
0.001 -0.011 0.051
-0.009 0.017 0.053
-0.001 0.013 0.049
-0.007 0.013 0.055
-0.011 0.015 0.055
-0.009 0.011 0.057
-0.005 0.009 0.057
-0.005 0.009 0.057
0.007 -0.005 0.041
0.005 -0.007 0.045
-0.001 0.005 0.055
-0.001 -0.001 0.047
0.009 -0.013 0.059
0.011 -0.015 0.065
0.011 -0.015 0.063
0.005 -0.011 0.055
0.003 -0.013 0.057
0.001 -0.013 0.057
0.007 -0.017 0.067
-0.005 0.007 0.063
-0.005 0.003 0.071
-0.001 0.003 0.057
0.001 0.001 0.063
0.001 -0.011 0.053
-0.001 -0.001 0.053
-0.001 0.003 0.069
0.003 -0.005 0.069
0.001 -0.005 0.061
0.001 -0.001 0.059
0.007 -0.009 0.077
0.007 -0.009 0.081
-0.005 0.003 0.073
-0.003 0.001 0.077
0.003 -0.005 0.071
-0.001 -0.003 0.083
-0.005 -0.001 0.081
-0.005 -0.003 0.083
-0.009 0.001 0.077
-0.007 -0.001 0.081
-0.011 0.001 0.077
-0.013 -0.001 0.079
-0.005 0.001 0.079
0.009 -0.013 0.089
0.005 -0.017 0.091
0.003 -0.007 0.087
-0.001 -0.011 0.091
-0.001 -0.009 0.089
0.001 -0.009 0.089
0.001 -0.015 0.093
0.001 -0.015 0.093
-0.013 0.013 0.095
-0.013 0.013 0.101
-0.013 0.011 0.095
-0.007 -0.007 0.089
-0.007 -0.001 0.081
-0.007 -0.005 0.085
-0.013 0.013 0.107
-0.015 -0.007 0.113
-0.015 -0.005 0.109
0.039 -0.017 0.043
0.029 -0.003 0.047
0.029 -0.005 0.045
0.021 -0.003 0.045
0.025 -0.003 0.045
0.027 -0.003 0.045
0.031 -0.013 0.043
0.039 -0.017 0.041
0.031 -0.011 0.039
0.035 -0.013 0.037
0.021 -0.003 0.037
0.023 -0.009 0.035
0.029 -0.005 0.057
0.039 -0.019 0.049
0.021 -0.011 0.069
0.019 -0.019 0.065
0.021 -0.013 0.071
0.021 -0.025 0.069
0.037 -0.025 0.059
0.033 -0.031 0.065
0.041 -0.023 0.051
0.041 -0.023 0.051
0.039 -0.025 0.055
0.039 -0.029 0.053
0.037 -0.029 0.061
0.039 -0.031 0.057
0.029 -0.003 0.053
0.027 -0.003 0.051
0.029 -0.013 0.045
0.029 -0.013 0.045
0.029 -0.007 0.045
0.027 -0.003 0.047
0.023 -0.005 0.061
0.025 -0.007 0.063
0.029 -0.007 0.059
0.031 -0.009 0.057
0.029 -0.005 0.061
0.031 -0.005 0.051
0.039 -0.019 0.049
0.039 -0.021 0.053
0.031 -0.007 0.057
0.031 -0.017 0.049
0.033 -0.017 0.049
0.011 -0.003 0.041
0.013 -0.003 0.041
0.009 -0.005 0.041
0.007 -0.005 0.045
0.021 -0.003 0.039
0.007 0.003 0.039
0.003 -0.009 0.049
0.021 -0.005 0.053
0.009 -0.005 0.043
0.027 -0.009 0.037
0.027 -0.009 0.037
0.031 -0.011 0.039
0.029 -0.003 0.047
0.031 -0.005 0.051
0.029 -0.003 0.055
0.019 -0.009 0.065
0.025 -0.011 0.065
0.019 -0.021 0.061
0.027 -0.013 0.061
0.017 -0.011 0.071
0.011 -0.017 0.067
0.019 -0.021 0.063
0.035 -0.023 0.057
0.033 -0.019 0.051
0.021 -0.029 0.061
0.029 -0.027 0.065
0.025 -0.009 0.065
0.009 -0.013 0.055
0.011 -0.013 0.055
0.011 -0.005 0.049
0.031 -0.007 0.057
0.031 -0.011 0.055
0.023 -0.005 0.055
0.029 -0.003 0.049
0.027 -0.009 0.063
0.029 -0.009 0.061
0.029 -0.007 0.061
0.031 -0.007 0.057
0.029 -0.007 0.061
0.039 -0.017 0.041
0.041 -0.021 0.047
0.039 -0.019 0.037
0.041 -0.023 0.043
0.041 -0.023 0.045
0.041 -0.025 0.045
0.041 -0.025 0.047
0.039 -0.017 0.043
0.037 -0.017 0.047
0.033 -0.013 0.045
0.039 -0.031 0.051
0.039 -0.025 0.053
0.041 -0.023 0.051
0.037 -0.017 0.049
0.037 -0.019 0.051
0.037 -0.023 0.055
0.037 -0.021 0.055
0.035 -0.025 0.061
0.039 -0.027 0.057
0.037 -0.027 0.061
0.037 -0.023 0.057
0.037 -0.023 0.057
0.017 -0.017 0.077
0.021 -0.027 0.071
0.021 -0.023 0.079
0.025 -0.031 0.073
0.033 -0.039 0.077
0.031 -0.035 0.081
0.025 -0.033 0.075
0.021 -0.033 0.077
0.025 -0.033 0.081
0.029 -0.035 0.077
0.033 -0.039 0.077
0.013 -0.027 0.091
0.031 -0.035 0.085
0.033 -0.039 0.087
0.027 -0.033 0.085
0.027 -0.033 0.083
0.029 -0.035 0.087
0.033 -0.037 0.085
0.027 -0.033 0.087
0.029 -0.035 0.087
0.033 -0.033 0.065
0.035 -0.043 0.075
0.035 -0.039 0.087
0.035 -0.039 0.083
0.033 -0.037 0.085
0.037 -0.039 0.087
0.013 -0.017 0.073
0.025 -0.029 0.069
0.023 -0.031 0.071
0.033 -0.031 0.065
0.031 -0.027 0.065
0.021 -0.011 0.069
0.019 -0.021 0.079
0.001 -0.005 0.067
0.003 -0.003 0.071
0.007 -0.009 0.077
0.007 -0.009 0.079
0.009 -0.015 0.075
0.003 -0.005 0.073
0.023 -0.011 0.067
0.021 -0.009 0.067
0.021 -0.009 0.067
0.019 -0.011 0.069
0.015 -0.017 0.087
0.009 -0.017 0.091
0.011 -0.025 0.093
0.011 -0.025 0.093
0.011 -0.029 0.093
0.011 -0.025 0.093
0.007 -0.023 0.095
0.005 -0.019 0.093
0.015 -0.021 0.089
0.019 -0.029 0.083
0.017 -0.031 0.085
0.017 -0.029 0.085
0.017 -0.019 0.083
0.011 -0.013 0.083
0.013 -0.015 0.085
0.013 -0.015 0.087
0.005 -0.007 0.085
-0.007 0.025 0.049
-0.009 0.027 0.049
-0.005 0.027 0.045
-0.003 0.021 0.043
-0.005 0.031 0.045
-0.001 0.017 0.041
0.005 0.017 0.035
-0.011 0.039 0.043
-0.005 0.033 0.041
-0.009 0.043 0.043
-0.007 0.041 0.043
-0.003 0.025 0.037
-0.005 0.033 0.039
-0.005 0.035 0.037
-0.023 0.037 0.053
-0.009 0.025 0.051
-0.017 0.033 0.051
-0.015 0.023 0.055
-0.017 0.029 0.057
-0.025 0.037 0.053
-0.033 0.037 0.045
-0.029 0.039 0.047
-0.029 0.039 0.051
-0.023 0.037 0.051
-0.015 0.033 0.047
-0.029 0.039 0.051
-0.025 0.037 0.045
-0.029 0.037 0.043
-0.027 0.037 0.043
-0.021 0.033 0.055
-0.025 0.037 0.055
-0.027 0.037 0.057
-0.019 0.025 0.061
-0.023 0.031 0.065
-0.017 0.023 0.061
-0.021 0.029 0.065
-0.023 0.033 0.061
-0.025 0.033 0.063
-0.025 0.033 0.065
-0.033 0.035 0.061
-0.021 0.029 0.067
-0.031 0.035 0.063
-0.007 0.025 0.049
-0.005 0.023 0.045
-0.011 0.015 0.055
-0.011 0.015 0.055
0.001 0.015 0.043
0.001 0.015 0.041
0.003 0.015 0.041
0.003 0.015 0.041
0.003 0.013 0.039
-0.001 0.021 0.039
0.003 0.013 0.041
0.001 0.009 0.045
-0.001 0.005 0.047
-0.009 0.039 0.045
-0.023 0.037 0.041
-0.007 0.035 0.041
-0.003 0.027 0.041
-0.003 0.027 0.041
-0.005 0.033 0.041
-0.005 0.033 0.041
-0.003 0.025 0.037
-0.001 0.019 0.041
-0.003 0.023 0.041
-0.007 0.025 0.047
-0.015 0.009 0.059
-0.017 0.023 0.061
-0.019 0.027 0.067
-0.017 0.021 0.071
-0.017 0.009 0.059
-0.001 0.003 0.051
-0.007 0.011 0.057
-0.009 0.013 0.055
-0.007 0.013 0.055
-0.001 0.013 0.049
-0.003 0.013 0.051
-0.003 0.013 0.051
-0.011 0.009 0.061
-0.007 0.007 0.063
-0.007 0.011 0.057
-0.009 0.009 0.061
-0.005 0.009 0.059
-0.017 0.021 0.057
-0.015 0.031 0.053
-0.017 0.033 0.055
-0.017 0.023 0.057
-0.017 0.023 0.061
-0.019 0.017 0.063
-0.017 0.027 0.059
-0.017 0.027 0.059
-0.019 0.029 0.059
-0.015 0.019 0.055
-0.007 0.017 0.049
-0.009 0.025 0.051
-0.031 0.037 0.039
-0.033 0.037 0.045
-0.029 0.039 0.047
-0.029 0.039 0.045
-0.029 0.039 0.047
-0.029 0.039 0.049
-0.035 0.037 0.053
-0.033 0.037 0.057
-0.031 0.035 0.063
-0.025 0.037 0.039
-0.009 0.043 0.039
-0.011 0.043 0.039
-0.009 0.043 0.039
-0.011 0.043 0.043
-0.021 0.035 0.047
-0.019 0.035 0.047
-0.019 0.035 0.047
-0.009 0.043 0.039
-0.005 0.035 0.035
-0.003 0.033 0.035
-0.005 0.035 0.037
-0.009 0.043 0.039
-0.009 0.041 0.043
-0.007 0.037 0.043
-0.025 0.037 0.051
-0.021 0.035 0.053
-0.021 0.033 0.055
-0.017 0.033 0.053
-0.023 0.035 0.057
-0.021 0.033 0.057
-0.021 0.023 0.077
-0.029 0.029 0.071
-0.029 0.027 0.073
-0.027 0.025 0.075
-0.031 0.029 0.071
-0.017 0.021 0.095
-0.021 0.027 0.091
-0.019 0.027 0.095
-0.025 0.035 0.087
-0.027 0.027 0.091
-0.021 0.031 0.095
-0.025 0.029 0.089
-0.025 0.037 0.087
-0.027 0.037 0.089
-0.023 0.035 0.099
-0.023 0.031 0.099
-0.021 0.027 0.099
-0.033 0.033 0.089
-0.027 0.041 0.099
-0.025 0.039 0.101
-0.017 0.011 0.071
-0.015 0.005 0.067
-0.019 0.021 0.075
-0.017 0.019 0.071
-0.019 0.021 0.077
-0.015 0.015 0.083
-0.013 0.013 0.087
-0.015 0.013 0.085
-0.015 0.019 0.087
-0.017 0.005 0.075
-0.017 0.003 0.073
-0.013 0.009 0.085
-0.015 0.007 0.079
-0.015 0.011 0.075
-0.009 0.005 0.069
-0.007 0.005 0.067
-0.013 0.003 0.071
-0.007 0.005 0.071
-0.001 0.003 0.065
0.001 0.001 0.071
-0.001 0.001 0.073
-0.007 0.003 0.075
-0.009 0.001 0.077
-0.005 0.003 0.073
-0.003 0.001 0.079
-0.015 0.013 0.077
-0.015 0.015 0.077
-0.017 0.019 0.069
-0.021 0.029 0.065
-0.029 0.023 0.077
-0.019 0.029 0.085
-0.017 0.017 0.073
-0.017 0.019 0.075
-0.023 0.027 0.073
-0.025 0.025 0.075
-0.021 0.025 0.073
-0.017 0.021 0.089
-0.017 0.019 0.089
-0.015 0.019 0.091
-0.011 0.009 0.087
-0.011 0.007 0.085
-0.011 0.007 0.087
-0.011 0.007 0.089
-0.011 0.009 0.099
-0.009 0.003 0.087
-0.013 0.011 0.087
-0.013 0.013 0.087
-0.009 0.001 0.093
-0.013 0.013 0.095
-0.019 0.027 0.087
-0.019 0.027 0.089
-0.021 0.029 0.089
-0.021 0.029 0.089
-0.017 0.019 0.083
-0.015 0.019 0.085
-0.017 0.023 0.087
-0.023 0.033 0.087
-0.023 0.033 0.087
-0.021 0.031 0.087
-0.021 0.027 0.099
-0.017 0.021 0.095
-0.029 0.029 0.089
-0.025 0.029 0.089
-0.021 0.031 0.095
-0.025 0.031 0.089
-0.023 0.035 0.099
-0.021 0.029 0.097
-0.027 0.043 0.087
-0.033 0.049 0.087
-0.027 0.041 0.101
-0.033 0.045 0.091
-0.037 0.049 0.093
-0.035 0.045 0.093
-0.037 0.049 0.093
-0.037 0.049 0.093
-0.025 0.033 0.065
-0.027 0.043 0.085
-0.027 0.039 0.089
-0.025 0.041 0.085
-0.029 0.047 0.085
-0.027 0.039 0.089
-0.023 0.037 0.097
-0.023 0.033 0.095
-0.031 0.047 0.089
-0.027 0.017 0.105
-0.033 0.009 0.105
-0.025 0.011 0.111
-0.029 0.031 0.101
-0.027 0.027 0.105
-0.029 0.033 0.101
-0.031 0.035 0.103
-0.031 0.035 0.105
-0.013 0.009 0.103
-0.011 0.009 0.099
-0.023 0.015 0.105
-0.025 0.017 0.105
-0.015 0.017 0.105
-0.025 0.013 0.107
-0.021 0.009 0.109
-0.017 0.001 0.107
-0.019 0.003 0.109
-0.015 0.015 0.107
-0.023 0.011 0.109
-0.009 0.003 0.103
-0.013 0.013 0.097
-0.013 0.013 0.101
-0.017 0.019 0.103
-0.019 0.021 0.103
-0.025 0.037 0.101
-0.019 0.025 0.097
-0.021 0.027 0.103
-0.023 0.023 0.105
-0.023 0.009 0.113
-0.023 0.009 0.113
-0.031 0.039 0.105
-0.033 0.043 0.105
-0.033 0.041 0.105
-0.023 0.035 0.099
-0.025 0.037 0.101
-0.027 0.041 0.099
-0.027 0.041 0.101
-0.025 0.039 0.099
-0.027 0.039 0.101
-0.021 0.033 0.097
-0.029 0.043 0.101
0.013 0.007 0.037
0.017 0.005 0.035
0.017 0.005 0.033
0.015 0.007 0.037
0.003 0.015 0.037
0.013 0.009 0.035
0.001 0.013 0.045
0.019 0.001 0.035
0.017 0.005 0.033
0.017 0.005 0.037
0.003 0.019 0.035
0.001 0.001 0.067
0.001 0.001 0.069
