-0.023 0.029 0.103
-0.013 0.013 0.087
-0.009 0.007 0.067
-0.015 0.019 0.087
-0.017 0.023 0.097
-0.017 0.021 0.099
-0.033 0.043 0.091
-0.027 0.039 0.089
-0.033 0.043 0.103
-0.029 0.043 0.103
-0.035 0.035 0.089
-0.035 0.043 0.105
-0.029 0.039 0.101
-0.033 0.039 0.105
-0.031 0.043 0.105
-0.025 0.037 0.087
-0.023 0.035 0.085
-0.009 0.007 0.067
-0.015 0.019 0.091
-0.009 0.005 0.071
-0.007 0.009 0.059
-0.013 0.015 0.095
-0.031 0.037 0.105
-0.033 0.039 0.105
-0.027 0.027 0.105
-0.015 0.019 0.085
-0.007 0.007 0.061
-0.005 0.007 0.063
-0.003 0.007 0.061
-0.025 0.025 0.105
-0.017 0.021 0.099
-0.015 0.017 0.101
-0.015 0.017 0.099
-0.005 0.005 0.069
-0.017 0.017 0.105
-0.009 0.001 0.103
-0.007 -0.013 0.093
-0.019 0.005 0.105
-0.015 0.011 0.109
-0.025 0.019 0.105
-0.023 0.021 0.105
-0.023 0.019 0.105
-0.005 -0.003 0.083
-0.017 0.019 0.101
-0.003 -0.001 0.081
-0.005 -0.017 0.091
-0.005 -0.021 0.089
-0.005 -0.023 0.089
-0.005 -0.017 0.091
-0.029 0.013 0.105
-0.027 0.017 0.105
-0.035 0.015 0.105
-0.029 0.015 0.105
-0.029 0.013 0.105
-0.015 0.015 0.107
-0.015 0.017 0.105
-0.009 -0.011 0.091
-0.003 -0.013 0.093
-0.009 0.003 0.103
-0.009 -0.001 0.103
-0.027 0.007 0.111
-0.027 -0.003 0.101
-0.017 -0.007 0.113
-0.021 0.001 0.109
-0.021 -0.003 0.109
-0.019 -0.005 0.111
-0.019 -0.001 0.111
-0.019 -0.001 0.111
-0.015 -0.009 0.113
0.009 -0.013 0.059
0.007 -0.009 0.049
0.015 -0.011 0.051
0.015 -0.011 0.051
0.011 -0.009 0.049
0.011 -0.003 0.041
0.015 -0.003 0.037
0.025 -0.003 0.049
-0.011 0.011 0.093
-0.003 -0.003 0.083
0.001 -0.001 0.077
-0.005 -0.003 0.083
0.005 -0.011 0.089
0.027 -0.027 0.063
0.015 -0.015 0.081
0.027 -0.031 0.071
0.029 -0.029 0.069
-0.003 0.003 0.073
-0.005 0.003 0.075
-0.007 0.005 0.069
0.009 -0.007 0.049
0.011 -0.007 0.049
0.011 -0.011 0.049
-0.013 0.013 0.099
0.003 -0.003 0.077
0.011 -0.015 0.057
0.021 -0.005 0.057
0.013 -0.013 0.051
0.023 -0.005 0.057
0.017 -0.011 0.063
0.019 -0.021 0.047
0.019 -0.009 0.063
0.019 -0.009 0.065
0.019 -0.017 0.047
-0.005 0.009 0.059
0.005 -0.005 0.043
-0.003 0.007 0.059
0.005 -0.001 0.037
0.005 -0.003 0.039
0.011 0.001 0.039
0.011 -0.003 0.041
0.011 0.001 0.039
0.001 0.001 0.059
0.005 -0.005 0.043
0.005 -0.007 0.045
0.005 -0.005 0.043
0.007 -0.005 0.045
0.009 -0.005 0.045
0.009 -0.007 0.049
0.015 -0.005 0.049
0.019 -0.003 0.041
0.023 -0.003 0.041
0.017 -0.001 0.037
0.021 -0.003 0.037
0.019 -0.003 0.047
0.019 -0.007 0.053
0.023 -0.003 0.049
0.023 -0.003 0.045
-0.003 -0.005 0.085
0.005 -0.005 0.077
0.005 -0.007 0.079
0.013 -0.015 0.055
0.013 -0.015 0.061
-0.003 -0.001 0.081
0.013 -0.015 0.065
0.011 -0.015 0.065
0.013 -0.015 0.063
0.029 -0.025 0.057
0.021 -0.013 0.071
0.009 -0.011 0.085
0.029 -0.025 0.059
0.017 -0.013 0.069
0.017 -0.017 0.071
-0.003 0.005 0.067
-0.003 0.003 0.071
0.009 -0.011 0.053
0.011 -0.013 0.055
0.013 -0.015 0.057
-0.003 0.001 0.077
-0.001 0.003 0.069
0.023 -0.005 0.061
0.027 -0.005 0.061
0.019 -0.005 0.051
0.023 -0.003 0.051
0.017 -0.007 0.053
0.021 -0.005 0.057
0.021 -0.009 0.063
0.023 -0.009 0.065
0.021 -0.007 0.061
0.027 -0.005 0.061
0.027 -0.005 0.061
0.023 -0.009 0.065
0.027 -0.009 0.063
0.025 -0.005 0.057
0.031 -0.023 0.055
0.029 -0.023 0.055
0.031 -0.005 0.055
0.027 -0.005 0.061
0.029 -0.005 0.061
0.035 -0.017 0.049
0.039 -0.019 0.047
0.031 -0.005 0.053
0.031 -0.005 0.055
0.037 -0.015 0.043
0.037 -0.025 0.059
0.037 -0.023 0.057
0.039 -0.021 0.053
0.037 -0.021 0.055
0.035 -0.025 0.061
0.033 -0.023 0.059
0.035 -0.023 0.059
0.007 -0.011 0.089
-0.003 -0.013 0.093
0.007 -0.019 0.093
0.009 -0.019 0.091
0.009 -0.013 0.089
0.017 -0.017 0.081
0.013 -0.015 0.087
0.019 -0.021 0.083
0.019 -0.021 0.083
0.025 -0.033 0.083
0.027 -0.033 0.087
0.025 -0.035 0.087
0.013 -0.021 0.089
0.011 -0.021 0.091
0.025 -0.033 0.081
0.003 -0.019 0.095
0.011 -0.025 0.093
0.015 -0.027 0.089
0.029 -0.035 0.087
0.029 -0.037 0.089
0.025 -0.033 0.087
0.029 -0.035 0.085
0.031 -0.035 0.087
0.031 -0.037 0.089
-0.003 -0.005 0.087
0.005 -0.007 0.081
0.005 -0.007 0.085
-0.005 -0.009 0.091
-0.003 -0.005 0.087
0.005 -0.007 0.085
0.011 -0.013 0.081
0.017 -0.017 0.081
0.019 -0.021 0.083
0.017 -0.017 0.081
0.029 -0.029 0.069
0.017 -0.019 0.085
0.015 -0.015 0.081
0.017 -0.017 0.081
0.001 -0.005 0.085
-0.001 0.001 0.077
-0.001 -0.001 0.079
0.003 -0.003 0.077
0.023 -0.011 0.067
0.013 -0.027 0.091
0.013 -0.021 0.089
0.001 -0.023 0.093
-0.001 -0.025 0.091
0.005 -0.021 0.095
0.007 -0.025 0.095
0.007 -0.023 0.095
0.007 -0.023 0.095
0.005 -0.021 0.095
0.009 -0.021 0.091
0.009 -0.023 0.093
0.017 -0.027 0.087
0.015 -0.023 0.089
0.015 -0.023 0.089
0.015 -0.019 0.087
0.007 -0.011 0.089
0.011 -0.013 0.087
0.003 -0.007 0.087
-0.039 0.047 0.093
-0.039 0.049 0.091
-0.037 0.049 0.093
-0.033 0.049 0.087
-0.015 0.027 0.057
-0.035 0.035 0.057
-0.023 0.037 0.053
-0.019 0.037 0.035
-0.015 0.039 0.041
-0.015 0.041 0.039
-0.043 0.041 0.087
-0.043 0.041 0.087
-0.041 0.043 0.089
-0.041 0.027 0.057
-0.039 0.031 0.059
-0.041 0.039 0.089
-0.039 0.041 0.091
-0.043 0.019 0.049
-0.043 0.017 0.051
-0.041 0.027 0.059
-0.049 0.021 0.039
-0.047 0.023 0.041
-0.045 0.021 0.041
-0.037 0.035 0.059
-0.045 0.027 0.037
-0.037 0.037 0.049
-0.041 0.027 0.049
-0.039 0.031 0.059
-0.041 0.029 0.045
-0.041 0.029 0.049
-0.041 0.031 0.047
-0.039 0.033 0.047
-0.039 0.035 0.051
-0.041 0.035 0.085
-0.039 0.037 0.089
-0.043 0.037 0.085
-0.043 0.039 0.087
-0.041 0.041 0.089
-0.039 0.037 0.089
-0.039 0.033 0.053
-0.039 0.041 0.091
-0.041 0.041 0.089
-0.041 0.043 0.089
-0.041 0.027 0.059
-0.041 0.025 0.059
-0.041 0.029 0.057
-0.043 0.045 0.085
-0.037 0.049 0.093
-0.033 0.043 0.091
-0.029 0.043 0.089
-0.039 0.049 0.091
-0.027 0.047 0.085
-0.035 0.035 0.089
-0.037 0.043 0.093
-0.019 0.027 0.067
-0.013 0.015 0.055
-0.011 0.017 0.053
-0.009 0.019 0.051
-0.011 0.015 0.055
-0.021 0.031 0.061
-0.009 0.025 0.051
-0.007 0.021 0.049
-0.003 0.013 0.049
-0.025 0.035 0.057
-0.025 0.037 0.055
-0.001 0.017 0.041
-0.009 0.023 0.051
-0.009 0.025 0.051
-0.005 0.027 0.045
-0.031 0.041 0.097
-0.031 0.039 0.105
-0.027 0.039 0.101
-0.027 0.031 0.099
-0.027 0.035 0.101
-0.025 0.031 0.099
-0.027 0.035 0.101
-0.005 0.009 0.055
-0.003 0.013 0.051
-0.023 0.037 0.099
-0.005 0.007 0.061
-0.005 0.007 0.063
-0.003 0.005 0.067
-0.007 0.007 0.065
-0.001 0.005 0.061
-0.019 0.029 0.083
-0.027 0.041 0.087
-0.019 0.027 0.067
-0.021 0.031 0.061
-0.019 0.031 0.059
-0.021 0.029 0.067
-0.015 0.025 0.055
-0.013 0.021 0.053
-0.017 0.033 0.053
-0.017 0.033 0.055
-0.013 0.025 0.055
-0.037 0.035 0.043
-0.033 0.037 0.039
-0.033 0.037 0.047
-0.037 0.035 0.051
-0.035 0.037 0.053
-0.037 0.035 0.059
-0.017 0.039 0.037
-0.021 0.037 0.043
-0.017 0.039 0.041
-0.023 0.037 0.047
-0.019 0.035 0.047
-0.007 0.037 0.045
-0.011 0.043 0.039
-0.009 0.037 0.045
-0.009 0.039 0.045
-0.031 0.037 0.057
-0.025 0.035 0.061
-0.021 0.033 0.059
-0.039 0.041 0.103
-0.041 0.041 0.103
-0.039 0.041 0.105
-0.037 0.037 0.107
-0.037 0.037 0.107
-0.043 0.043 0.087
-0.037 0.049 0.093
-0.039 0.045 0.093
-0.039 0.039 0.097
-0.037 0.025 0.101
-0.035 0.015 0.105
-0.037 0.025 0.103
-0.039 0.035 0.105
-0.041 0.037 0.089
-0.037 0.037 0.089
-0.041 0.039 0.105
-0.039 0.041 0.105
-0.037 0.041 0.103
-0.037 0.035 0.107
-0.037 0.027 0.099
-0.039 0.019 0.095
-0.041 0.033 0.101
-0.039 0.039 0.105
-0.035 0.037 0.107
-0.033 0.037 0.107
-0.025 0.029 0.103
-0.025 0.029 0.103
-0.025 0.031 0.099
-0.033 0.041 0.105
-0.033 0.043 0.105
-0.025 0.037 0.101
-0.023 0.033 0.099
-0.033 0.031 0.103
-0.033 0.027 0.105
-0.031 0.027 0.105
-0.025 0.027 0.105
-0.027 0.025 0.105
-0.027 0.027 0.105
-0.025 0.027 0.105
-0.023 0.025 0.105
-0.037 0.037 0.107
-0.023 0.035 0.099
-0.023 0.033 0.099
-0.023 0.029 0.103
-0.019 0.023 0.101
-0.021 0.033 0.097
-0.023 0.037 0.099
-0.027 0.039 0.089
-0.035 0.035 0.089
-0.033 0.043 0.105
-0.027 0.041 0.101
-0.029 0.041 0.103
-0.023 0.023 0.105
-0.035 0.027 0.101
-0.021 0.027 0.099
-0.021 0.015 0.105
-0.025 0.013 0.107
-0.021 0.013 0.105
-0.019 0.021 0.103
-0.013 0.013 0.101
-0.017 0.019 0.103
-0.015 0.017 0.101
-0.017 0.021 0.099
-0.013 0.013 0.101
-0.015 0.017 0.105
-0.017 0.013 0.107
-0.009 0.005 0.101
-0.013 0.013 0.097
-0.033 0.037 0.107
-0.033 0.037 0.107
-0.023 0.037 0.099
-0.021 0.027 0.101
-0.025 0.033 0.099
-0.021 0.031 0.097
-0.031 0.043 0.101
-0.023 0.037 0.099
-0.023 0.037 0.097
-0.023 0.037 0.099
-0.027 0.041 0.101
-0.025 0.039 0.099
-0.027 0.041 0.099
-0.035 0.035 0.107
-0.035 0.037 0.107
-0.029 0.029 0.103
-0.023 0.029 0.103
-0.021 0.029 0.097
-0.025 0.029 0.103
-0.033 0.041 0.105
-0.029 0.033 0.101
-0.029 0.035 0.101
-0.019 0.027 0.097
-0.017 0.023 0.097
-0.039 0.041 0.091
-0.039 0.037 0.089
-0.043 0.043 0.087
-0.041 0.035 0.089
-0.035 0.039 0.089
-0.033 0.037 0.089
-0.033 0.041 0.091
-0.033 0.043 0.091
-0.033 0.049 0.087
-0.037 0.049 0.091
-0.029 0.043 0.089
-0.031 0.049 0.087
-0.031 0.047 0.089
-0.031 0.045 0.089
-0.031 0.047 0.089
-0.035 0.007 0.105
-0.035 0.015 0.105
-0.033 0.009 0.105
-0.039 0.019 0.101
-0.043 0.035 0.101
-0.035 0.035 0.107
-0.029 0.005 0.103
-0.027 0.011 0.109
-0.025 0.011 0.111
-0.023 0.011 0.111
-0.023 0.013 0.107
-0.021 0.011 0.105
-0.029 0.011 0.105
-0.031 0.015 0.105
-0.027 0.011 0.109
-0.025 0.009 0.113
-0.023 0.011 0.111
-0.029 0.011 0.105
-0.027 0.011 0.109
-0.029 0.015 0.105
-0.025 0.009 0.113
-0.017 0.013 0.107
-0.015 0.017 0.105
-0.015 0.015 0.107
-0.015 0.013 0.107
-0.023 0.025 0.105
-0.031 0.035 0.105
-0.023 0.029 0.103
-0.029 0.023 0.105
-0.027 0.025 0.105
-0.041 0.035 0.101
-0.039 0.039 0.105
-0.035 0.041 0.105
-0.035 0.039 0.105
-0.041 0.039 0.105
-0.039 0.039 0.105
-0.039 0.041 0.105
-0.033 0.037 0.107
-0.031 0.043 0.103
-0.029 0.043 0.103
-0.033 0.039 0.105
-0.029 0.043 0.103
-0.001 0.021 0.039
0.011 0.009 0.035
0.011 0.007 0.035
0.015 0.007 0.035
0.011 0.003 0.039
0.013 0.005 0.039
0.001 0.017 0.039
-0.001 0.019 0.041
0.005 0.017 0.035
