-0.033 -0.001 0.037
-0.009 -0.029 0.041
-0.031 -0.003 0.095
-0.033 0.001 0.095
-0.027 -0.009 0.095
-0.007 -0.025 0.045
-0.033 -0.001 0.097
-0.031 -0.003 0.037
-0.031 -0.001 0.041
-0.029 0.001 0.041
-0.031 -0.001 0.041
-0.027 0.003 0.049
-0.025 0.005 0.053
-0.027 0.003 0.049
-0.027 -0.005 0.043
-0.027 -0.005 0.043
-0.029 -0.003 0.043
-0.023 -0.003 0.053
-0.035 0.009 0.099
-0.035 0.011 0.087
-0.029 0.007 0.069
-0.037 0.017 0.095
-0.035 0.011 0.103
-0.035 0.007 0.105
-0.033 0.009 0.105
-0.029 -0.007 0.097
-0.029 -0.007 0.103
-0.029 -0.007 0.103
-0.033 0.001 0.101
-0.033 0.003 0.109
-0.027 -0.005 0.103
-0.013 -0.013 0.083
-0.025 -0.005 0.053
-0.021 -0.005 0.055
-0.033 0.001 0.089
-0.033 0.001 0.095
-0.033 0.003 0.087
-0.021 -0.003 0.061
-0.033 0.007 0.085
-0.035 0.007 0.101
-0.035 0.005 0.105
-0.033 0.009 0.105
-0.035 0.007 0.105
-0.031 0.013 0.105
-0.033 0.001 0.095
-0.033 -0.001 0.097
-0.033 0.001 0.109
-0.031 0.003 0.107
-0.033 0.003 0.109
-0.021 -0.003 0.107
-0.029 -0.005 0.103
-0.011 -0.017 0.083
-0.011 -0.017 0.085
-0.035 0.011 0.101
-0.035 0.009 0.103
-0.031 -0.001 0.101
-0.027 0.007 0.111
-0.029 -0.003 0.103
-0.015 0.007 0.103
-0.017 -0.011 0.113
-0.029 -0.007 0.089
-0.031 -0.003 0.101
-0.033 0.001 0.109
-0.025 0.003 0.101
-0.011 -0.013 0.087
-0.013 -0.007 0.083
-0.025 0.003 0.107
-0.027 0.007 0.111
-0.025 0.005 0.113
-0.013 0.003 0.101
-0.019 -0.005 0.111
-0.031 -0.003 0.101
-0.029 -0.005 0.103
-0.021 -0.001 0.109
-0.019 -0.001 0.111
-0.009 -0.001 0.103
-0.017 -0.005 0.111
-0.017 -0.011 0.113
-0.033 0.003 0.109
-0.035 0.003 0.105
-0.025 0.005 0.113
-0.021 -0.001 0.109
-0.031 0.011 0.105
-0.027 -0.009 0.095
-0.001 -0.029 0.053
-0.029 -0.007 0.103
-0.027 -0.009 0.103
-0.011 -0.015 0.085
-0.011 -0.015 0.085
-0.011 -0.013 0.087
-0.021 -0.005 0.109
-0.019 -0.001 0.111
-0.001 -0.027 0.061
-0.005 -0.021 0.089
0.001 -0.015 0.093
0.001 -0.019 0.095
0.003 -0.019 0.095
0.005 -0.023 0.095
0.003 -0.021 0.095
0.007 -0.019 0.093
0.013 -0.017 0.089
-0.031 -0.001 0.101
-0.029 -0.003 0.103
-0.031 -0.003 0.101
-0.029 -0.005 0.103
-0.027 0.005 0.103
-0.029 0.009 0.105
-0.029 -0.007 0.103
-0.011 -0.015 0.085
-0.023 -0.001 0.107
-0.013 -0.015 0.083
-0.013 -0.007 0.083
-0.025 0.009 0.113
-0.021 -0.001 0.109
-0.019 0.001 0.109
-0.001 -0.011 0.091
-0.003 -0.007 0.089
-0.001 -0.009 0.089
-0.009 0.001 0.103
-0.027 0.011 0.109
-0.029 0.011 0.105
-0.029 0.015 0.105
-0.027 0.019 0.105
-0.029 0.017 0.105
-0.029 0.015 0.105
-0.029 0.017 0.105
-0.027 0.013 0.107
-0.021 0.015 0.105
-0.021 0.013 0.105
-0.019 0.013 0.105
-0.019 0.013 0.105
-0.017 0.015 0.107
-0.025 0.017 0.105
-0.017 0.017 0.105
-0.015 0.017 0.105
-0.023 0.011 0.111
-0.017 0.013 0.107
-0.015 0.009 0.109
-0.015 0.011 0.109
-0.009 0.005 0.101
-0.015 0.009 0.109
-0.017 0.015 0.107
-0.015 0.015 0.107
0.023 -0.003 0.051
0.025 -0.003 0.049
-0.027 -0.009 0.103
-0.011 -0.013 0.087
-0.019 -0.003 0.111
-0.025 0.005 0.115
-0.019 -0.001 0.111
-0.011 -0.015 0.085
-0.023 0.001 0.107
-0.017 0.001 0.109
0.005 -0.011 0.089
0.007 -0.011 0.089
0.017 -0.013 0.073
-0.017 -0.009 0.113
0.003 -0.017 0.093
-0.001 -0.015 0.093
0.003 -0.013 0.091
0.007 -0.017 0.091
0.009 -0.015 0.091
-0.027 0.009 0.111
-0.027 0.013 0.107
-0.025 0.013 0.107
-0.015 0.011 0.109
-0.013 0.011 0.109
0.023 -0.005 0.061
-0.013 0.011 0.109
-0.013 0.011 0.109
0.025 -0.005 0.059
0.029 -0.003 0.055
0.023 -0.005 0.057
0.027 -0.005 0.061
0.021 -0.011 0.069
0.025 -0.007 0.063
0.021 -0.005 0.057
0.029 -0.007 0.061
0.005 -0.007 0.085
0.003 -0.007 0.087
0.003 -0.009 0.089
0.019 -0.009 0.061
0.017 -0.011 0.069
0.019 -0.009 0.063
0.003 -0.013 0.091
0.005 -0.013 0.091
0.007 -0.013 0.091
0.033 -0.023 0.059
0.025 -0.011 0.065
0.035 -0.021 0.055
-0.015 0.011 0.109
-0.013 0.011 0.109
-0.013 0.011 0.109
0.037 -0.019 0.051
0.019 -0.011 0.071
0.039 -0.023 0.053
0.037 -0.027 0.061
0.033 -0.023 0.059
0.003 -0.033 0.069
-0.005 -0.025 0.087
-0.001 -0.029 0.083
0.001 -0.025 0.091
0.001 -0.029 0.087
0.007 -0.029 0.091
0.001 -0.021 0.095
0.007 -0.027 0.093
0.009 -0.025 0.095
0.023 -0.041 0.079
0.027 -0.041 0.083
0.011 -0.029 0.093
0.009 -0.031 0.089
0.029 -0.041 0.085
0.031 -0.037 0.089
0.027 -0.039 0.087
0.029 -0.039 0.087
0.033 -0.043 0.085
0.029 -0.039 0.087
0.031 -0.035 0.087
-0.011 -0.017 0.085
-0.021 -0.005 0.109
-0.007 -0.019 0.089
0.003 -0.019 0.095
0.007 -0.019 0.093
0.013 -0.021 0.089
0.003 -0.011 0.091
0.011 -0.019 0.091
-0.025 0.005 0.115
-0.025 0.005 0.115
-0.025 0.007 0.115
-0.025 0.009 0.113
-0.015 0.009 0.105
0.005 -0.007 0.085
0.019 -0.013 0.073
0.017 -0.011 0.071
0.021 -0.011 0.071
-0.001 -0.029 0.085
0.001 -0.027 0.089
0.009 -0.015 0.091
0.011 -0.019 0.091
0.001 -0.025 0.091
0.013 -0.027 0.091
0.015 -0.025 0.089
0.009 -0.025 0.095
0.011 -0.023 0.091
0.011 -0.019 0.091
0.015 -0.025 0.089
0.005 -0.009 0.087
-0.011 0.001 0.103
-0.009 -0.001 0.103
-0.033 0.007 0.049
-0.035 0.015 0.063
-0.035 0.019 0.071
-0.033 0.013 0.069
-0.039 0.029 0.085
-0.041 0.023 0.055
-0.039 0.029 0.063
-0.039 0.031 0.063
-0.039 0.031 0.059
-0.017 0.039 0.035
-0.037 0.047 0.085
-0.037 0.007 0.045
-0.041 0.011 0.045
-0.041 0.011 0.051
-0.039 0.009 0.051
-0.043 0.015 0.041
-0.039 0.009 0.051
-0.039 0.009 0.051
-0.037 0.009 0.051
-0.041 0.011 0.051
-0.051 0.017 0.037
-0.049 0.023 0.039
-0.047 0.021 0.039
-0.047 0.025 0.039
-0.043 0.021 0.041
-0.041 0.021 0.049
-0.041 0.023 0.053
-0.043 0.019 0.049
-0.041 0.031 0.051
-0.041 0.029 0.047
-0.043 0.019 0.049
-0.043 0.019 0.051
-0.041 0.021 0.053
-0.041 0.031 0.051
-0.041 0.013 0.053
-0.039 0.011 0.053
-0.037 0.017 0.061
-0.041 0.019 0.055
-0.041 0.021 0.055
-0.039 0.021 0.059
-0.041 0.031 0.051
-0.041 0.029 0.055
-0.039 0.021 0.063
-0.039 0.021 0.063
-0.041 0.027 0.059
-0.037 0.031 0.065
-0.037 0.019 0.065
-0.035 0.019 0.073
-0.033 0.007 0.049
-0.033 0.009 0.051
-0.039 0.019 0.093
-0.039 0.023 0.103
-0.043 0.029 0.095
-0.037 0.021 0.103
-0.037 0.021 0.103
-0.035 0.031 0.103
-0.037 0.031 0.103
-0.037 0.029 0.067
-0.039 0.035 0.053
-0.043 0.039 0.085
-0.043 0.035 0.099
-0.045 0.037 0.101
-0.045 0.039 0.101
-0.039 0.039 0.105
-0.043 0.041 0.087
-0.039 0.037 0.089
-0.043 0.041 0.103
-0.037 0.041 0.091
-0.041 0.041 0.103
-0.037 0.033 0.105
-0.033 0.043 0.091
-0.033 0.043 0.091
-0.035 0.043 0.103
-0.033 0.011 0.077
-0.035 0.017 0.069
-0.037 0.019 0.085
-0.035 0.011 0.087
-0.037 0.013 0.099
-0.037 0.019 0.083
-0.037 0.019 0.087
-0.039 0.025 0.097
-0.041 0.023 0.095
-0.039 0.025 0.097
-0.033 0.023 0.105
-0.033 0.027 0.105
-0.035 0.027 0.101
-0.033 0.027 0.105
-0.033 0.025 0.105
-0.033 0.027 0.105
-0.027 0.015 0.105
-0.031 0.021 0.105
-0.039 0.023 0.103
-0.037 0.023 0.103
-0.037 0.025 0.103
-0.043 0.041 0.103
-0.039 0.029 0.099
-0.043 0.039 0.103
-0.043 0.041 0.103
-0.039 0.035 0.105
-0.039 0.037 0.105
-0.037 0.031 0.103
-0.037 0.031 0.103
-0.039 0.035 0.103
-0.041 0.039 0.105
-0.039 0.035 0.051
-0.039 0.033 0.047
-0.037 0.035 0.057
-0.037 0.035 0.059
-0.035 0.035 0.061
-0.043 0.041 0.083
-0.035 0.037 0.055
-0.031 0.039 0.049
-0.031 0.037 0.055
-0.031 0.037 0.051
-0.041 0.045 0.087
-0.043 0.043 0.087
-0.035 0.045 0.093
-0.037 0.047 0.093
-0.035 0.045 0.093
-0.033 0.037 0.055
-0.041 0.041 0.089
-0.033 0.011 0.075
-0.037 0.025 0.069
-0.041 0.033 0.085
-0.035 0.011 0.085
-0.033 0.003 0.093
-0.035 0.009 0.099
-0.035 0.007 0.099
-0.037 0.013 0.095
-0.037 0.017 0.097
-0.037 0.013 0.097
-0.037 0.017 0.087
-0.041 0.023 0.095
-0.041 0.027 0.097
-0.043 0.033 0.097
-0.039 0.021 0.095
-0.037 0.023 0.099
-0.041 0.025 0.095
-0.039 0.027 0.097
-0.037 0.015 0.097
-0.035 0.013 0.103
-0.037 0.017 0.087
-0.035 0.013 0.083
-0.033 0.009 0.083
-0.035 0.009 0.097
-0.035 0.009 0.101
-0.035 0.011 0.101
-0.033 0.015 0.105
-0.039 0.017 0.093
-0.039 0.021 0.095
-0.033 0.021 0.105
-0.033 0.023 0.105
-0.031 0.015 0.105
-0.037 0.031 0.103
-0.043 0.037 0.103
-0.039 0.037 0.105
-0.043 0.039 0.103
-0.039 0.031 0.101
-0.031 0.025 0.105
-0.037 0.031 0.103
-0.041 0.033 0.101
-0.035 0.009 0.099
-0.035 0.009 0.103
-0.035 0.009 0.101
-0.035 0.007 0.095
-0.035 0.007 0.097
-0.035 0.007 0.103
-0.033 0.009 0.105
-0.039 0.019 0.101
-0.031 0.005 0.107
-0.027 0.005 0.103
-0.027 0.011 0.109
-0.027 0.013 0.107
-0.023 0.013 0.107
-0.021 0.009 0.109
-0.025 0.011 0.111
-0.021 0.013 0.105
-0.025 0.007 0.115
-0.013 0.003 0.101
-0.015 0.007 0.103
-0.019 0.015 0.105
-0.039 0.023 0.103
-0.033 0.025 0.105
-0.027 0.025 0.105
-0.033 0.027 0.105
-0.037 0.037 0.107
-0.031 0.035 0.105
-0.031 0.029 0.103
-0.037 0.021 0.103
-0.031 0.029 0.105
-0.027 0.029 0.103
-0.025 0.029 0.101
-0.027 0.029 0.103
-0.029 0.027 0.105
-0.025 0.031 0.099
-0.027 0.025 0.105
-0.043 0.039 0.085
-0.043 0.041 0.103
-0.041 0.039 0.089
-0.039 0.043 0.091
-0.043 0.035 0.101
-0.035 0.045 0.093
-0.039 0.047 0.093
-0.037 0.049 0.093
-0.043 0.041 0.101
-0.037 0.041 0.105
-0.037 0.039 0.105
-0.033 0.043 0.091
-0.029 0.047 0.087
-0.029 0.045 0.089
-0.027 0.035 0.101
-0.031 0.047 0.089
-0.035 0.009 0.103
-0.035 0.007 0.103
-0.037 0.019 0.103
-0.043 0.029 0.097
-0.043 0.031 0.099
-0.037 0.027 0.099
-0.037 0.025 0.103
-0.037 0.031 0.103
-0.025 0.005 0.111
-0.025 0.009 0.113
-0.023 0.013 0.107
-0.023 0.005 0.115
-0.023 0.007 0.115
-0.025 0.007 0.115
-0.027 0.011 0.109
-0.025 0.015 0.105
-0.021 0.013 0.105
-0.013 0.005 0.103
-0.013 0.005 0.103
-0.023 0.011 0.111
-0.017 0.011 0.107
-0.015 0.009 0.109
-0.015 0.009 0.109
-0.017 0.013 0.107
-0.021 0.025 0.103
-0.023 0.023 0.105
-0.025 0.023 0.105
-0.029 0.031 0.101
-0.023 0.029 0.103
-0.021 0.027 0.103
-0.021 0.017 0.105
-0.017 0.017 0.105
-0.043 0.035 0.101
-0.041 0.037 0.103
-0.039 0.035 0.105
-0.033 0.039 0.105
-0.039 0.041 0.105
-0.039 0.037 0.105
-0.031 0.041 0.103
-0.033 0.037 0.107
-0.031 0.039 0.105
-0.031 0.043 0.105
-0.033 0.043 0.105
-0.029 0.041 0.103
-0.039 0.033 0.103
-0.037 0.033 0.105
-0.027 0.025 0.105
-0.035 0.027 0.101
-0.033 0.031 0.103
-0.033 0.027 0.105
-0.025 0.025 0.105
