-0.001 -0.029 0.047
-0.001 -0.029 0.047
-0.001 -0.029 0.051
-0.007 -0.015 0.065
-0.011 -0.017 0.067
-0.007 -0.017 0.067
-0.007 -0.019 0.071
-0.003 -0.023 0.091
-0.011 -0.013 0.087
-0.017 -0.009 0.109
0.009 -0.033 0.045
0.025 -0.033 0.037
0.029 -0.029 0.049
0.027 -0.027 0.045
0.029 -0.037 0.065
0.003 -0.031 0.079
0.005 -0.033 0.085
0.007 -0.029 0.091
-0.001 -0.021 0.091
-0.035 0.001 0.037
-0.035 0.001 0.033
-0.043 0.015 0.041
-0.035 0.011 0.053
-0.029 -0.001 0.043
-0.033 0.003 0.041
-0.027 0.001 0.047
-0.027 0.013 0.059
-0.017 -0.011 0.069
-0.031 0.011 0.067
-0.041 0.025 0.043
-0.041 0.011 0.049
-0.037 0.007 0.047
-0.037 0.023 0.067
-0.029 0.005 0.073
-0.027 0.003 0.077
-0.023 0.001 0.079
-0.027 0.005 0.071
-0.029 -0.001 0.085
-0.031 -0.001 0.089
-0.027 -0.009 0.097
-0.033 0.005 0.089
-0.035 0.013 0.089
-0.033 0.005 0.095
-0.039 0.027 0.085
-0.041 0.039 0.089
-0.039 0.031 0.087
-0.035 0.013 0.103
-0.039 0.019 0.101
-0.025 0.005 0.103
-0.027 -0.005 0.103
-0.033 0.001 0.107
-0.013 -0.013 0.083
-0.001 -0.011 0.091
-0.017 -0.005 0.075
0.003 -0.015 0.091
0.003 -0.013 0.091
-0.005 -0.021 0.089
0.015 -0.031 0.089
0.023 -0.037 0.085
0.031 -0.041 0.085
0.037 -0.033 0.059
0.009 -0.017 0.091
0.019 -0.009 0.065
0.023 -0.013 0.047
0.005 -0.033 0.085
0.013 -0.015 0.083
0.015 -0.005 0.051
0.005 -0.025 0.093
0.005 -0.005 0.077
0.007 -0.019 0.093
0.011 -0.021 0.091
-0.003 -0.005 0.087
-0.005 -0.003 0.083
-0.005 0.021 0.047
-0.005 0.027 0.045
-0.007 0.027 0.045
-0.009 -0.001 0.103
-0.009 0.019 0.051
-0.011 0.023 0.053
-0.011 0.025 0.053
-0.019 0.029 0.059
-0.025 0.019 0.105
-0.023 0.011 0.111
-0.029 0.025 0.105
-0.019 -0.001 0.111
-0.011 0.001 0.103
-0.011 0.009 0.095
-0.017 0.025 0.085
-0.025 0.003 0.107
-0.029 0.043 0.103
-0.031 0.049 0.087
-0.033 0.009 0.105
-0.035 0.013 0.103
-0.035 0.017 0.103
-0.023 0.001 0.109
-0.019 0.005 0.109
-0.035 0.035 0.107
0.009 -0.001 0.039
0.003 0.011 0.043
-0.011 0.031 0.047
-0.015 0.003 0.071
0.015 -0.005 0.051
0.019 -0.005 0.049
0.005 -0.003 0.039
0.011 -0.013 0.053
0.019 -0.009 0.055
0.027 -0.027 0.061
0.025 -0.007 0.063
0.007 -0.013 0.075
0.029 -0.037 0.073
0.007 -0.017 0.069
0.023 -0.031 0.067
0.019 -0.011 0.069
0.007 -0.011 0.089
-0.033 0.037 0.043
-0.045 0.029 0.035
-0.033 0.037 0.039
-0.029 0.037 0.057
-0.009 0.039 0.045
-0.013 0.009 0.061
-0.019 0.031 0.057
-0.007 0.037 0.045
-0.023 0.037 0.053
-0.027 0.037 0.057
-0.029 0.027 0.089
-0.017 0.021 0.073
-0.023 0.021 0.079
-0.013 0.011 0.095
-0.013 0.015 0.095
-0.017 0.021 0.089
-0.031 0.047 0.083
-0.027 0.039 0.089
-0.021 0.027 0.103
-0.037 0.037 0.107
0.033 -0.013 0.045
-0.003 0.001 0.041
0.027 -0.011 0.061
-0.001 -0.005 0.055
0.015 -0.015 0.081
0.003 -0.009 0.089
-0.011 0.003 0.103
-0.017 -0.003 0.109
0.025 -0.009 0.033
0.041 -0.027 0.053
0.035 -0.013 0.041
0.041 -0.019 0.043
0.037 -0.017 0.047
0.013 -0.003 0.039
0.015 -0.003 0.043
0.029 -0.011 0.043
0.017 -0.023 0.059
0.029 -0.005 0.061
0.021 -0.031 0.075
0.029 -0.033 0.071
0.031 -0.039 0.075
0.033 -0.039 0.079
0.021 -0.009 0.067
0.021 -0.023 0.077
0.013 -0.015 0.079
-0.005 0.023 0.045
-0.009 0.031 0.047
-0.005 0.031 0.045
0.001 0.021 0.037
-0.003 0.003 0.039
-0.003 0.031 0.037
-0.011 0.007 0.063
-0.009 0.019 0.051
-0.013 0.017 0.055
-0.015 0.015 0.097
-0.017 0.015 0.073
-0.005 0.003 0.075
-0.015 0.003 0.085
-0.019 0.025 0.097
-0.021 0.031 0.095
-0.025 0.039 0.097
-0.031 0.049 0.085
-0.015 0.015 0.103
-0.015 0.011 0.105
-0.019 0.003 0.105
0.029 -0.009 0.061
0.001 -0.003 0.063
0.017 -0.017 0.081
0.005 -0.007 0.083
-0.009 -0.005 0.087
0.041 -0.027 0.049
0.039 -0.023 0.053
0.039 -0.023 0.053
0.029 -0.011 0.051
0.027 -0.009 0.039
0.033 -0.013 0.035
0.041 -0.027 0.045
0.037 -0.025 0.059
0.037 -0.023 0.057
0.035 -0.043 0.087
0.003 0.015 0.041
-0.007 0.011 0.057
-0.007 0.003 0.035
0.029 -0.003 0.055
0.001 0.015 0.043
0.001 0.013 0.045
-0.001 0.023 0.035
-0.003 0.021 0.041
-0.009 0.029 0.047
-0.001 0.005 0.061
-0.005 0.007 0.063
-0.023 0.031 0.065
-0.017 0.031 0.057
-0.009 0.041 0.035
-0.017 0.021 0.091
-0.009 0.001 0.093
-0.019 0.025 0.099
-0.023 0.001 0.109
-0.021 0.023 0.103
-0.019 0.003 0.105
-0.013 0.011 0.109
-0.023 0.005 0.115
0.005 0.015 0.035
-0.021 -0.007 0.061
-0.015 -0.013 0.057
-0.005 -0.021 0.089
0.001 -0.015 0.033
-0.005 -0.023 0.045
-0.003 -0.023 0.057
-0.003 -0.025 0.057
-0.003 -0.013 0.045
-0.003 -0.011 0.045
0.001 -0.019 0.063
-0.011 -0.017 0.069
-0.013 -0.017 0.069
-0.013 -0.017 0.075
0.005 -0.033 0.049
0.023 -0.039 0.075
-0.043 0.019 0.051
-0.041 0.011 0.051
-0.021 0.001 0.061
-0.041 0.029 0.051
-0.041 0.023 0.057
-0.039 0.025 0.065
-0.037 0.029 0.067
-0.041 0.023 0.093
-0.033 0.013 0.065
-0.031 0.007 0.079
-0.027 0.003 0.077
-0.039 0.017 0.093
-0.039 0.043 0.091
-0.037 0.037 0.107
-0.021 -0.007 0.049
-0.025 -0.001 0.049
-0.007 -0.033 0.035
-0.031 -0.003 0.037
-0.025 -0.003 0.045
-0.025 -0.005 0.045
-0.031 0.001 0.087
-0.031 0.003 0.083
-0.031 -0.005 0.097
0.001 -0.025 0.035
-0.029 -0.005 0.039
0.001 -0.029 0.063
-0.033 0.003 0.043
-0.027 0.001 0.047
-0.025 -0.003 0.051
-0.027 0.003 0.049
-0.001 -0.017 0.057
-0.021 -0.003 0.057
-0.019 -0.009 0.053
-0.003 -0.023 0.055
0.003 -0.031 0.067
-0.015 -0.013 0.077
-0.015 -0.011 0.077
-0.007 -0.023 0.081
-0.017 -0.007 0.071
-0.017 -0.003 0.071
-0.017 -0.007 0.071
-0.049 0.023 0.039
-0.041 0.025 0.059
-0.029 0.005 0.047
-0.037 0.029 0.035
-0.039 0.031 0.041
-0.037 0.019 0.065
-0.041 0.031 0.053
-0.039 0.035 0.053
-0.033 0.037 0.039
-0.017 0.039 0.037
-0.033 0.037 0.045
-0.033 0.005 0.089
-0.039 0.017 0.093
-0.037 0.021 0.069
-0.033 0.029 0.071
-0.031 0.025 0.075
-0.029 0.029 0.073
-0.037 0.017 0.085
-0.035 0.007 0.095
-0.037 0.019 0.087
-0.045 0.039 0.101
-0.043 0.039 0.099
-0.041 0.037 0.095
-0.037 0.023 0.087
-0.041 0.039 0.105
-0.031 0.021 0.105
-0.025 0.015 0.105
-0.017 -0.007 0.113
-0.037 0.017 0.081
-0.037 0.025 0.087
-0.043 0.033 0.095
-0.041 0.037 0.095
-0.043 0.039 0.099
-0.025 0.031 0.069
-0.031 0.049 0.087
-0.033 0.039 0.105
0.027 -0.003 0.055
0.021 -0.007 0.061
-0.019 0.015 0.105
-0.017 0.015 0.107
-0.031 0.027 0.105
-0.037 0.037 0.107
-0.023 0.007 0.115
-0.017 0.015 0.107
-0.039 0.033 0.041
-0.039 0.019 0.059
-0.037 0.017 0.063
-0.033 0.033 0.065
-0.009 0.031 0.047
-0.023 0.037 0.051
-0.017 0.033 0.055
-0.035 0.037 0.043
-0.037 0.021 0.069
-0.037 0.017 0.087
-0.041 0.023 0.095
-0.039 0.033 0.089
-0.045 0.037 0.101
-0.039 0.025 0.083
-0.037 0.041 0.101
-0.039 0.045 0.089
-0.041 0.045 0.087
-0.043 0.041 0.087
-0.037 0.043 0.093
-0.035 0.047 0.093
-0.031 0.047 0.089
-0.031 0.043 0.091
-0.039 0.023 0.101
-0.021 0.017 0.105
-0.025 0.009 0.113
-0.021 0.019 0.105
-0.037 0.035 0.107
-0.039 0.041 0.105
0.013 0.005 0.039
-0.017 0.033 0.055
-0.013 0.031 0.053
-0.005 -0.033 0.041
-0.003 -0.027 0.079
-0.019 -0.009 0.065
-0.017 -0.013 0.069
-0.011 -0.019 0.081
-0.001 -0.027 0.089
-0.029 -0.007 0.087
-0.029 -0.007 0.089
-0.003 -0.023 0.091
-0.005 -0.013 0.093
0.025 -0.035 0.035
0.001 -0.035 0.037
0.031 -0.035 0.057
0.013 -0.031 0.045
0.017 -0.029 0.043
0.005 -0.033 0.043
0.025 -0.031 0.041
0.027 -0.035 0.059
0.003 -0.031 0.057
0.003 -0.031 0.059
0.041 -0.025 0.043
0.039 -0.031 0.055
0.031 -0.033 0.051
0.029 -0.041 0.073
0.029 -0.043 0.081
0.025 -0.039 0.083
0.017 -0.035 0.081
-0.003 -0.019 0.071
-0.003 -0.019 0.071
0.015 -0.031 0.089
0.007 -0.027 0.093
-0.039 0.009 0.041
-0.035 0.015 0.059
-0.019 -0.003 0.037
-0.011 -0.011 0.051
-0.023 -0.005 0.037
-0.021 -0.007 0.053
-0.027 0.013 0.057
-0.029 0.009 0.067
-0.033 0.007 0.085
-0.033 0.001 0.093
-0.037 0.015 0.095
-0.021 0.005 0.069
-0.027 0.003 0.077
-0.023 0.007 0.067
-0.029 0.009 0.067
-0.031 0.009 0.073
-0.011 0.001 0.101
-0.017 0.005 0.097
-0.005 -0.019 0.049
-0.005 -0.037 0.037
-0.003 -0.035 0.039
-0.017 -0.011 0.057
-0.017 -0.011 0.061
-0.011 -0.011 0.053
0.001 -0.031 0.055
0.005 -0.033 0.059
-0.003 -0.023 0.075
-0.023 -0.001 0.107
-0.019 -0.005 0.107
0.029 -0.035 0.057
0.029 -0.037 0.061
0.021 -0.035 0.035
0.025 -0.031 0.041
0.023 -0.023 0.047
0.029 -0.031 0.047
0.017 -0.023 0.049
0.029 -0.037 0.061
0.019 -0.033 0.063
0.005 -0.033 0.057
0.033 -0.035 0.061
0.029 -0.037 0.061
0.039 -0.029 0.045
0.027 -0.037 0.069
0.025 -0.039 0.071
0.023 -0.039 0.081
0.023 -0.039 0.083
0.009 -0.035 0.073
-0.025 -0.005 0.033
-0.037 0.007 0.041
-0.049 0.015 0.037
-0.025 -0.007 0.037
-0.033 0.015 0.059
-0.023 -0.007 0.047
0.009 -0.035 0.037
-0.009 -0.015 0.061
0.003 -0.031 0.051
-0.017 -0.013 0.063
-0.031 0.009 0.069
-0.025 0.005 0.071
-0.007 -0.015 0.065
-0.005 -0.025 0.087
-0.021 -0.001 0.081
-0.019 -0.001 0.083
-0.009 -0.021 0.083
-0.005 -0.023 0.089
-0.013 -0.015 0.081
-0.025 -0.007 0.095
-0.027 -0.001 0.099
-0.019 -0.001 0.097
-0.027 -0.007 0.101
-0.019 0.005 0.101
-0.021 0.001 0.099
-0.021 0.003 0.103
-0.027 -0.005 0.099
-0.041 0.027 0.037
-0.033 0.037 0.051
-0.033 0.033 0.065
-0.033 0.033 0.065
-0.037 0.033 0.063
-0.043 0.039 0.081
-0.031 0.021 0.077
-0.035 0.023 0.073
-0.031 0.027 0.073
-0.041 0.039 0.081
-0.043 0.045 0.083
-0.035 0.007 0.093
-0.043 0.033 0.097
-0.043 0.045 0.085
-0.035 0.047 0.085
-0.027 0.031 0.069
-0.031 0.037 0.047
-0.019 0.035 0.047
-0.009 0.035 0.045
-0.011 0.037 0.045
-0.023 0.037 0.051
0.021 -0.003 0.039
0.019 -0.009 0.063
0.013 -0.015 0.061
0.021 -0.005 0.055
0.021 -0.005 0.049
0.027 -0.003 0.047
-0.029 0.029 0.073
-0.029 0.029 0.071
0.017 -0.017 0.071
0.013 -0.015 0.079
0.015 -0.017 0.079
-0.027 0.047 0.085
0.001 -0.001 0.077
-0.045 0.027 0.037
-0.041 0.017 0.043
-0.045 0.027 0.037
-0.041 0.027 0.041
-0.039 0.027 0.037
-0.029 0.037 0.041
-0.017 0.039 0.039
-0.019 0.033 0.055
-0.031 0.031 0.069
-0.031 0.025 0.075
-0.027 0.029 0.073
-0.039 0.047 0.087
-0.029 0.039 0.095
-0.033 0.043 0.083
-0.031 0.049 0.087
-0.041 0.037 0.095
-0.033 0.045 0.091
-0.037 0.045 0.089
-0.033 0.045 0.091
-0.035 0.003 0.107
-0.039 0.023 0.103
-0.035 0.015 0.105
-0.023 0.011 0.109
-0.037 0.041 0.103
-0.025 0.039 0.097
