-0.043 0.027 0.037
-0.039 0.033 0.047
-0.037 0.035 0.047
-0.039 0.035 0.053
-0.041 0.031 0.049
-0.039 0.033 0.049
-0.039 0.035 0.051
-0.037 0.037 0.049
-0.039 0.035 0.051
-0.035 0.037 0.049
-0.037 0.035 0.053
-0.035 0.035 0.057
-0.037 0.035 0.051
-0.035 0.037 0.051
-0.041 0.029 0.047
-0.039 0.035 0.051
-0.041 0.031 0.051
-0.039 0.035 0.053
-0.031 0.039 0.049
-0.033 0.037 0.043
-0.033 0.037 0.043
-0.035 0.037 0.045
-0.035 0.037 0.049
-0.031 0.037 0.053
-0.027 0.037 0.053
-0.035 0.035 0.059
-0.033 0.035 0.063
-0.031 0.037 0.059
-0.031 0.033 0.067
-0.031 0.033 0.065
-0.029 0.033 0.065
-0.037 0.031 0.065
-0.037 0.035 0.059
-0.031 0.037 0.059
-0.029 0.035 0.061
-0.027 0.037 0.059
-0.033 0.035 0.063
-0.031 0.025 0.075
-0.031 0.025 0.075
-0.039 0.045 0.085
-0.043 0.045 0.085
-0.035 0.033 0.081
-0.029 0.023 0.077
-0.043 0.045 0.085
-0.035 0.025 0.071
-0.035 0.027 0.071
-0.025 0.029 0.071
-0.023 0.029 0.071
-0.025 0.027 0.073
-0.023 0.027 0.073
-0.041 0.039 0.081
-0.029 0.023 0.077
-0.035 0.041 0.083
-0.039 0.041 0.091
-0.043 0.043 0.087
-0.043 0.043 0.087
-0.041 0.045 0.087
-0.041 0.043 0.089
-0.041 0.043 0.089
-0.025 0.021 0.093
-0.041 0.039 0.089
-0.041 0.043 0.089
-0.039 0.043 0.091
-0.041 0.023 0.093
-0.041 0.027 0.093
-0.041 0.031 0.093
-0.043 0.035 0.095
-0.043 0.045 0.085
-0.041 0.045 0.087
-0.035 0.047 0.093
-0.037 0.013 0.099
-0.037 0.013 0.097
-0.045 0.037 0.101
-0.027 0.009 0.111
-0.025 0.011 0.111
-0.025 0.011 0.109
-0.023 0.009 0.113
-0.027 0.037 0.047
-0.019 0.035 0.045
-0.021 0.037 0.043
-0.011 0.037 0.045
-0.015 0.039 0.043
-0.015 0.039 0.043
-0.009 0.043 0.043
-0.021 0.037 0.043
-0.015 0.039 0.043
-0.033 0.037 0.053
-0.029 0.039 0.049
-0.027 0.037 0.051
-0.033 0.037 0.057
-0.031 0.037 0.055
-0.019 0.033 0.051
-0.029 0.031 0.069
0.013 -0.015 0.065
0.013 -0.015 0.063
0.015 -0.005 0.051
0.019 -0.009 0.063
0.019 -0.009 0.065
0.021 -0.009 0.067
-0.033 0.037 0.049
-0.033 0.037 0.049
-0.033 0.037 0.051
-0.029 0.039 0.047
-0.029 0.039 0.045
-0.033 0.037 0.049
-0.019 0.035 0.045
-0.017 0.033 0.047
-0.033 0.035 0.059
-0.023 0.035 0.055
-0.011 0.033 0.045
-0.007 0.031 0.047
0.017 -0.003 0.039
-0.015 0.035 0.045
-0.009 0.027 0.051
0.013 -0.003 0.045
0.015 -0.005 0.049
0.015 -0.005 0.049
0.013 -0.005 0.047
0.015 -0.003 0.047
0.013 -0.005 0.049
-0.023 0.037 0.045
-0.025 0.037 0.047
-0.015 0.039 0.043
-0.011 0.037 0.045
-0.013 0.037 0.043
-0.025 0.037 0.051
-0.023 0.035 0.055
-0.013 0.031 0.049
-0.007 0.031 0.047
0.013 -0.003 0.045
-0.013 0.041 0.043
-0.007 0.037 0.045
0.013 0.005 0.039
0.021 -0.001 0.035
-0.007 0.041 0.043
-0.007 0.031 0.047
0.017 -0.003 0.039
0.013 -0.003 0.045
0.025 -0.003 0.045
0.021 -0.003 0.045
0.023 -0.003 0.049
0.019 -0.003 0.047
0.015 -0.003 0.047
0.025 -0.003 0.045
-0.035 0.035 0.059
-0.029 0.035 0.061
-0.001 0.005 0.057
-0.031 0.033 0.067
-0.027 0.033 0.067
0.013 -0.015 0.059
0.027 -0.025 0.055
-0.001 0.005 0.055
0.017 -0.007 0.053
0.021 -0.005 0.055
0.021 -0.009 0.057
0.013 -0.015 0.061
-0.003 0.007 0.061
-0.005 0.005 0.065
0.013 -0.015 0.065
0.013 -0.015 0.057
0.013 -0.015 0.063
-0.027 0.035 0.061
0.011 -0.005 0.049
0.011 -0.013 0.055
0.013 -0.005 0.049
0.015 -0.005 0.051
-0.021 0.029 0.067
-0.005 0.009 0.059
0.019 -0.009 0.055
0.027 -0.003 0.053
0.021 -0.005 0.051
0.021 -0.005 0.055
0.029 -0.003 0.051
0.027 -0.003 0.055
0.019 -0.009 0.061
0.019 -0.009 0.061
0.021 -0.009 0.063
0.023 -0.009 0.063
0.021 -0.007 0.061
0.029 -0.005 0.059
0.023 -0.005 0.061
0.017 -0.003 0.039
0.033 -0.013 0.035
0.023 -0.003 0.047
0.027 -0.003 0.047
0.027 -0.003 0.051
0.023 -0.003 0.049
0.035 -0.013 0.043
0.033 -0.013 0.035
0.033 -0.013 0.039
0.025 -0.003 0.049
0.023 -0.005 0.055
0.025 -0.003 0.055
0.027 -0.003 0.055
0.027 -0.003 0.053
0.023 -0.005 0.061
0.023 -0.005 0.059
0.021 -0.009 0.065
0.023 -0.005 0.061
-0.029 0.029 0.073
-0.019 0.019 0.079
-0.003 0.003 0.069
-0.005 0.003 0.075
0.017 -0.011 0.069
0.017 -0.013 0.071
-0.029 0.047 0.085
-0.027 0.047 0.085
0.015 -0.017 0.075
0.013 -0.015 0.079
-0.039 0.047 0.087
-0.039 0.049 0.091
-0.035 0.047 0.091
-0.031 0.043 0.091
0.007 -0.009 0.085
0.013 -0.015 0.087
0.017 -0.011 0.069
-0.027 0.025 0.075
-0.027 0.029 0.071
-0.027 0.029 0.073
-0.027 0.047 0.083
0.005 -0.005 0.077
0.013 -0.017 0.067
0.015 -0.017 0.067
0.003 -0.003 0.073
0.019 -0.011 0.069
0.017 -0.017 0.065
0.017 -0.017 0.071
0.003 -0.003 0.075
0.013 -0.017 0.073
-0.027 0.047 0.085
0.009 -0.011 0.081
0.015 -0.017 0.079
0.017 -0.017 0.075
0.017 -0.017 0.077
0.015 -0.017 0.079
-0.019 0.025 0.069
-0.003 0.001 0.075
-0.029 0.047 0.083
-0.027 0.047 0.085
0.003 -0.003 0.077
0.017 -0.011 0.067
0.017 -0.011 0.065
0.021 -0.009 0.065
0.021 -0.009 0.067
0.017 -0.011 0.071
0.019 -0.013 0.073
-0.039 0.049 0.091
-0.039 0.049 0.093
-0.039 0.049 0.093
-0.029 0.033 0.095
-0.029 0.039 0.095
-0.027 0.039 0.095
-0.031 0.041 0.097
-0.029 0.039 0.095
0.009 -0.011 0.083
0.003 -0.007 0.087
0.015 -0.015 0.081
0.011 -0.013 0.085
-0.029 0.047 0.085
0.003 -0.005 0.083
-0.031 0.049 0.085
-0.023 0.029 0.093
-0.015 0.019 0.091
0.003 -0.011 0.091
0.007 -0.011 0.089
-0.039 0.027 0.037
-0.041 0.025 0.035
-0.035 0.035 0.039
-0.035 0.033 0.037
-0.035 0.031 0.035
-0.029 0.037 0.039
-0.033 0.031 0.033
-0.031 0.031 0.033
-0.027 0.033 0.035
-0.033 0.031 0.033
-0.027 0.033 0.033
-0.013 0.039 0.031
-0.047 0.025 0.039
-0.043 0.027 0.037
-0.041 0.021 0.041
-0.047 0.025 0.039
-0.045 0.025 0.039
-0.041 0.025 0.049
-0.041 0.021 0.049
-0.041 0.017 0.045
-0.041 0.019 0.047
-0.051 0.021 0.035
-0.049 0.027 0.035
-0.043 0.027 0.039
-0.035 0.025 0.033
-0.037 0.029 0.035
-0.035 0.031 0.035
-0.037 0.031 0.037
-0.041 0.019 0.053
-0.041 0.023 0.051
-0.041 0.027 0.049
-0.041 0.027 0.055
-0.041 0.027 0.059
-0.041 0.027 0.057
-0.039 0.027 0.063
-0.039 0.025 0.063
-0.037 0.033 0.063
-0.035 0.035 0.039
-0.035 0.033 0.037
-0.035 0.035 0.039
-0.041 0.025 0.045
-0.041 0.025 0.047
-0.033 0.037 0.043
-0.025 0.037 0.041
-0.027 0.037 0.045
-0.025 0.037 0.039
-0.021 0.035 0.039
-0.023 0.037 0.047
-0.019 0.035 0.047
-0.013 0.031 0.049
-0.015 0.031 0.051
-0.033 0.033 0.035
-0.019 0.037 0.039
-0.019 0.035 0.035
-0.019 0.037 0.041
-0.017 0.039 0.041
-0.019 0.037 0.039
-0.013 0.041 0.041
-0.017 0.039 0.039
-0.013 0.041 0.037
-0.013 0.033 0.047
-0.041 0.031 0.055
-0.039 0.033 0.057
-0.041 0.031 0.055
-0.039 0.033 0.055
-0.037 0.035 0.057
-0.037 0.035 0.057
-0.033 0.035 0.063
-0.031 0.033 0.065
-0.019 0.033 0.055
-0.023 0.033 0.059
-0.017 0.033 0.055
-0.015 0.031 0.055
-0.005 0.009 0.059
-0.005 0.007 0.063
-0.021 0.033 0.059
-0.025 0.033 0.065
-0.029 0.037 0.059
-0.019 0.033 0.055
-0.031 0.035 0.061
-0.025 0.035 0.059
-0.025 0.033 0.063
-0.025 0.033 0.065
-0.025 0.033 0.065
-0.019 0.031 0.057
-0.021 0.035 0.053
-0.023 0.037 0.053
-0.025 0.035 0.057
-0.015 0.031 0.053
-0.017 0.031 0.057
-0.039 0.035 0.049
-0.035 0.037 0.049
-0.037 0.033 0.061
-0.025 0.035 0.035
-0.027 0.037 0.043
-0.019 0.037 0.041
-0.019 0.037 0.041
-0.013 0.041 0.039
-0.009 0.041 0.035
-0.011 0.043 0.039
-0.013 0.035 0.045
-0.009 0.039 0.045
-0.011 0.043 0.043
-0.009 0.043 0.043
-0.013 0.041 0.041
-0.009 0.043 0.041
-0.011 0.043 0.043
-0.009 0.043 0.043
-0.021 0.035 0.053
-0.039 0.023 0.065
-0.035 0.019 0.073
-0.033 0.017 0.075
-0.037 0.023 0.067
-0.035 0.029 0.069
-0.035 0.023 0.073
-0.033 0.025 0.073
-0.039 0.025 0.083
-0.039 0.027 0.083
-0.037 0.019 0.085
-0.037 0.019 0.087
-0.035 0.007 0.093
-0.041 0.023 0.093
-0.041 0.029 0.093
-0.043 0.039 0.087
-0.041 0.043 0.089
-0.039 0.025 0.091
-0.041 0.043 0.089
-0.041 0.043 0.089
-0.033 0.025 0.073
-0.031 0.027 0.073
-0.037 0.027 0.067
-0.037 0.029 0.067
-0.035 0.021 0.071
-0.033 0.031 0.069
-0.043 0.039 0.083
-0.025 0.025 0.075
-0.025 0.031 0.069
-0.003 0.005 0.065
-0.003 0.003 0.069
-0.029 0.025 0.075
-0.031 0.045 0.083
-0.025 0.041 0.081
-0.029 0.033 0.067
-0.025 0.031 0.067
-0.023 0.029 0.071
-0.031 0.021 0.077
-0.019 0.023 0.073
-0.021 0.025 0.073
-0.031 0.027 0.073
-0.027 0.029 0.073
-0.027 0.025 0.075
-0.043 0.037 0.083
-0.043 0.039 0.087
-0.043 0.045 0.085
-0.043 0.043 0.087
-0.035 0.011 0.089
-0.029 0.039 0.095
-0.031 0.049 0.085
-0.035 0.047 0.091
-0.039 0.049 0.093
-0.031 0.029 0.095
-0.029 0.031 0.095
-0.029 0.043 0.089
-0.033 0.047 0.089
-0.027 0.039 0.095
-0.029 0.041 0.097
-0.043 0.039 0.081
-0.043 0.045 0.085
-0.043 0.043 0.087
-0.043 0.045 0.083
-0.043 0.043 0.087
-0.043 0.043 0.087
-0.043 0.045 0.085
-0.039 0.045 0.085
-0.039 0.047 0.087
-0.035 0.047 0.085
-0.035 0.047 0.085
-0.041 0.043 0.089
-0.039 0.045 0.089
-0.039 0.049 0.091
-0.039 0.049 0.091
-0.035 0.047 0.089
-0.039 0.049 0.093
-0.031 0.033 0.065
-0.031 0.049 0.085
-0.031 0.049 0.085
-0.035 0.007 0.099
-0.037 0.017 0.103
-0.039 0.023 0.103
-0.043 0.037 0.103
-0.043 0.041 0.103
-0.043 0.039 0.099
-0.039 0.039 0.097
-0.043 0.041 0.101
-0.043 0.041 0.103
-0.039 0.023 0.103
-0.043 0.041 0.103
-0.033 0.043 0.103
-0.027 0.011 0.109
-0.027 0.011 0.109
-0.027 0.009 0.111
-0.037 0.037 0.107
-0.037 0.037 0.107
-0.025 0.011 0.109
-0.033 0.021 0.105
-0.039 0.041 0.105
-0.035 0.043 0.105
-0.023 0.011 0.109
-0.031 0.041 0.099
-0.029 0.041 0.099
-0.031 0.041 0.099
-0.033 0.043 0.101
-0.033 0.043 0.103
-0.033 0.043 0.105
-0.031 0.041 0.097
-0.031 0.043 0.103
-0.033 0.043 0.103
-0.033 0.041 0.099
-0.037 0.041 0.101
-0.035 0.043 0.103
-0.029 0.041 0.097
-0.031 0.043 0.101
-0.041 0.039 0.105
-0.039 0.041 0.105
-0.035 0.043 0.105
-0.037 0.041 0.105
-0.029 0.041 0.099
-0.041 0.039 0.099
-0.045 0.039 0.101
-0.043 0.041 0.101
-0.041 0.039 0.099
-0.043 0.041 0.103
-0.033 0.043 0.101
-0.031 0.043 0.101
-0.031 0.043 0.101
-0.013 0.035 0.045
-0.009 0.043 0.043
-0.011 0.037 0.045
-0.013 0.041 0.043
-0.009 0.031 0.047
-0.013 0.031 0.049
-0.009 0.043 0.043
-0.013 0.041 0.039
-0.013 0.041 0.043
-0.001 0.003 0.063
-0.001 0.003 0.067
0.001 0.001 0.071
