-0.013 0.039 0.043
0.007 -0.005 0.045
0.007 -0.005 0.043
0.003 -0.009 0.047
-0.001 -0.001 0.047
0.001 -0.011 0.049
-0.003 -0.013 0.043
-0.015 0.031 0.049
-0.007 0.025 0.049
-0.011 0.027 0.053
-0.001 -0.013 0.035
-0.007 0.023 0.049
-0.003 0.013 0.045
-0.007 0.015 0.051
0.003 -0.013 0.055
0.001 -0.005 0.061
-0.019 0.013 0.057
-0.017 0.007 0.061
-0.001 -0.011 0.051
-0.001 0.003 0.049
-0.005 0.007 0.063
-0.009 0.007 0.065
0.001 0.001 0.063
0.001 -0.001 0.075
-0.003 -0.001 0.081
0.005 -0.009 0.087
-0.005 -0.009 0.091
-0.017 0.023 0.097
-0.007 -0.007 0.087
-0.009 -0.007 0.089
-0.007 0.001 0.095
-0.019 0.021 0.101
-0.017 0.011 0.107
0.013 -0.001 0.037
0.009 0.003 0.037
0.011 0.005 0.037
0.017 0.003 0.037
0.017 0.005 0.037
0.023 -0.003 0.039
0.031 -0.013 0.033
0.011 -0.005 0.049
0.011 -0.013 0.051
0.015 -0.005 0.049
0.017 -0.005 0.051
0.029 -0.011 0.043
0.029 -0.025 0.061
0.039 -0.025 0.057
0.021 -0.003 0.041
0.007 -0.005 0.043
0.009 -0.011 0.051
0.019 -0.005 0.051
0.019 -0.005 0.051
0.027 -0.003 0.045
0.029 -0.003 0.049
0.011 0.005 0.037
0.013 0.007 0.037
0.017 0.005 0.035
0.013 0.007 0.037
0.011 0.003 0.039
0.013 0.005 0.039
0.015 0.003 0.037
0.007 -0.005 0.047
0.025 -0.005 0.039
0.023 -0.003 0.037
0.023 -0.003 0.037
0.025 -0.003 0.035
0.029 -0.005 0.045
0.029 -0.003 0.049
0.017 -0.003 0.045
0.019 -0.003 0.047
0.021 -0.003 0.045
0.027 -0.003 0.045
0.015 -0.017 0.059
0.005 -0.015 0.063
0.031 -0.005 0.053
0.029 -0.025 0.057
0.029 -0.025 0.061
0.031 -0.025 0.061
0.009 -0.013 0.055
0.011 -0.015 0.061
0.013 -0.015 0.063
0.027 -0.003 0.055
0.021 -0.005 0.053
0.023 -0.005 0.053
0.023 -0.005 0.061
0.035 -0.015 0.035
0.041 -0.023 0.047
0.039 -0.025 0.057
0.033 -0.023 0.059
0.009 -0.013 0.077
0.017 -0.017 0.077
0.015 -0.017 0.079
0.023 -0.031 0.071
0.027 -0.031 0.071
0.027 -0.031 0.071
0.027 -0.033 0.079
0.021 -0.023 0.079
0.027 -0.035 0.075
0.027 -0.035 0.075
0.027 -0.033 0.079
0.017 -0.029 0.085
0.029 -0.035 0.087
0.025 -0.033 0.085
0.025 -0.033 0.087
0.035 -0.039 0.085
0.033 -0.037 0.081
0.005 -0.019 0.071
0.005 -0.019 0.067
0.005 -0.005 0.077
0.005 -0.007 0.079
0.031 -0.027 0.065
0.019 -0.011 0.071
0.021 -0.025 0.073
0.001 -0.005 0.065
0.003 -0.003 0.073
0.017 -0.011 0.067
0.019 -0.011 0.067
0.005 -0.013 0.091
0.015 -0.021 0.089
0.003 -0.017 0.093
0.001 -0.017 0.095
0.017 -0.021 0.085
0.007 -0.009 0.081
0.001 -0.003 0.081
0.001 -0.011 0.091
-0.013 0.041 0.043
-0.009 0.043 0.043
-0.023 0.033 0.035
-0.015 0.041 0.037
-0.017 0.037 0.031
-0.025 0.037 0.043
-0.025 0.037 0.055
-0.025 0.037 0.055
-0.045 0.025 0.039
-0.035 0.037 0.043
-0.033 0.037 0.039
-0.029 0.037 0.041
-0.043 0.027 0.039
-0.031 0.035 0.037
-0.033 0.037 0.041
-0.033 0.035 0.061
-0.037 0.033 0.061
-0.039 0.033 0.057
-0.037 0.033 0.063
-0.037 0.033 0.063
-0.017 0.037 0.043
-0.013 0.041 0.043
-0.019 0.033 0.051
-0.021 0.035 0.053
-0.005 0.033 0.043
0.001 0.021 0.037
-0.001 0.019 0.041
-0.005 0.023 0.047
-0.001 0.013 0.045
-0.017 0.039 0.041
-0.019 0.037 0.039
-0.009 0.043 0.041
-0.007 0.041 0.043
-0.005 0.035 0.037
-0.005 0.023 0.045
-0.007 0.033 0.045
-0.019 0.031 0.059
-0.023 0.031 0.065
-0.003 0.011 0.051
-0.001 0.005 0.055
-0.001 0.007 0.053
-0.013 0.007 0.063
-0.009 0.009 0.061
-0.003 0.007 0.059
-0.005 0.007 0.063
-0.003 0.007 0.061
-0.017 0.033 0.055
-0.015 0.027 0.057
-0.021 0.031 0.063
-0.009 0.027 0.049
-0.013 0.031 0.049
-0.015 0.031 0.049
-0.035 0.035 0.059
-0.029 0.039 0.047
-0.023 0.037 0.041
-0.011 0.037 0.045
-0.009 0.039 0.045
-0.029 0.039 0.049
-0.031 0.037 0.055
-0.029 0.037 0.055
-0.031 0.035 0.063
-0.029 0.025 0.075
-0.025 0.035 0.087
-0.023 0.037 0.099
-0.027 0.037 0.089
-0.029 0.047 0.085
-0.029 0.041 0.089
-0.031 0.025 0.089
-0.029 0.041 0.097
-0.029 0.041 0.097
-0.019 0.021 0.077
-0.015 0.013 0.079
-0.015 0.015 0.075
-0.007 0.005 0.071
-0.005 0.003 0.075
-0.019 0.021 0.065
-0.019 0.023 0.065
-0.025 0.031 0.067
-0.027 0.023 0.077
-0.019 0.019 0.079
-0.021 0.023 0.077
-0.027 0.025 0.075
-0.019 0.025 0.091
-0.015 0.019 0.087
-0.021 0.027 0.093
-0.013 0.013 0.093
-0.013 0.013 0.089
-0.009 0.005 0.091
-0.011 0.011 0.093
-0.013 0.015 0.095
-0.025 0.035 0.087
-0.025 0.037 0.087
-0.023 0.033 0.087
-0.017 0.021 0.083
-0.025 0.041 0.085
-0.025 0.037 0.087
-0.025 0.037 0.095
-0.019 0.025 0.091
-0.017 0.021 0.091
-0.023 0.031 0.089
-0.015 0.017 0.083
-0.031 0.049 0.085
-0.035 0.047 0.085
-0.037 0.047 0.085
-0.033 0.045 0.091
-0.025 0.041 0.085
-0.031 0.049 0.087
-0.025 0.033 0.089
-0.027 0.029 0.103
-0.031 0.015 0.105
-0.029 0.043 0.101
-0.015 0.017 0.101
-0.023 0.021 0.105
-0.027 0.023 0.105
-0.027 0.023 0.105
-0.023 0.011 0.107
-0.009 0.005 0.097
-0.013 0.013 0.097
-0.015 0.017 0.105
-0.017 0.019 0.099
-0.027 0.029 0.103
-0.025 0.029 0.103
-0.019 0.025 0.099
-0.015 0.017 0.105
-0.023 0.007 0.113
-0.043 0.037 0.097
-0.041 0.039 0.099
-0.031 0.043 0.101
-0.027 0.039 0.097
-0.027 0.041 0.101
-0.025 0.039 0.101
-0.029 0.041 0.099
0.013 0.007 0.037
0.001 0.001 0.071
-0.005 -0.037 0.037
-0.001 -0.033 0.041
0.005 -0.033 0.043
0.007 -0.033 0.047
-0.005 -0.029 0.043
0.003 -0.031 0.051
0.003 -0.031 0.053
-0.021 -0.005 0.037
-0.015 -0.009 0.047
0.001 -0.031 0.055
0.005 -0.033 0.063
0.003 -0.033 0.065
-0.015 -0.011 0.053
-0.013 -0.015 0.063
-0.011 -0.013 0.057
0.009 -0.035 0.065
0.015 -0.035 0.067
0.013 -0.037 0.075
0.013 -0.037 0.075
0.009 -0.035 0.081
-0.007 -0.021 0.075
-0.009 -0.021 0.075
-0.001 -0.029 0.081
-0.009 -0.017 0.067
0.009 -0.035 0.077
-0.003 -0.027 0.087
0.013 -0.031 0.089
0.001 -0.031 0.085
-0.003 -0.027 0.087
-0.027 -0.007 0.089
-0.017 -0.001 0.087
-0.025 -0.003 0.095
-0.003 -0.025 0.089
0.001 -0.023 0.093
0.001 -0.023 0.093
-0.001 -0.017 0.095
-0.025 -0.007 0.097
-0.015 -0.013 0.113
-0.015 -0.013 0.113
0.025 -0.035 0.031
0.027 -0.035 0.033
0.035 -0.025 0.035
0.033 -0.033 0.045
0.037 -0.025 0.037
0.005 -0.035 0.039
0.015 -0.035 0.033
0.003 -0.033 0.043
0.029 -0.037 0.061
0.035 -0.035 0.055
0.015 -0.035 0.037
0.011 -0.033 0.041
0.017 -0.031 0.041
0.019 -0.029 0.041
0.013 -0.031 0.043
0.031 -0.031 0.037
0.023 -0.029 0.043
0.037 -0.029 0.041
0.027 -0.031 0.043
0.021 -0.023 0.045
0.015 -0.027 0.045
0.015 -0.025 0.047
0.019 -0.025 0.043
0.019 -0.023 0.047
0.011 -0.029 0.053
0.031 -0.037 0.063
0.031 -0.033 0.049
0.033 -0.035 0.053
0.037 -0.033 0.053
0.029 -0.031 0.047
0.035 -0.035 0.059
0.039 -0.031 0.055
0.005 -0.033 0.057
0.013 -0.029 0.053
0.003 -0.033 0.065
0.009 -0.035 0.067
0.031 -0.037 0.059
0.031 -0.037 0.061
0.033 -0.035 0.057
0.035 -0.033 0.061
0.027 -0.037 0.063
0.029 -0.037 0.067
0.013 -0.035 0.065
0.023 -0.037 0.065
0.025 -0.039 0.069
0.025 -0.037 0.067
0.023 -0.039 0.073
0.031 -0.035 0.067
0.031 -0.011 0.057
0.033 -0.033 0.067
0.037 -0.043 0.079
0.037 -0.025 0.035
0.039 -0.029 0.043
0.039 -0.031 0.057
0.017 -0.035 0.067
0.011 -0.037 0.075
0.013 -0.037 0.075
0.029 -0.037 0.069
0.031 -0.043 0.075
0.029 -0.043 0.081
0.027 -0.041 0.083
0.035 -0.043 0.077
0.035 -0.043 0.085
0.007 -0.035 0.079
0.007 -0.035 0.077
0.007 -0.033 0.081
0.029 -0.043 0.079
0.031 -0.029 0.067
0.031 -0.043 0.083
0.017 -0.033 0.083
0.017 -0.033 0.085
0.017 -0.033 0.087
0.023 -0.011 0.067
0.005 -0.031 0.087
0.007 -0.033 0.087
0.009 -0.027 0.093
0.015 -0.027 0.089
0.011 -0.029 0.093
0.011 -0.023 0.091
0.027 -0.039 0.087
0.017 -0.031 0.087
0.015 -0.027 0.089
0.015 -0.021 0.089
0.013 -0.027 0.091
0.011 -0.019 0.091
0.033 -0.031 0.065
-0.015 -0.007 0.045
-0.001 -0.029 0.053
0.007 -0.035 0.065
0.013 -0.035 0.065
-0.033 -0.001 0.037
-0.045 0.015 0.039
-0.025 -0.005 0.041
-0.035 0.007 0.049
-0.033 0.005 0.045
-0.015 -0.011 0.051
-0.023 -0.005 0.049
-0.015 -0.011 0.055
-0.011 -0.015 0.063
-0.013 -0.015 0.065
-0.035 0.013 0.055
-0.035 0.015 0.057
-0.035 0.015 0.057
-0.033 0.015 0.057
-0.029 0.009 0.065
-0.019 -0.007 0.043
-0.017 -0.011 0.053
-0.015 -0.013 0.057
0.013 -0.033 0.059
0.013 -0.031 0.057
0.019 -0.029 0.057
0.017 -0.031 0.059
0.017 -0.031 0.059
0.019 -0.033 0.063
0.015 -0.035 0.067
0.017 -0.035 0.067
0.021 -0.037 0.071
0.023 -0.039 0.071
0.011 -0.035 0.065
0.013 -0.035 0.067
0.015 -0.035 0.069
0.019 -0.035 0.069
0.023 -0.039 0.073
0.025 -0.041 0.079
0.029 -0.043 0.077
0.003 -0.033 0.077
-0.011 -0.019 0.075
0.001 -0.031 0.081
-0.003 -0.027 0.079
0.005 -0.033 0.085
0.023 -0.041 0.079
0.011 -0.033 0.087
0.015 -0.035 0.079
0.019 -0.035 0.081
-0.001 -0.029 0.081
-0.005 -0.025 0.081
-0.001 -0.029 0.085
-0.001 -0.027 0.089
0.023 -0.041 0.077
0.023 -0.041 0.079
0.011 -0.035 0.081
0.017 -0.035 0.077
0.017 -0.035 0.077
0.029 -0.043 0.077
0.029 -0.043 0.081
0.009 -0.031 0.089
0.011 -0.033 0.087
-0.025 0.003 0.075
-0.021 -0.001 0.083
-0.025 -0.007 0.097
-0.025 -0.003 0.095
-0.021 -0.001 0.093
-0.017 -0.009 0.109
-0.017 -0.009 0.109
-0.015 -0.013 0.079
-0.023 0.001 0.077
-0.025 0.001 0.079
-0.001 -0.027 0.089
-0.001 -0.027 0.087
0.001 -0.027 0.089
0.017 -0.033 0.085
0.001 -0.027 0.089
0.009 -0.029 0.091
-0.003 -0.019 0.091
0.009 -0.029 0.091
-0.005 -0.017 0.091
0.003 -0.023 0.095
-0.009 -0.013 0.089
0.001 -0.021 0.095
-0.009 -0.001 0.097
-0.009 0.003 0.097
-0.009 0.003 0.097
-0.009 0.003 0.089
-0.007 0.001 0.095
-0.007 0.001 0.095
-0.009 0.005 0.097
-0.011 0.011 0.089
-0.019 0.001 0.099
-0.017 0.003 0.093
-0.019 -0.001 0.097
-0.019 0.005 0.101
-0.013 -0.011 0.111
-0.009 -0.001 0.097
-0.009 -0.001 0.103
-0.013 0.015 0.095
-0.009 0.005 0.101
-0.029 0.001 0.103
-0.033 0.001 0.107
-0.027 0.005 0.103
-0.015 -0.011 0.113
-0.013 -0.011 0.113
-0.015 -0.005 0.109
-0.029 0.001 0.103
-0.019 0.005 0.101
-0.017 0.009 0.103
-0.015 -0.007 0.113
-0.019 0.013 0.105
-0.021 0.005 0.109
-0.009 -0.001 0.101
-0.015 0.011 0.105
-0.017 0.011 0.105
-0.019 0.027 0.097
-0.013 0.011 0.109
-0.025 0.005 0.113
-0.013 -0.011 0.113
-0.015 -0.007 0.113
-0.033 0.037 0.107
-0.015 0.009 0.109
-0.013 0.013 0.107
-0.015 0.009 0.109
-0.013 0.011 0.109
0.027 -0.037 0.061
0.035 -0.035 0.059
0.031 -0.037 0.061
