-0.033 -0.035 0.061
-0.033 -0.033 0.067
-0.021 -0.039 0.051
-0.017 -0.037 0.047
-0.015 -0.035 0.047
-0.013 -0.033 0.045
-0.011 -0.029 0.043
-0.033 -0.037 0.059
-0.033 -0.037 0.059
-0.029 -0.039 0.051
-0.027 -0.041 0.051
-0.015 -0.037 0.041
-0.025 -0.039 0.055
-0.023 -0.041 0.051
-0.031 -0.037 0.059
-0.033 -0.029 0.071
-0.031 -0.029 0.069
-0.031 -0.027 0.073
-0.033 -0.027 0.073
-0.031 -0.021 0.075
-0.037 -0.031 0.065
-0.033 -0.027 0.083
-0.031 -0.021 0.075
-0.031 -0.021 0.075
-0.031 -0.021 0.075
-0.031 -0.017 0.085
-0.029 -0.039 0.055
-0.031 -0.039 0.057
-0.017 -0.031 0.049
-0.019 -0.027 0.047
-0.021 -0.023 0.047
-0.019 -0.021 0.047
-0.027 -0.037 0.061
-0.025 -0.035 0.061
-0.017 -0.029 0.047
-0.021 -0.031 0.053
-0.019 -0.025 0.047
-0.025 -0.033 0.061
-0.025 -0.031 0.061
-0.025 -0.031 0.061
-0.019 -0.021 0.047
-0.021 -0.017 0.049
-0.019 -0.021 0.047
-0.009 -0.031 0.051
-0.009 -0.031 0.049
-0.003 -0.027 0.033
-0.009 -0.031 0.055
-0.015 -0.023 0.045
-0.007 -0.031 0.055
-0.007 -0.031 0.057
-0.005 -0.031 0.051
-0.003 -0.029 0.053
-0.011 -0.029 0.059
-0.005 -0.029 0.061
-0.005 -0.029 0.061
-0.003 -0.029 0.055
-0.029 -0.031 0.067
-0.019 -0.019 0.047
-0.017 -0.019 0.047
-0.029 -0.021 0.071
-0.027 -0.019 0.061
-0.029 -0.021 0.073
-0.021 -0.019 0.069
-0.029 -0.029 0.067
-0.025 -0.021 0.067
-0.019 -0.015 0.049
-0.029 -0.021 0.069
-0.029 -0.021 0.069
-0.009 -0.025 0.065
-0.007 -0.027 0.061
-0.005 -0.023 0.061
-0.009 -0.023 0.065
-0.009 -0.021 0.067
-0.011 -0.021 0.071
-0.001 -0.007 0.039
-0.015 -0.015 0.049
-0.005 -0.025 0.059
-0.003 -0.015 0.047
-0.009 -0.003 0.049
-0.029 -0.035 0.063
-0.019 -0.033 0.053
-0.019 -0.031 0.051
-0.027 -0.019 0.057
-0.027 -0.021 0.065
-0.025 -0.033 0.061
-0.031 -0.025 0.073
-0.027 -0.021 0.065
-0.029 -0.025 0.069
-0.025 -0.021 0.069
-0.021 -0.019 0.063
-0.011 -0.031 0.057
-0.011 -0.029 0.059
-0.011 -0.029 0.059
-0.003 -0.029 0.053
-0.009 -0.025 0.065
-0.009 -0.025 0.065
-0.003 -0.025 0.055
-0.013 -0.025 0.063
-0.013 -0.025 0.063
-0.011 -0.025 0.065
-0.013 -0.025 0.063
-0.007 -0.023 0.061
-0.029 -0.021 0.071
-0.027 -0.021 0.069
-0.023 -0.017 0.055
-0.021 -0.019 0.063
-0.017 -0.017 0.063
-0.017 -0.017 0.081
-0.009 -0.021 0.067
-0.015 -0.011 0.065
-0.015 -0.009 0.065
-0.005 -0.003 0.069
-0.041 -0.035 0.087
-0.039 -0.037 0.087
-0.039 -0.033 0.087
-0.037 -0.029 0.069
-0.037 -0.033 0.085
-0.035 -0.031 0.083
-0.033 -0.027 0.081
-0.033 -0.027 0.087
-0.039 -0.037 0.087
-0.037 -0.033 0.083
-0.033 -0.027 0.081
-0.039 -0.037 0.087
-0.033 -0.027 0.083
-0.035 -0.029 0.087
-0.039 -0.027 0.087
-0.033 -0.025 0.087
-0.033 -0.023 0.079
-0.033 -0.019 0.083
-0.033 -0.019 0.085
-0.033 -0.015 0.087
-0.035 -0.011 0.081
-0.033 -0.015 0.087
-0.035 -0.009 0.083
-0.033 -0.011 0.087
-0.043 -0.033 0.085
-0.037 -0.033 0.085
-0.039 -0.031 0.087
-0.035 -0.029 0.087
-0.035 -0.029 0.087
-0.037 -0.029 0.089
-0.033 -0.015 0.087
-0.027 -0.029 0.065
-0.031 -0.029 0.069
-0.025 -0.021 0.069
-0.029 -0.021 0.071
-0.029 -0.021 0.073
-0.023 -0.021 0.073
-0.029 -0.021 0.075
-0.025 -0.021 0.079
-0.019 -0.019 0.079
-0.017 -0.017 0.081
-0.011 -0.021 0.071
-0.011 -0.019 0.071
-0.017 -0.017 0.079
-0.025 -0.015 0.089
-0.017 -0.017 0.081
-0.019 -0.017 0.085
-0.023 -0.017 0.087
-0.019 -0.015 0.087
-0.021 -0.015 0.089
-0.017 -0.015 0.083
-0.003 -0.003 0.071
-0.013 -0.011 0.085
-0.015 -0.013 0.087
-0.013 -0.011 0.087
-0.011 -0.009 0.085
-0.021 -0.017 0.085
-0.019 -0.015 0.087
-0.029 -0.005 0.089
-0.025 -0.011 0.093
-0.023 -0.015 0.089
-0.019 -0.013 0.089
-0.021 -0.009 0.091
-0.021 -0.007 0.093
-0.013 -0.011 0.087
-0.015 -0.013 0.087
-0.015 -0.013 0.087
-0.011 -0.009 0.087
-0.013 -0.007 0.091
-0.015 -0.001 0.093
-0.013 -0.001 0.091
0.017 -0.003 0.037
0.001 -0.017 0.037
0.001 -0.013 0.037
0.005 -0.013 0.039
0.005 -0.013 0.039
0.003 -0.011 0.039
0.001 -0.011 0.039
0.001 -0.007 0.039
0.011 -0.003 0.041
0.015 -0.003 0.041
-0.033 -0.027 0.087
-0.017 -0.017 0.065
-0.023 -0.021 0.079
-0.027 -0.019 0.083
-0.027 -0.019 0.083
-0.025 -0.019 0.083
-0.019 -0.017 0.085
-0.015 -0.013 0.065
-0.015 -0.013 0.065
-0.003 -0.001 0.063
-0.005 -0.001 0.061
-0.003 -0.001 0.063
-0.003 -0.003 0.075
-0.007 -0.003 0.087
-0.003 0.001 0.083
-0.009 -0.007 0.087
-0.007 -0.005 0.083
-0.009 -0.005 0.087
-0.009 -0.005 0.087
-0.003 -0.001 0.081
-0.005 -0.001 0.085
-0.005 0.001 0.087
-0.007 -0.003 0.087
-0.025 -0.019 0.083
-0.025 -0.017 0.085
-0.021 -0.015 0.089
-0.021 -0.015 0.089
-0.013 -0.003 0.059
-0.001 -0.001 0.057
-0.005 -0.001 0.063
-0.005 -0.001 0.061
-0.011 -0.009 0.087
-0.015 -0.015 0.081
-0.011 -0.009 0.083
-0.007 -0.003 0.069
-0.007 -0.003 0.087
-0.007 -0.001 0.089
-0.009 -0.003 0.089
-0.005 0.001 0.087
-0.017 -0.011 0.089
-0.025 -0.007 0.095
-0.017 -0.001 0.095
-0.007 -0.005 0.077
-0.015 0.001 0.095
-0.013 0.005 0.093
-0.005 0.005 0.087
-0.027 -0.005 0.091
-0.027 -0.007 0.093
-0.025 -0.003 0.091
-0.025 -0.001 0.091
-0.027 0.001 0.089
-0.023 -0.003 0.095
-0.021 -0.003 0.095
-0.023 -0.003 0.095
-0.021 -0.001 0.095
-0.003 0.005 0.083
-0.005 0.001 0.087
-0.011 0.005 0.093
-0.009 0.005 0.091
-0.013 0.007 0.093
-0.005 0.009 0.087
-0.005 0.009 0.087
-0.013 0.001 0.091
-0.015 0.001 0.095
-0.011 0.005 0.093
-0.011 0.005 0.093
-0.007 0.007 0.089
-0.001 0.009 0.101
-0.001 0.009 0.103
-0.005 0.025 0.095
-0.005 0.017 0.111
-0.003 0.017 0.111
-0.005 0.015 0.111
-0.001 0.019 0.097
-0.005 0.019 0.111
-0.005 0.015 0.111
-0.005 0.019 0.111
-0.001 0.019 0.111
0.015 -0.001 0.043
0.011 -0.001 0.047
0.007 0.001 0.053
0.019 0.001 0.039
0.017 0.007 0.047
0.005 0.001 0.061
0.023 0.007 0.049
0.025 0.007 0.049
0.023 0.009 0.051
0.011 -0.001 0.047
0.001 -0.001 0.057
0.001 -0.001 0.061
0.015 0.003 0.043
0.011 0.003 0.053
0.019 0.001 0.041
0.023 0.005 0.043
0.031 0.005 0.041
0.031 0.005 0.041
0.021 0.003 0.043
0.017 0.005 0.045
0.027 0.005 0.045
0.029 0.005 0.043
0.027 0.009 0.047
0.027 0.005 0.045
0.025 0.007 0.045
0.025 0.007 0.047
0.031 0.007 0.047
0.029 0.011 0.049
0.031 0.011 0.047
-0.001 -0.001 0.073
0.007 0.003 0.057
-0.001 0.003 0.081
0.001 0.003 0.079
0.019 0.009 0.051
0.021 0.009 0.051
0.029 0.011 0.051
0.029 0.015 0.057
0.027 0.015 0.057
0.009 0.003 0.053
0.009 0.003 0.055
0.009 0.003 0.055
0.015 0.009 0.053
0.003 0.001 0.065
0.007 0.009 0.067
0.007 0.013 0.063
0.009 0.009 0.061
0.009 0.013 0.061
-0.001 0.005 0.081
0.003 0.011 0.073
0.005 0.017 0.069
0.009 0.025 0.053
0.009 0.021 0.057
0.003 0.009 0.075
0.003 0.009 0.075
0.009 0.019 0.059
0.031 0.017 0.057
0.019 0.019 0.059
0.031 0.019 0.059
0.025 0.019 0.063
0.027 0.019 0.063
0.035 0.005 0.037
0.037 0.007 0.043
0.037 0.015 0.043
0.035 0.013 0.045
0.041 0.007 0.043
0.033 0.011 0.045
0.035 0.011 0.045
0.037 0.017 0.043
0.031 0.015 0.055
0.033 0.019 0.055
0.037 0.017 0.043
0.037 0.021 0.045
0.035 0.021 0.051
0.037 0.023 0.053
0.037 0.027 0.059
0.001 0.005 0.079
0.009 0.017 0.059
0.009 0.021 0.057
0.009 0.019 0.067
0.007 0.019 0.069
0.003 0.013 0.073
0.009 0.011 0.089
0.009 0.011 0.091
0.025 0.017 0.059
0.025 0.017 0.059
0.023 0.019 0.065
0.023 0.019 0.069
0.015 0.015 0.077
0.017 0.017 0.079
0.017 0.017 0.079
0.021 0.017 0.073
0.015 0.015 0.075
0.019 0.017 0.077
0.017 0.015 0.083
0.021 0.017 0.073
0.007 0.011 0.085
0.005 0.009 0.093
0.007 0.011 0.091
0.009 0.011 0.089
0.007 0.011 0.091
0.009 0.011 0.093
0.011 0.011 0.091
0.015 0.015 0.089
0.015 0.013 0.095
0.025 0.019 0.087
0.027 0.019 0.085
0.035 0.027 0.061
0.001 -0.001 0.071
0.003 0.007 0.075
0.001 0.001 0.077
0.003 0.007 0.075
0.001 0.005 0.079
0.001 0.007 0.079
0.001 0.009 0.087
0.015 0.015 0.075
0.011 0.011 0.093
0.007 0.011 0.087
0.003 0.009 0.095
0.001 0.007 0.095
0.001 0.009 0.097
0.015 0.015 0.077
0.005 0.013 0.103
0.005 0.011 0.101
0.007 0.011 0.103
0.017 0.017 0.069
0.021 0.017 0.071
0.017 0.017 0.073
0.027 0.019 0.067
0.029 0.021 0.067
0.027 0.023 0.073
0.017 0.017 0.077
0.017 0.015 0.097
0.025 0.017 0.085
0.005 0.009 0.091
0.007 0.011 0.089
0.013 0.013 0.087
0.003 0.009 0.091
0.001 0.007 0.095
0.003 0.009 0.093
0.015 0.013 0.095
0.001 0.007 0.095
0.001 0.009 0.101
0.001 0.011 0.103
0.001 0.019 0.095
0.001 0.011 0.103
0.019 0.015 0.091
0.031 0.021 0.087
0.019 0.017 0.097
0.019 0.017 0.103
0.023 0.017 0.097
0.021 0.017 0.099
0.025 0.019 0.097
0.027 0.019 0.095
0.027 0.019 0.097
0.029 0.021 0.097
0.023 0.019 0.101
0.021 0.023 0.105
0.023 0.019 0.101
0.025 0.021 0.101
0.023 0.021 0.103
0.033 0.023 0.087
0.039 0.027 0.089
0.037 0.025 0.087
0.043 0.027 0.087
0.043 0.027 0.087
0.039 0.027 0.089
0.033 0.023 0.099
0.047 0.031 0.089
0.013 0.013 0.101
0.015 0.015 0.097
0.019 0.017 0.095
0.025 0.019 0.091
0.025 0.019 0.091
0.021 0.017 0.097
0.027 0.019 0.089
0.015 0.015 0.101
0.021 0.017 0.095
0.021 0.017 0.099
0.001 0.017 0.109
0.007 0.021 0.105
0.009 0.021 0.109
0.015 0.019 0.105
0.021 0.021 0.105
0.017 0.019 0.105
0.027 0.021 0.101
0.025 0.023 0.105
0.025 0.023 0.105
0.017 0.019 0.105
0.015 0.021 0.105
0.021 0.021 0.105
0.023 0.025 0.105
0.027 0.027 0.105
0.021 0.033 0.105
0.029 0.031 0.105
0.027 0.033 0.105
0.031 0.021 0.097
0.035 0.023 0.097
0.033 0.027 0.099
0.041 0.027 0.101
0.037 0.027 0.101
0.039 0.029 0.101
0.041 0.031 0.103
0.031 0.025 0.099
0.033 0.025 0.099
0.035 0.031 0.105
0.045 0.033 0.091
0.043 0.029 0.103
0.047 0.039 0.093
0.005 0.011 0.101
0.005 0.013 0.103
0.007 0.013 0.103
0.009 0.011 0.101
0.001 0.017 0.107
0.011 0.013 0.109
0.005 0.021 0.109
0.001 0.023 0.109
0.007 0.023 0.113
0.003 0.019 0.109
0.003 0.023 0.109
0.013 0.023 0.107
0.007 0.023 0.115
0.003 0.031 0.107
0.015 0.031 0.105
0.019 0.017 0.103
0.031 0.023 0.099
0.029 0.023 0.099
0.027 0.023 0.103
0.029 0.025 0.103
0.019 0.029 0.105
0.007 0.023 0.115
0.039 0.029 0.101
0.003 0.031 0.105
0.021 0.031 0.105
0.023 0.033 0.105
0.031 0.031 0.101
0.029 0.035 0.101
0.029 0.031 0.105
0.035 0.033 0.105
0.033 0.033 0.105
0.037 0.043 0.103
0.041 0.039 0.105
