-0.033 -0.035 0.063
-0.021 -0.019 0.047
-0.031 -0.033 0.065
-0.037 -0.033 0.085
-0.039 -0.027 0.087
-0.023 -0.021 0.073
-0.021 -0.013 0.089
-0.031 -0.005 0.087
-0.027 -0.003 0.091
-0.027 -0.011 0.093
-0.029 -0.003 0.089
0.013 -0.005 0.037
-0.007 0.001 0.089
0.023 0.007 0.049
0.023 0.007 0.049
0.013 0.015 0.077
0.033 0.003 0.035
0.039 0.009 0.045
0.009 0.011 0.093
0.033 0.027 0.067
0.003 0.005 0.075
0.007 0.011 0.087
0.019 0.017 0.077
0.043 0.027 0.087
0.033 0.021 0.097
0.037 0.029 0.101
0.027 0.021 0.099
0.023 0.025 0.105
0.037 0.037 0.107
-0.027 -0.039 0.041
-0.021 -0.039 0.039
-0.019 -0.037 0.051
-0.027 -0.039 0.055
-0.035 -0.031 0.069
-0.035 -0.027 0.073
-0.025 -0.041 0.051
-0.013 -0.021 0.065
-0.031 -0.005 0.051
-0.011 -0.031 0.055
-0.029 -0.039 0.055
0.027 0.009 0.051
0.031 0.003 0.037
0.035 0.007 0.041
0.027 0.017 0.059
-0.009 -0.021 0.067
0.023 0.015 0.055
-0.013 -0.019 0.071
-0.039 -0.037 0.087
-0.029 -0.015 0.089
-0.001 0.009 0.103
0.023 0.021 0.103
-0.007 -0.029 0.045
-0.011 -0.029 0.043
-0.003 -0.025 0.049
-0.029 -0.033 0.065
-0.031 -0.019 0.083
-0.017 -0.015 0.085
-0.001 0.003 0.043
-0.005 0.003 0.049
-0.007 -0.005 0.075
-0.005 0.003 0.085
-0.003 0.007 0.083
-0.007 0.015 0.111
0.031 0.003 0.035
0.039 0.007 0.041
0.043 0.011 0.041
0.013 0.015 0.075
0.029 0.021 0.095
0.029 0.019 0.085
0.047 0.035 0.093
0.035 0.039 0.095
0.009 0.011 0.099
0.009 0.011 0.101
0.013 0.013 0.099
0.011 0.013 0.103
0.025 0.021 0.103
-0.031 -0.035 0.063
-0.015 -0.035 0.047
-0.029 -0.029 0.069
-0.003 -0.029 0.055
-0.001 -0.013 0.037
-0.007 -0.005 0.047
-0.019 -0.019 0.079
-0.009 -0.019 0.061
-0.029 -0.029 0.069
-0.017 -0.001 0.095
0.011 0.015 0.109
0.005 0.011 0.101
-0.013 0.005 0.093
-0.005 0.001 0.087
0.001 0.007 0.095
0.037 0.025 0.101
0.039 0.031 0.049
0.033 0.021 0.097
0.005 0.015 0.101
0.023 0.023 0.105
0.021 0.027 0.105
0.025 0.023 0.105
0.041 0.027 0.101
-0.037 -0.027 0.065
-0.041 -0.025 0.075
-0.027 -0.021 0.079
-0.035 -0.009 0.079
-0.037 -0.013 0.073
-0.033 -0.003 0.077
-0.033 -0.009 0.087
-0.029 -0.009 0.091
-0.031 -0.013 0.089
-0.019 -0.003 0.095
-0.031 -0.001 0.083
-0.011 0.009 0.091
-0.017 0.013 0.073
-0.011 0.015 0.079
-0.001 0.017 0.083
0.021 0.039 0.061
0.005 0.015 0.083
-0.009 0.027 0.103
0.001 0.031 0.105
0.033 0.037 0.105
-0.029 -0.001 0.037
-0.031 -0.011 0.033
0.003 0.025 0.053
-0.025 -0.001 0.067
0.011 0.033 0.071
-0.001 0.021 0.059
-0.007 0.017 0.071
0.003 0.027 0.049
-0.007 0.021 0.055
-0.017 0.009 0.087
-0.001 0.019 0.111
0.029 0.037 0.035
0.035 0.039 0.053
0.009 0.039 0.037
0.017 0.037 0.063
0.029 0.035 0.069
0.019 0.037 0.087
0.029 0.039 0.083
0.035 0.043 0.101
0.005 0.035 0.103
-0.005 -0.011 0.047
-0.009 -0.021 0.063
-0.001 -0.021 0.035
-0.021 -0.029 0.051
-0.003 -0.027 0.051
-0.029 -0.021 0.073
-0.033 -0.023 0.077
-0.021 -0.005 0.095
0.003 -0.009 0.035
0.007 0.017 0.061
0.009 0.017 0.059
-0.001 -0.001 0.073
0.015 0.013 0.095
-0.001 0.019 0.111
0.009 0.017 0.059
0.031 0.017 0.057
0.039 0.029 0.049
0.039 0.025 0.085
0.019 0.017 0.075
0.011 0.011 0.093
0.029 0.021 0.087
0.037 0.023 0.099
0.015 0.023 0.105
0.039 0.025 0.099
0.009 0.029 0.105
0.037 0.035 0.107
0.037 0.033 0.107
-0.003 -0.023 0.051
-0.003 -0.015 0.045
0.005 -0.013 0.039
0.031 0.009 0.047
0.013 0.003 0.051
-0.003 -0.027 0.049
-0.007 -0.021 0.061
-0.007 -0.025 0.061
0.029 0.015 0.057
-0.013 -0.011 0.079
0.049 0.033 0.085
-0.017 -0.015 0.071
-0.017 -0.015 0.085
-0.013 -0.007 0.091
-0.013 -0.009 0.089
0.039 0.025 0.101
0.037 0.025 0.051
0.037 0.031 0.057
0.035 0.029 0.061
0.045 0.033 0.091
0.049 0.039 0.091
0.027 0.009 0.049
0.031 0.011 0.047
0.007 0.009 0.063
0.041 0.009 0.037
0.033 0.039 0.041
0.047 0.027 0.085
0.023 0.029 0.077
0.027 0.023 0.091
0.043 0.031 0.091
0.019 0.017 0.103
0.021 0.021 0.105
-0.025 0.005 0.049
-0.033 -0.005 0.061
-0.031 -0.001 0.049
-0.011 0.001 0.041
-0.007 0.021 0.051
-0.015 0.015 0.069
-0.013 0.015 0.075
-0.031 -0.001 0.061
-0.013 0.015 0.059
-0.033 -0.007 0.087
-0.033 -0.003 0.081
-0.031 -0.007 0.089
-0.029 -0.009 0.091
-0.017 0.003 0.093
-0.003 0.023 0.055
-0.023 0.005 0.047
-0.011 0.017 0.053
-0.011 0.015 0.077
-0.019 0.011 0.083
-0.015 0.003 0.093
0.009 0.021 0.057
0.017 0.039 0.057
0.011 0.031 0.063
0.029 0.039 0.063
0.033 0.037 0.063
0.027 0.041 0.041
0.021 0.045 0.041
0.029 0.039 0.061
0.025 0.041 0.059
0.035 0.037 0.059
-0.003 0.031 0.091
0.007 0.031 0.081
0.021 0.039 0.093
0.021 0.033 0.075
0.039 0.041 0.089
0.001 0.019 0.109
-0.019 -0.033 0.053
-0.003 -0.023 0.051
-0.003 -0.013 0.039
-0.009 -0.021 0.065
-0.005 -0.027 0.057
-0.015 -0.003 0.061
-0.033 -0.025 0.087
0.005 -0.017 0.037
0.015 0.015 0.077
-0.015 0.003 0.095
0.011 0.011 0.089
0.027 0.025 0.105
0.037 0.007 0.045
0.029 0.005 0.045
0.031 0.009 0.047
0.007 0.011 0.063
0.017 0.013 0.055
0.029 0.013 0.055
0.025 0.047 0.035
0.025 0.019 0.071
0.015 0.015 0.083
0.033 0.025 0.089
0.039 0.025 0.099
0.043 0.033 0.103
-0.029 -0.011 0.093
-0.041 -0.035 0.087
-0.023 -0.041 0.051
-0.039 -0.031 0.087
-0.035 -0.005 0.073
-0.023 -0.011 0.091
-0.023 -0.031 0.059
-0.011 -0.021 0.071
-0.013 -0.023 0.063
-0.013 -0.021 0.071
-0.021 -0.013 0.089
-0.043 -0.033 0.079
-0.031 -0.007 0.089
0.015 -0.001 0.043
-0.019 0.005 0.091
-0.015 0.009 0.087
-0.029 -0.003 0.089
-0.023 -0.005 0.095
-0.007 -0.001 0.089
-0.005 0.009 0.087
0.005 0.013 0.103
0.031 0.003 0.037
0.003 0.023 0.109
0.003 0.009 0.103
0.003 0.013 0.101
0.009 0.013 0.103
0.021 0.023 0.105
0.015 0.027 0.105
0.007 0.031 0.105
0.015 0.031 0.105
0.019 0.029 0.105
0.033 0.035 0.105
0.023 0.029 0.105
0.039 0.027 0.101
0.003 0.035 0.107
-0.017 -0.039 0.043
-0.009 -0.025 0.039
-0.003 -0.021 0.039
-0.011 -0.031 0.055
-0.005 -0.021 0.055
-0.015 -0.007 0.061
-0.023 -0.021 0.079
-0.015 -0.013 0.085
-0.011 -0.009 0.087
0.009 -0.013 0.035
0.017 -0.005 0.035
-0.011 -0.001 0.039
-0.017 -0.001 0.061
0.001 -0.001 0.057
0.005 0.001 0.055
-0.009 -0.007 0.077
0.041 0.013 0.033
0.041 0.015 0.035
0.043 0.009 0.043
0.037 0.027 0.039
0.023 0.017 0.085
0.005 0.009 0.099
0.023 0.017 0.097
0.041 0.027 0.101
-0.031 -0.001 0.047
-0.029 -0.013 0.055
-0.031 -0.009 0.053
-0.043 -0.031 0.081
-0.039 -0.025 0.085
-0.031 -0.001 0.079
-0.027 0.001 0.077
-0.027 0.003 0.079
-0.027 0.003 0.047
-0.027 0.003 0.047
-0.011 0.001 0.065
-0.035 0.003 0.039
-0.025 0.001 0.063
-0.019 0.007 0.089
-0.023 0.005 0.089
-0.007 0.029 0.097
-0.007 0.027 0.035
-0.009 0.005 0.051
-0.009 0.009 0.047
-0.005 0.021 0.039
-0.009 0.005 0.053
-0.015 0.013 0.061
-0.009 0.017 0.049
-0.003 0.025 0.045
0.007 0.039 0.037
0.011 0.035 0.053
0.005 0.035 0.041
0.009 0.031 0.067
0.001 0.011 0.093
0.003 0.029 0.081
-0.001 0.023 0.085
-0.001 0.031 0.087
0.001 0.033 0.091
0.009 0.033 0.083
-0.007 0.029 0.101
-0.001 0.023 0.107
-0.005 0.027 0.099
-0.021 -0.037 0.035
-0.035 -0.035 0.055
-0.029 -0.039 0.053
-0.011 -0.029 0.059
-0.027 -0.037 0.061
-0.011 -0.029 0.059
-0.007 -0.003 0.087
-0.011 -0.007 0.089
-0.001 0.017 0.091
0.031 0.003 0.033
0.007 -0.001 0.043
0.031 0.003 0.033
0.011 -0.005 0.037
0.025 0.003 0.037
0.037 0.007 0.043
-0.005 -0.031 0.053
0.009 -0.003 0.039
0.029 0.021 0.065
0.015 0.017 0.069
-0.001 0.007 0.095
0.023 0.017 0.085
0.023 0.019 0.071
0.039 0.027 0.087
0.013 0.015 0.103
-0.013 -0.031 0.033
-0.027 -0.037 0.039
-0.021 -0.039 0.037
-0.031 -0.039 0.057
-0.021 -0.041 0.041
-0.025 -0.037 0.059
-0.019 -0.015 0.055
-0.021 -0.017 0.087
-0.025 -0.015 0.089
0.011 -0.005 0.035
0.009 -0.003 0.037
-0.015 -0.037 0.041
-0.003 0.003 0.045
-0.009 -0.001 0.065
-0.001 0.001 0.081
-0.007 -0.003 0.087
-0.003 0.017 0.111
0.019 -0.003 0.033
0.027 0.007 0.037
0.031 0.005 0.045
0.019 -0.003 0.035
0.025 0.015 0.033
0.013 0.003 0.051
0.007 0.007 0.063
0.019 0.011 0.053
0.031 0.013 0.049
0.023 0.015 0.055
0.033 0.021 0.057
0.035 0.025 0.057
0.005 0.017 0.077
0.017 0.017 0.071
0.007 0.011 0.087
0.033 0.035 0.081
0.047 0.035 0.093
0.007 0.011 0.103
0.023 0.021 0.103
0.035 0.031 0.105
-0.003 -0.007 0.039
-0.007 -0.017 0.053
-0.003 -0.025 0.043
-0.003 -0.027 0.045
-0.019 -0.017 0.057
-0.015 -0.013 0.061
-0.019 -0.017 0.083
0.027 0.019 0.063
0.029 0.023 0.099
0.017 0.015 0.101
0.033 0.025 0.099
0.015 0.019 0.105
0.037 0.031 0.043
0.043 0.011 0.039
0.031 0.005 0.045
0.037 0.011 0.045
0.027 0.009 0.051
0.021 0.013 0.053
0.041 0.007 0.043
0.037 0.025 0.055
0.037 0.031 0.053
0.025 0.041 0.045
0.027 0.043 0.039
0.027 0.041 0.039
0.031 0.041 0.055
0.021 0.051 0.037
0.035 0.037 0.057
0.035 0.035 0.059
0.033 0.039 0.057
0.025 0.021 0.103
0.027 0.021 0.103
0.017 0.015 0.101
0.037 0.035 0.107
0.035 0.027 0.101
0.045 0.035 0.093
0.017 0.019 0.105
0.013 0.023 0.107
0.009 0.033 0.105
0.043 0.035 0.105
-0.033 -0.025 0.037
-0.035 -0.029 0.059
-0.035 -0.021 0.035
-0.035 -0.017 0.037
-0.029 -0.023 0.043
-0.031 -0.007 0.051
-0.031 -0.001 0.047
-0.025 0.003 0.057
-0.045 -0.035 0.081
-0.031 -0.001 0.081
-0.019 0.005 0.091
-0.017 0.005 0.047
-0.029 0.001 0.059
-0.013 0.007 0.057
-0.025 0.005 0.081
-0.015 0.013 0.083
-0.001 0.019 0.035
0.003 0.035 0.039
0.015 0.035 0.067
0.009 0.039 0.047
0.027 0.041 0.055
0.003 0.017 0.069
0.001 0.017 0.073
0.003 0.021 0.073
0.005 0.029 0.073
0.011 0.031 0.081
0.011 0.033 0.073
0.019 0.037 0.069
0.025 0.039 0.091
0.003 0.023 0.103
-0.035 -0.009 0.035
-0.033 -0.031 0.051
-0.033 -0.013 0.039
-0.029 -0.029 0.049
-0.033 -0.005 0.047
-0.029 0.009 0.037
-0.031 -0.003 0.053
-0.019 0.001 0.061
-0.021 -0.003 0.065
-0.037 -0.013 0.075
-0.035 -0.013 0.065
-0.017 -0.007 0.069
-0.035 -0.009 0.083
-0.019 0.005 0.091
-0.031 0.009 0.039
-0.017 0.007 0.069
-0.023 0.007 0.079
-0.013 0.007 0.093
-0.001 0.009 0.101
0.003 0.033 0.041
0.015 0.041 0.055
0.005 0.021 0.059
0.013 0.031 0.059
0.015 0.035 0.059
0.009 0.027 0.067
0.005 0.027 0.073
0.007 0.033 0.091
0.023 0.041 0.093
