-0.017 -0.033 0.031
-0.027 -0.039 0.057
-0.023 -0.035 0.033
-0.027 -0.037 0.061
-0.015 -0.029 0.047
-0.005 -0.025 0.035
-0.029 -0.027 0.067
-0.027 -0.021 0.075
-0.035 -0.031 0.081
-0.033 -0.025 0.081
-0.029 -0.031 0.067
-0.029 -0.029 0.067
-0.017 -0.017 0.075
-0.003 -0.001 0.069
-0.027 -0.017 0.085
-0.021 -0.015 0.089
0.013 -0.005 0.037
-0.005 -0.025 0.039
0.003 0.001 0.045
-0.005 -0.027 0.057
0.001 -0.001 0.063
-0.003 -0.001 0.067
0.007 0.011 0.101
0.033 0.003 0.035
0.033 0.003 0.035
0.041 0.009 0.035
0.007 0.011 0.063
0.013 0.007 0.055
0.031 0.017 0.057
0.035 0.021 0.053
0.039 0.029 0.049
0.041 0.009 0.037
0.013 0.017 0.071
0.023 0.019 0.065
0.029 0.027 0.073
0.023 0.017 0.085
0.027 0.019 0.083
0.035 0.023 0.083
0.029 0.031 0.071
0.019 0.015 0.087
0.029 0.019 0.085
0.037 0.025 0.095
0.001 0.009 0.097
0.007 0.011 0.097
0.015 0.015 0.103
0.043 0.029 0.103
-0.003 0.029 0.043
0.001 0.023 0.057
-0.031 -0.001 0.061
-0.015 0.005 0.043
-0.019 0.005 0.053
0.013 0.037 0.055
-0.025 0.001 0.037
-0.025 0.007 0.041
0.011 0.041 0.051
-0.011 0.017 0.059
-0.025 0.001 0.063
0.005 0.021 0.059
-0.025 0.005 0.079
-0.031 -0.001 0.079
-0.031 -0.011 0.089
-0.015 0.013 0.077
-0.001 0.015 0.073
-0.019 0.001 0.095
-0.017 0.005 0.039
-0.027 0.007 0.041
0.007 0.037 0.047
-0.005 0.025 0.049
-0.023 0.005 0.049
-0.007 0.019 0.065
-0.011 0.017 0.071
0.001 0.031 0.085
0.019 0.043 0.041
0.021 0.049 0.039
0.031 0.039 0.039
0.015 0.041 0.043
0.015 0.035 0.057
0.035 0.033 0.063
0.015 0.043 0.049
0.019 0.043 0.049
0.017 0.043 0.051
0.035 0.037 0.057
0.011 0.033 0.069
0.011 0.033 0.075
0.031 0.035 0.067
0.019 0.037 0.091
0.011 0.035 0.097
0.023 0.037 0.087
0.027 0.037 0.087
0.033 0.043 0.097
0.011 0.037 0.095
0.023 0.039 0.103
0.035 0.043 0.101
-0.009 -0.023 0.065
0.031 0.013 0.053
-0.005 -0.013 0.047
-0.003 -0.021 0.043
0.033 0.019 0.051
0.035 0.013 0.045
0.007 0.005 0.063
0.049 0.031 0.085
-0.033 -0.025 0.085
-0.007 0.001 0.089
0.003 0.005 0.075
-0.013 -0.009 0.089
0.041 0.013 0.043
0.037 0.035 0.051
0.037 0.025 0.055
0.033 0.027 0.065
0.033 0.021 0.059
0.031 0.027 0.069
0.027 0.031 0.073
0.049 0.039 0.091
0.033 0.021 0.085
0.045 0.037 0.089
0.031 0.041 0.093
0.043 0.011 0.041
0.037 0.019 0.039
0.029 0.011 0.049
0.033 0.021 0.035
0.031 0.013 0.053
0.041 0.013 0.033
0.035 0.021 0.053
0.031 0.039 0.041
0.029 0.041 0.055
0.047 0.035 0.085
0.021 0.033 0.075
0.043 0.041 0.083
0.047 0.035 0.089
0.045 0.029 0.089
0.037 0.031 0.097
0.027 0.037 0.067
0.039 0.039 0.097
0.037 0.033 0.107
0.009 0.035 0.101
0.011 0.035 0.103
0.039 0.041 0.105
-0.027 -0.027 0.063
-0.029 -0.029 0.067
-0.005 -0.007 0.041
-0.003 -0.029 0.055
-0.005 -0.003 0.069
-0.011 -0.009 0.053
-0.021 -0.011 0.091
-0.005 -0.005 0.077
-0.023 -0.009 0.093
0.009 -0.011 0.035
0.017 -0.005 0.035
0.001 -0.001 0.063
0.005 0.001 0.057
0.013 0.017 0.071
0.001 -0.001 0.071
-0.011 0.003 0.091
0.011 0.011 0.091
-0.015 0.001 0.095
0.027 0.027 0.105
0.011 0.025 0.109
0.037 0.021 0.045
0.041 0.009 0.035
0.033 0.005 0.041
0.041 0.013 0.041
0.019 0.003 0.043
0.005 0.001 0.057
0.025 0.013 0.055
0.021 0.019 0.065
0.037 0.025 0.039
0.027 0.043 0.037
0.023 0.045 0.041
0.027 0.019 0.089
0.009 0.011 0.095
0.029 0.035 0.069
0.041 0.031 0.097
0.017 0.017 0.105
0.005 0.031 0.107
0.027 0.021 0.101
0.009 0.023 0.113
0.041 0.027 0.099
0.041 0.043 0.103
-0.021 -0.035 0.055
-0.041 -0.029 0.085
-0.041 -0.035 0.087
-0.037 -0.029 0.089
-0.013 -0.031 0.045
-0.025 -0.019 0.083
-0.037 -0.029 0.089
-0.007 -0.027 0.061
-0.013 -0.025 0.063
-0.033 -0.003 0.071
-0.021 -0.015 0.089
-0.021 -0.013 0.089
-0.015 -0.005 0.091
-0.043 -0.033 0.085
-0.037 -0.033 0.085
-0.043 -0.029 0.081
-0.035 -0.029 0.087
-0.039 -0.023 0.083
-0.023 -0.009 0.093
-0.013 -0.005 0.091
-0.011 -0.001 0.091
0.001 -0.011 0.039
0.013 -0.001 0.045
0.011 -0.001 0.047
-0.017 0.005 0.091
-0.015 0.013 0.083
-0.033 -0.003 0.081
-0.025 0.003 0.089
-0.021 -0.003 0.095
-0.001 0.017 0.083
-0.013 0.001 0.091
0.015 0.013 0.055
0.017 0.051 0.037
-0.003 0.011 0.085
0.003 0.013 0.097
-0.007 0.015 0.113
-0.005 0.021 0.109
0.001 0.027 0.101
-0.001 0.009 0.097
0.001 0.011 0.103
0.021 0.023 0.105
0.021 0.021 0.105
0.047 0.027 0.085
0.005 0.029 0.103
0.011 0.023 0.111
0.003 0.025 0.107
-0.017 -0.035 0.033
-0.003 -0.019 0.041
-0.013 -0.035 0.037
-0.015 -0.037 0.043
-0.013 -0.035 0.043
-0.003 -0.025 0.043
-0.005 -0.019 0.045
-0.003 -0.023 0.037
0.001 -0.013 0.037
0.007 -0.015 0.037
0.003 -0.007 0.033
-0.027 -0.025 0.057
-0.005 -0.017 0.049
-0.005 -0.021 0.053
-0.025 -0.019 0.083
-0.033 -0.025 0.085
-0.009 -0.019 0.065
-0.017 -0.011 0.071
-0.003 -0.003 0.077
-0.025 -0.011 0.091
-0.021 -0.011 0.091
-0.011 -0.001 0.091
-0.007 -0.005 0.047
0.031 0.009 0.047
-0.013 -0.001 0.057
-0.003 -0.001 0.079
0.001 0.007 0.079
0.033 0.003 0.035
0.033 0.005 0.033
0.041 0.009 0.037
0.039 0.009 0.045
0.007 0.003 0.059
0.027 0.013 0.055
0.029 0.011 0.053
0.037 0.027 0.041
0.033 0.019 0.049
0.001 0.015 0.075
0.019 0.017 0.071
0.025 0.025 0.075
0.009 0.011 0.093
0.029 0.019 0.085
0.021 0.023 0.081
0.025 0.021 0.093
0.033 0.023 0.095
0.047 0.027 0.083
0.017 0.015 0.105
0.041 0.027 0.099
0.043 0.031 0.103
0.043 0.033 0.103
0.039 0.041 0.099
-0.017 -0.037 0.047
-0.015 -0.029 0.047
-0.003 -0.019 0.047
-0.009 -0.003 0.047
-0.025 -0.017 0.057
-0.009 -0.029 0.061
-0.017 -0.005 0.065
-0.027 -0.029 0.065
-0.027 -0.021 0.065
-0.029 -0.021 0.079
-0.017 -0.013 0.075
-0.027 -0.013 0.091
0.005 -0.017 0.037
0.007 -0.001 0.043
0.001 -0.001 0.067
-0.005 -0.029 0.057
-0.011 -0.005 0.073
-0.003 -0.001 0.081
0.001 0.003 0.077
-0.001 0.001 0.081
0.005 0.009 0.089
0.003 0.007 0.035
0.007 0.001 0.045
0.011 -0.001 0.047
0.023 0.001 0.035
0.017 0.005 0.045
0.007 0.009 0.063
0.011 0.011 0.057
0.039 0.031 0.049
0.027 0.015 0.057
0.037 0.023 0.051
0.017 0.019 0.057
0.019 0.019 0.061
0.035 0.025 0.061
0.027 0.021 0.071
0.007 0.009 0.067
0.011 0.011 0.093
0.017 0.015 0.101
0.019 0.017 0.101
0.037 0.023 0.099
0.047 0.027 0.085
0.009 0.011 0.101
0.009 0.011 0.099
0.011 0.015 0.109
0.023 0.019 0.099
0.025 0.021 0.103
0.033 0.023 0.099
0.021 0.023 0.105
0.027 0.029 0.105
-0.033 -0.033 0.049
-0.031 -0.031 0.035
-0.031 -0.035 0.045
-0.033 -0.031 0.047
-0.031 -0.013 0.045
-0.031 -0.003 0.049
-0.035 -0.027 0.059
-0.035 -0.021 0.067
-0.037 -0.011 0.069
-0.035 -0.007 0.073
-0.019 0.001 0.071
-0.025 -0.007 0.095
-0.027 0.003 0.087
-0.025 0.005 0.049
-0.023 0.005 0.051
-0.029 0.005 0.045
-0.033 0.005 0.041
-0.025 0.003 0.053
-0.007 0.021 0.059
-0.003 0.033 0.033
-0.023 0.003 0.091
-0.003 0.031 0.091
-0.007 0.029 0.101
-0.001 0.009 0.037
-0.023 0.005 0.053
-0.007 0.017 0.043
-0.007 0.027 0.041
-0.013 0.009 0.055
0.001 0.027 0.049
-0.007 0.021 0.041
-0.001 0.031 0.041
0.009 0.039 0.047
0.017 0.039 0.057
0.015 0.035 0.059
0.005 0.021 0.069
0.005 0.021 0.069
0.003 0.019 0.073
0.005 0.023 0.073
-0.007 0.027 0.087
0.007 0.035 0.095
0.023 0.039 0.097
0.015 0.037 0.101
0.013 0.037 0.099
-0.015 -0.037 0.037
-0.027 -0.037 0.061
-0.033 -0.029 0.033
-0.035 -0.007 0.039
-0.031 -0.037 0.047
-0.019 -0.039 0.039
-0.009 -0.027 0.039
-0.005 -0.031 0.055
-0.011 -0.027 0.061
-0.033 -0.035 0.061
-0.011 -0.031 0.055
-0.039 -0.037 0.087
-0.015 -0.009 0.091
-0.013 -0.033 0.045
-0.015 -0.013 0.061
-0.017 -0.017 0.071
-0.009 -0.007 0.087
0.005 -0.013 0.039
0.003 -0.011 0.039
-0.011 -0.029 0.053
-0.007 -0.031 0.055
0.015 -0.001 0.043
0.017 0.003 0.043
-0.007 -0.031 0.057
-0.005 -0.029 0.059
0.025 0.007 0.049
-0.001 -0.001 0.075
0.005 0.015 0.081
0.015 0.015 0.085
0.021 0.017 0.095
0.013 0.013 0.093
0.015 0.015 0.093
0.011 0.013 0.095
0.017 0.015 0.095
0.009 0.011 0.099
0.017 0.015 0.105
0.021 0.021 0.105
0.007 0.011 0.101
0.033 0.031 0.103
-0.015 -0.037 0.045
-0.031 -0.037 0.059
-0.017 -0.039 0.043
-0.013 -0.035 0.043
-0.009 -0.027 0.045
-0.021 -0.041 0.049
-0.017 -0.037 0.049
-0.039 -0.031 0.073
-0.033 -0.027 0.079
-0.027 -0.031 0.065
-0.011 -0.021 0.071
-0.003 -0.003 0.071
-0.029 -0.013 0.091
-0.017 -0.009 0.091
0.003 0.001 0.047
-0.007 0.001 0.055
-0.015 -0.013 0.083
-0.019 -0.015 0.087
0.011 -0.003 0.033
0.023 0.013 0.033
0.009 -0.003 0.041
0.005 0.001 0.053
0.007 0.001 0.053
0.005 0.001 0.053
0.029 0.019 0.059
0.021 0.001 0.039
0.035 0.005 0.037
0.033 0.005 0.039
0.033 0.005 0.039
0.027 0.015 0.057
0.037 0.023 0.051
0.037 0.027 0.057
0.001 0.003 0.079
0.003 0.017 0.075
0.029 0.021 0.065
0.031 0.025 0.067
0.023 0.021 0.077
0.001 0.007 0.095
0.019 0.019 0.079
0.027 0.027 0.083
0.021 0.017 0.069
0.023 0.021 0.075
0.015 0.015 0.099
0.005 0.009 0.095
0.009 0.011 0.101
0.019 0.017 0.103
0.033 0.031 0.103
0.029 0.021 0.095
-0.037 0.005 0.037
-0.031 -0.029 0.051
-0.031 -0.009 0.055
-0.035 -0.009 0.039
-0.013 0.001 0.037
-0.023 0.005 0.049
-0.029 0.009 0.037
-0.015 0.005 0.047
-0.019 0.001 0.059
-0.025 0.001 0.063
-0.037 -0.025 0.065
-0.037 -0.013 0.073
-0.035 -0.023 0.085
-0.037 -0.011 0.075
-0.023 0.005 0.075
-0.021 -0.003 0.067
-0.017 0.013 0.071
-0.013 0.017 0.069
-0.023 -0.001 0.093
-0.021 -0.001 0.093
-0.007 0.023 0.041
-0.015 0.011 0.063
-0.009 0.019 0.063
-0.005 0.021 0.063
-0.005 0.015 0.077
-0.019 0.009 0.087
-0.009 0.013 0.081
-0.005 0.013 0.081
-0.005 0.029 0.103
-0.007 0.019 0.111
-0.001 0.033 0.037
-0.005 0.029 0.039
-0.007 0.021 0.051
0.009 0.039 0.041
0.011 0.041 0.039
0.007 0.037 0.049
0.009 0.039 0.051
0.011 0.041 0.039
0.015 0.043 0.051
-0.003 0.021 0.059
0.007 0.019 0.061
0.013 0.041 0.045
0.021 0.041 0.049
0.029 0.041 0.055
0.019 0.043 0.051
0.031 0.039 0.063
0.011 0.033 0.075
-0.001 0.031 0.087
0.015 0.037 0.095
0.033 0.041 0.085
0.001 0.033 0.095
0.007 0.035 0.095
0.015 0.035 0.083
-0.009 0.027 0.097
-0.005 0.029 0.099
0.001 0.033 0.097
0.001 0.023 0.109
0.013 0.037 0.099
0.017 0.037 0.103
