-0.035 -0.019 0.037
-0.033 -0.031 0.045
-0.039 -0.025 0.083
-0.037 -0.023 0.083
-0.037 -0.023 0.085
-0.033 -0.021 0.081
-0.033 -0.019 0.083
-0.041 -0.027 0.075
-0.043 -0.029 0.081
-0.037 -0.023 0.085
-0.041 -0.027 0.081
-0.039 -0.025 0.085
-0.035 -0.023 0.085
-0.033 -0.025 0.039
-0.035 -0.015 0.037
-0.035 -0.007 0.039
-0.037 -0.011 0.073
-0.031 -0.025 0.043
-0.031 -0.019 0.039
-0.035 -0.007 0.069
-0.031 -0.029 0.049
-0.035 -0.009 0.083
-0.033 -0.007 0.081
-0.035 -0.009 0.083
-0.033 -0.007 0.087
-0.033 -0.007 0.081
-0.033 -0.005 0.085
-0.031 -0.003 0.087
-0.031 -0.007 0.089
-0.031 -0.009 0.089
-0.031 -0.003 0.087
-0.033 -0.007 0.047
-0.033 -0.003 0.067
-0.033 -0.003 0.071
-0.035 -0.005 0.071
-0.027 0.003 0.083
-0.029 0.001 0.085
-0.027 0.003 0.083
-0.023 0.003 0.057
-0.027 0.003 0.085
-0.025 0.005 0.081
-0.035 -0.017 0.079
-0.035 -0.017 0.077
-0.037 -0.021 0.081
-0.035 -0.019 0.081
-0.035 -0.017 0.081
-0.037 -0.011 0.075
-0.037 -0.021 0.081
-0.037 -0.023 0.083
-0.035 -0.021 0.081
-0.035 -0.019 0.079
-0.037 -0.011 0.075
-0.037 -0.011 0.075
-0.035 -0.013 0.083
-0.033 -0.007 0.085
-0.029 -0.015 0.089
-0.035 -0.007 0.071
-0.031 -0.003 0.085
-0.035 -0.009 0.071
-0.031 -0.001 0.085
-0.027 0.001 0.089
-0.023 0.005 0.077
-0.039 -0.025 0.083
-0.041 -0.025 0.081
-0.043 -0.029 0.081
-0.037 -0.011 0.075
-0.039 -0.027 0.087
-0.035 -0.009 0.083
-0.033 -0.015 0.087
-0.033 -0.007 0.087
-0.039 -0.023 0.083
-0.031 -0.015 0.089
-0.027 -0.011 0.093
-0.029 -0.003 0.089
-0.029 0.001 0.085
-0.027 0.001 0.089
-0.023 0.005 0.089
-0.023 -0.001 0.093
-0.019 0.003 0.091
-0.033 -0.017 0.087
-0.023 -0.007 0.095
-0.013 0.003 0.093
-0.015 0.013 0.079
-0.027 0.003 0.087
-0.027 0.001 0.089
-0.025 0.005 0.087
-0.023 0.007 0.087
-0.017 0.011 0.085
-0.015 0.011 0.085
-0.033 0.007 0.041
-0.027 0.003 0.047
-0.019 0.011 0.083
-0.011 0.017 0.055
-0.005 0.025 0.041
-0.007 0.021 0.043
-0.007 0.023 0.043
-0.005 0.025 0.043
-0.001 0.029 0.043
-0.029 0.001 0.055
-0.021 0.001 0.061
-0.017 0.003 0.055
-0.017 0.003 0.055
-0.021 0.009 0.081
-0.013 0.015 0.057
-0.013 0.015 0.057
-0.021 0.009 0.083
-0.021 0.009 0.077
-0.013 0.015 0.061
-0.007 0.021 0.055
-0.009 0.019 0.061
-0.005 0.021 0.063
-0.019 0.011 0.077
-0.027 0.003 0.081
-0.023 0.007 0.085
-0.011 0.015 0.079
-0.007 0.015 0.079
-0.029 0.001 0.085
-0.029 0.001 0.085
-0.023 0.005 0.089
-0.019 0.011 0.083
-0.023 0.001 0.091
-0.015 0.007 0.089
-0.009 0.007 0.091
-0.001 0.021 0.085
-0.005 0.029 0.093
-0.003 0.031 0.095
-0.011 0.017 0.113
0.005 0.029 0.045
0.013 0.025 0.055
-0.013 0.015 0.077
-0.013 0.017 0.063
-0.005 0.021 0.063
-0.003 0.021 0.059
-0.003 0.021 0.061
-0.017 0.013 0.079
-0.007 0.015 0.079
0.005 0.021 0.059
-0.007 0.029 0.097
-0.005 0.029 0.095
-0.003 0.019 0.091
-0.001 0.023 0.053
0.003 0.025 0.053
0.003 0.029 0.043
0.001 0.021 0.075
-0.013 0.011 0.087
-0.009 0.013 0.083
0.001 0.017 0.073
-0.001 0.021 0.093
-0.009 0.027 0.103
0.003 0.023 0.055
-0.009 0.027 0.095
0.007 0.021 0.057
0.009 0.031 0.051
0.001 0.021 0.061
-0.005 0.031 0.097
-0.003 0.029 0.103
-0.001 0.031 0.101
-0.005 0.029 0.103
0.001 0.027 0.101
0.001 0.033 0.093
0.011 0.033 0.077
0.001 0.033 0.099
0.021 0.037 0.069
-0.001 0.031 0.101
0.019 0.037 0.085
0.001 0.033 0.039
0.009 0.039 0.045
0.009 0.039 0.049
0.009 0.039 0.051
0.013 0.039 0.053
0.017 0.045 0.039
0.011 0.041 0.051
0.023 0.041 0.055
0.017 0.051 0.037
0.011 0.037 0.053
0.017 0.041 0.055
0.029 0.039 0.059
0.029 0.037 0.067
-0.007 0.011 0.089
-0.001 0.021 0.095
-0.009 0.027 0.097
-0.007 0.029 0.103
-0.005 0.027 0.103
-0.005 0.029 0.089
-0.003 0.031 0.089
-0.009 0.027 0.101
0.003 0.033 0.087
0.003 0.033 0.091
0.007 0.035 0.093
0.001 0.033 0.109
0.001 0.027 0.101
0.003 0.023 0.101
0.003 0.033 0.105
0.001 0.011 0.093
-0.011 0.015 0.111
-0.009 0.017 0.113
-0.003 0.017 0.111
0.003 0.023 0.109
0.011 0.017 0.105
-0.001 0.019 0.093
-0.003 0.031 0.091
0.001 0.023 0.105
0.011 0.027 0.109
0.011 0.025 0.111
0.003 0.031 0.107
0.005 0.035 0.105
0.007 0.025 0.115
0.019 0.027 0.105
0.019 0.025 0.105
0.021 0.025 0.105
0.013 0.029 0.105
0.019 0.031 0.105
0.029 0.035 0.101
0.029 0.031 0.105
0.011 0.035 0.087
0.007 0.035 0.093
-0.001 0.033 0.097
0.011 0.037 0.095
0.011 0.037 0.095
0.031 0.041 0.083
0.013 0.037 0.099
0.015 0.037 0.101
0.019 0.037 0.103
0.027 0.039 0.097
0.025 0.041 0.095
0.029 0.043 0.095
0.029 0.041 0.099
0.033 0.039 0.103
0.003 0.009 0.103
0.007 0.015 0.103
0.011 0.017 0.107
0.011 0.015 0.109
0.001 0.023 0.099
-0.003 0.029 0.103
0.001 0.025 0.099
-0.001 0.027 0.101
-0.001 0.031 0.101
0.003 0.033 0.109
0.003 0.021 0.109
0.001 0.031 0.107
0.013 0.029 0.105
0.027 0.027 0.105
0.019 0.025 0.105
0.039 0.031 0.105
0.043 0.031 0.105
0.025 0.037 0.103
0.031 0.043 0.099
0.035 0.039 0.105
0.033 0.035 0.105
0.039 0.043 0.103
0.037 0.045 0.101
-0.013 -0.035 0.037
-0.005 -0.029 0.045
-0.005 -0.027 0.043
-0.003 -0.027 0.043
-0.013 -0.029 0.031
0.001 -0.017 0.037
-0.031 -0.037 0.059
-0.017 -0.039 0.039
-0.017 -0.037 0.035
-0.019 -0.039 0.039
-0.017 -0.039 0.039
-0.025 -0.041 0.047
-0.025 -0.041 0.045
-0.017 -0.037 0.047
-0.019 -0.033 0.053
-0.023 -0.035 0.059
-0.003 -0.027 0.055
-0.005 -0.025 0.057
-0.007 -0.017 0.053
-0.023 -0.021 0.069
-0.013 -0.019 0.073
-0.015 -0.037 0.039
-0.013 -0.035 0.043
-0.011 -0.031 0.039
-0.009 -0.027 0.039
-0.017 -0.033 0.049
-0.009 -0.031 0.049
-0.003 -0.029 0.051
-0.013 -0.033 0.037
-0.003 -0.027 0.033
-0.003 -0.025 0.039
-0.011 -0.029 0.041
-0.003 -0.027 0.043
-0.003 -0.027 0.053
-0.005 -0.021 0.047
-0.003 -0.025 0.047
-0.003 -0.015 0.045
-0.015 -0.013 0.053
-0.013 -0.011 0.055
-0.003 -0.011 0.043
-0.005 -0.007 0.041
-0.005 -0.007 0.043
-0.029 -0.019 0.057
-0.027 -0.019 0.057
-0.005 -0.023 0.053
-0.005 -0.025 0.057
-0.009 -0.027 0.063
-0.005 -0.025 0.059
-0.007 -0.025 0.063
-0.009 -0.021 0.067
-0.007 -0.023 0.061
-0.005 -0.021 0.053
-0.013 -0.011 0.055
-0.013 -0.009 0.057
-0.013 -0.009 0.059
0.001 -0.001 0.059
-0.041 -0.035 0.075
-0.027 -0.021 0.075
-0.037 -0.029 0.075
-0.021 -0.019 0.081
-0.033 -0.027 0.085
-0.033 -0.025 0.083
-0.033 -0.027 0.085
-0.029 -0.017 0.087
-0.031 -0.029 0.069
-0.029 -0.023 0.065
-0.025 -0.021 0.075
-0.021 -0.019 0.073
-0.011 -0.019 0.069
-0.015 -0.011 0.065
-0.011 -0.009 0.079
-0.013 -0.011 0.085
-0.011 -0.009 0.079
-0.001 -0.001 0.067
-0.023 -0.019 0.083
-0.021 -0.019 0.083
-0.017 -0.015 0.087
-0.027 -0.015 0.089
-0.017 -0.013 0.089
-0.023 -0.011 0.091
-0.021 -0.011 0.091
-0.015 -0.015 0.081
-0.011 -0.009 0.081
-0.011 -0.009 0.087
-0.009 -0.007 0.083
-0.013 -0.009 0.089
-0.015 -0.001 0.093
-0.007 -0.001 0.089
0.007 -0.013 0.037
0.009 -0.013 0.035
0.009 -0.013 0.035
0.013 -0.003 0.039
0.017 -0.005 0.035
-0.005 -0.015 0.051
-0.005 -0.007 0.047
-0.011 -0.005 0.055
-0.009 -0.005 0.049
-0.011 0.001 0.049
0.005 0.001 0.053
0.011 0.007 0.057
0.011 0.009 0.057
0.015 0.011 0.055
0.019 0.015 0.055
-0.013 -0.003 0.057
0.001 -0.001 0.059
-0.003 0.001 0.051
-0.001 -0.001 0.057
-0.001 -0.001 0.065
0.005 0.003 0.067
0.007 0.009 0.067
-0.005 -0.001 0.085
-0.003 -0.003 0.073
-0.003 -0.001 0.067
-0.001 -0.001 0.075
0.003 0.011 0.073
0.001 0.009 0.077
-0.011 0.001 0.091
-0.005 0.007 0.085
-0.007 0.003 0.089
0.011 0.011 0.089
0.013 0.013 0.107
0.021 0.001 0.031
0.031 0.011 0.047
0.037 0.007 0.043
0.039 0.007 0.043
0.043 0.009 0.043
0.037 0.009 0.045
0.043 0.011 0.043
0.035 0.025 0.035
0.039 0.007 0.033
0.039 0.007 0.033
0.035 0.021 0.041
0.013 0.001 0.047
0.015 0.005 0.047
0.021 -0.001 0.033
0.025 0.003 0.039
0.023 0.001 0.039
0.031 0.003 0.037
0.027 0.003 0.041
0.031 0.007 0.047
0.029 0.011 0.049
0.031 0.013 0.049
0.039 0.009 0.045
0.043 0.011 0.043
0.005 0.001 0.049
0.013 0.001 0.049
0.013 0.005 0.049
0.013 0.005 0.051
0.011 0.003 0.053
0.003 0.001 0.059
0.009 0.005 0.059
0.007 0.003 0.061
0.011 0.007 0.057
0.009 0.011 0.061
0.011 0.007 0.057
0.011 0.011 0.057
0.025 0.007 0.049
0.011 0.017 0.057
0.019 0.017 0.057
0.027 0.019 0.063
0.029 0.021 0.063
0.009 0.017 0.059
0.021 0.017 0.067
0.019 0.019 0.061
0.019 0.019 0.063
0.027 0.017 0.059
0.031 0.019 0.057
0.033 0.005 0.039
0.039 0.007 0.037
0.039 0.013 0.043
0.037 0.007 0.045
0.037 0.025 0.039
0.037 0.019 0.043
0.035 0.021 0.049
0.033 0.017 0.055
0.039 0.029 0.051
0.035 0.025 0.059
0.031 0.015 0.053
0.037 0.027 0.055
0.027 0.015 0.057
0.033 0.021 0.059
0.035 0.023 0.055
0.035 0.025 0.061
0.035 0.019 0.045
0.037 0.023 0.047
0.037 0.027 0.041
0.037 0.027 0.049
0.037 0.035 0.047
0.037 0.025 0.055
0.039 0.031 0.049
0.037 0.033 0.051
0.029 0.019 0.061
0.027 0.019 0.063
0.033 0.025 0.065
0.031 0.025 0.069
0.035 0.033 0.061
0.035 0.033 0.063
0.037 0.031 0.043
0.037 0.035 0.051
0.035 0.033 0.061
0.005 0.003 0.067
0.005 0.011 0.069
0.005 0.015 0.067
0.011 0.017 0.071
0.015 0.017 0.073
0.021 0.017 0.067
0.025 0.021 0.073
0.031 0.021 0.087
0.027 0.025 0.073
0.009 0.013 0.085
0.009 0.011 0.091
0.015 0.015 0.089
0.019 0.015 0.091
0.015 0.013 0.095
0.029 0.021 0.087
0.027 0.021 0.093
0.023 0.017 0.087
0.021 0.017 0.085
0.025 0.019 0.087
0.035 0.023 0.085
0.025 0.019 0.097
0.027 0.021 0.091
0.027 0.019 0.095
0.027 0.019 0.097
0.033 0.021 0.097
0.037 0.023 0.097
0.033 0.029 0.067
0.041 0.025 0.085
0.047 0.029 0.087
0.033 0.029 0.089
0.037 0.027 0.089
0.039 0.029 0.089
0.031 0.021 0.083
0.029 0.027 0.073
0.027 0.027 0.073
0.027 0.021 0.103
0.029 0.029 0.089
0.037 0.025 0.095
0.037 0.029 0.089
0.035 0.031 0.089
0.043 0.031 0.101
0.043 0.031 0.091
0.047 0.029 0.085
0.047 0.033 0.089
0.047 0.035 0.089
0.045 0.033 0.091
0.047 0.035 0.093
0.007 0.011 0.101
0.013 0.013 0.099
0.015 0.021 0.105
0.013 0.025 0.107
0.011 0.023 0.109
0.025 0.023 0.105
0.027 0.027 0.105
0.033 0.021 0.097
0.041 0.027 0.101
0.029 0.031 0.105
0.041 0.029 0.103
0.033 0.031 0.103
0.037 0.031 0.105
0.043 0.035 0.105
