-0.027 -0.035 0.061
-0.025 -0.035 0.061
-0.023 -0.041 0.047
-0.031 -0.021 0.075
-0.027 -0.037 0.061
-0.025 -0.021 0.069
-0.029 -0.027 0.069
-0.005 -0.029 0.057
-0.005 -0.023 0.061
-0.015 -0.015 0.081
-0.013 -0.021 0.071
-0.021 -0.017 0.087
-0.031 -0.019 0.083
-0.029 -0.017 0.087
-0.031 -0.013 0.089
-0.019 -0.009 0.091
-0.015 -0.013 0.087
0.019 -0.003 0.035
-0.003 -0.003 0.075
-0.007 -0.005 0.085
-0.005 -0.001 0.085
-0.029 -0.017 0.085
-0.003 0.003 0.083
-0.001 0.009 0.101
-0.001 0.019 0.097
-0.003 0.017 0.111
0.021 0.015 0.055
0.039 0.007 0.039
0.029 0.005 0.037
0.023 0.007 0.049
0.011 0.003 0.053
0.031 0.013 0.053
0.031 0.017 0.057
0.035 0.029 0.063
0.023 0.017 0.061
0.023 0.019 0.067
0.005 0.013 0.069
0.003 0.009 0.095
0.013 0.013 0.099
0.025 0.031 0.105
0.035 0.027 0.101
0.039 0.029 0.101
0.015 0.015 0.105
0.013 0.013 0.107
0.007 0.021 0.105
0.017 0.015 0.101
0.027 0.021 0.099
-0.017 -0.033 0.031
-0.003 -0.027 0.047
-0.013 -0.027 0.045
-0.007 -0.029 0.047
-0.005 -0.017 0.049
-0.005 -0.003 0.079
-0.023 -0.009 0.093
0.009 -0.003 0.041
-0.003 0.001 0.051
-0.001 0.001 0.051
-0.011 -0.001 0.069
-0.009 -0.007 0.077
0.001 0.003 0.079
0.015 0.011 0.055
0.029 0.019 0.059
0.023 0.019 0.063
0.033 0.017 0.053
0.007 0.009 0.065
0.029 0.021 0.065
0.047 0.027 0.083
0.031 0.023 0.099
-0.007 0.017 0.069
-0.023 0.009 0.043
-0.025 0.009 0.043
-0.025 0.009 0.043
-0.027 0.007 0.043
-0.005 0.021 0.055
0.009 0.037 0.051
0.003 0.023 0.055
-0.023 0.009 0.041
0.003 0.027 0.047
0.003 0.019 0.063
0.015 0.035 0.069
0.015 0.035 0.071
0.001 0.019 0.065
0.007 0.031 0.075
-0.025 0.003 0.055
-0.033 -0.003 0.073
-0.013 0.015 0.075
0.021 0.041 0.053
-0.033 0.007 0.035
0.003 0.023 0.055
0.017 0.043 0.041
0.035 0.037 0.047
0.027 0.043 0.039
0.023 0.039 0.061
0.017 0.037 0.067
0.001 0.021 0.061
0.027 0.049 0.035
0.035 0.037 0.045
0.011 0.033 0.077
0.005 0.029 0.079
0.005 0.029 0.075
0.003 0.029 0.079
0.011 0.031 0.079
0.029 0.031 0.071
0.029 0.035 0.069
0.025 0.039 0.083
0.021 0.037 0.087
0.021 0.037 0.085
0.025 0.037 0.087
0.039 0.043 0.085
0.041 0.039 0.091
0.025 0.037 0.069
0.033 0.043 0.095
0.029 0.043 0.095
0.005 0.033 0.101
0.003 0.025 0.107
0.035 0.043 0.101
0.041 0.041 0.101
0.037 0.039 0.105
-0.003 -0.025 0.039
-0.003 -0.021 0.043
-0.005 -0.017 0.049
0.031 0.011 0.047
0.037 0.029 0.059
0.029 0.021 0.065
-0.019 -0.019 0.079
-0.017 -0.015 0.069
-0.009 -0.021 0.067
0.003 0.007 0.073
-0.017 -0.013 0.075
-0.011 -0.003 0.091
0.037 0.033 0.049
0.041 0.015 0.039
0.029 0.011 0.051
0.035 0.021 0.037
0.037 0.019 0.041
0.027 0.041 0.039
0.019 0.041 0.045
0.025 0.039 0.061
0.023 0.019 0.073
0.033 0.037 0.081
0.027 0.019 0.089
0.047 0.035 0.089
0.033 0.039 0.093
0.047 0.037 0.085
0.043 0.041 0.089
0.047 0.039 0.087
0.011 0.013 0.109
0.037 0.035 0.107
0.013 0.025 0.107
0.041 0.027 0.099
0.033 0.033 0.097
0.041 0.043 0.103
0.037 0.045 0.099
-0.005 -0.007 0.041
-0.025 -0.039 0.057
-0.005 -0.011 0.049
-0.003 -0.023 0.043
-0.003 -0.023 0.051
-0.007 -0.009 0.049
-0.029 -0.023 0.063
-0.007 -0.017 0.053
-0.005 -0.029 0.061
-0.011 -0.021 0.071
-0.015 -0.007 0.091
-0.013 -0.005 0.091
-0.013 -0.011 0.087
0.001 -0.001 0.067
0.005 0.009 0.091
0.001 0.007 0.095
0.021 0.017 0.095
0.027 0.021 0.103
0.011 0.027 0.109
0.031 0.009 0.047
0.021 0.005 0.047
0.033 0.015 0.047
0.039 0.015 0.043
0.011 0.005 0.053
0.027 0.019 0.063
0.007 0.017 0.063
0.037 0.027 0.055
0.037 0.033 0.047
0.025 0.021 0.073
0.029 0.023 0.071
0.047 0.029 0.083
0.047 0.035 0.087
0.039 0.041 0.099
-0.023 -0.041 0.043
-0.005 -0.015 0.041
-0.003 -0.023 0.037
-0.003 -0.025 0.039
-0.003 -0.025 0.043
-0.003 -0.017 0.045
-0.003 -0.029 0.051
-0.005 -0.021 0.053
-0.011 -0.009 0.053
-0.019 -0.007 0.071
-0.025 -0.019 0.081
0.039 0.007 0.037
0.013 0.001 0.049
0.031 0.005 0.041
0.001 0.001 0.071
-0.003 0.009 0.083
0.033 0.003 0.033
0.041 0.009 0.035
0.039 0.007 0.035
0.025 0.003 0.041
0.031 0.015 0.055
0.035 0.007 0.041
0.035 0.025 0.035
0.037 0.025 0.039
0.037 0.035 0.045
0.019 0.019 0.065
0.023 0.027 0.077
0.015 0.015 0.101
0.023 0.023 0.105
0.029 0.031 0.105
-0.039 -0.023 0.069
-0.031 -0.007 0.089
-0.029 -0.011 0.091
-0.005 -0.029 0.061
-0.029 -0.011 0.091
-0.027 -0.011 0.093
-0.031 -0.009 0.089
-0.017 0.011 0.069
-0.021 0.009 0.077
-0.021 0.007 0.087
-0.009 0.017 0.113
-0.009 0.027 0.097
-0.011 0.017 0.071
0.001 0.027 0.049
0.011 0.027 0.053
-0.017 0.011 0.085
-0.007 0.029 0.089
0.003 0.027 0.101
0.005 0.035 0.103
0.019 0.049 0.039
0.011 0.039 0.053
0.023 0.041 0.057
0.027 0.039 0.065
-0.005 0.013 0.085
-0.005 0.027 0.103
-0.009 0.027 0.097
-0.001 0.017 0.091
-0.005 0.031 0.097
-0.001 0.019 0.097
0.015 0.037 0.101
0.005 0.025 0.115
0.013 0.027 0.107
0.009 0.027 0.111
0.029 0.043 0.097
0.035 0.035 0.107
-0.035 -0.015 0.033
-0.035 -0.025 0.035
-0.031 -0.023 0.041
-0.031 -0.029 0.041
-0.023 -0.025 0.047
-0.025 -0.025 0.045
-0.023 -0.023 0.047
-0.035 0.001 0.037
-0.033 -0.001 0.043
-0.035 -0.023 0.063
-0.027 -0.013 0.051
-0.043 -0.033 0.075
-0.039 -0.021 0.079
-0.035 -0.015 0.071
-0.005 0.025 0.033
-0.013 0.011 0.057
-0.017 0.007 0.089
-0.001 0.015 0.035
-0.009 0.003 0.057
-0.011 0.005 0.057
-0.011 0.017 0.057
0.011 0.023 0.061
-0.007 0.021 0.049
0.007 0.037 0.039
0.011 0.041 0.051
0.003 0.019 0.073
-0.009 0.011 0.087
0.017 0.039 0.093
0.035 0.041 0.089
0.001 0.011 0.099
-0.027 -0.037 0.061
-0.017 -0.017 0.071
-0.003 -0.023 0.051
-0.005 -0.025 0.059
-0.009 -0.007 0.087
-0.009 -0.017 0.053
-0.013 -0.005 0.091
-0.015 -0.013 0.061
-0.027 -0.017 0.087
-0.033 -0.021 0.081
-0.029 -0.013 0.091
-0.011 -0.017 0.071
-0.027 -0.003 0.091
-0.015 -0.009 0.091
-0.023 -0.009 0.093
0.003 0.019 0.109
0.025 0.035 0.103
0.015 0.027 0.105
0.011 0.025 0.111
-0.005 0.003 0.087
0.011 0.023 0.109
0.029 0.015 0.057
0.037 0.007 0.045
0.043 0.043 0.087
0.033 0.039 0.041
0.035 0.025 0.099
0.031 0.023 0.099
0.037 0.025 0.101
0.043 0.031 0.105
0.017 0.037 0.099
0.001 0.031 0.107
0.019 0.017 0.103
0.039 0.043 0.103
-0.013 -0.033 0.033
-0.017 -0.017 0.061
-0.011 -0.017 0.051
-0.039 -0.037 0.087
-0.037 -0.029 0.073
-0.019 -0.019 0.071
-0.035 -0.029 0.077
-0.023 -0.041 0.049
-0.011 -0.025 0.063
-0.003 0.017 0.109
-0.005 -0.025 0.039
0.003 -0.011 0.039
0.007 0.001 0.039
0.011 0.003 0.053
0.023 0.009 0.051
0.007 0.005 0.063
0.033 0.005 0.041
-0.009 -0.029 0.047
0.001 0.003 0.079
0.007 0.017 0.077
0.027 0.019 0.089
0.021 0.019 0.101
-0.017 -0.033 0.031
-0.009 -0.025 0.033
-0.011 -0.029 0.035
-0.013 -0.035 0.039
-0.005 -0.025 0.035
-0.007 -0.031 0.055
-0.035 -0.031 0.069
-0.029 -0.029 0.067
-0.031 -0.019 0.079
-0.037 -0.031 0.087
-0.023 -0.021 0.079
-0.017 -0.015 0.071
-0.017 -0.017 0.067
-0.025 -0.019 0.083
0.017 -0.003 0.037
0.003 0.003 0.039
0.005 0.009 0.095
0.013 -0.003 0.033
0.011 -0.005 0.037
0.013 -0.005 0.035
0.009 -0.001 0.045
0.013 0.001 0.049
0.033 0.003 0.035
0.041 0.007 0.041
0.025 0.005 0.037
0.039 0.007 0.043
0.001 0.001 0.073
0.023 0.021 0.075
0.007 0.015 0.081
0.005 0.009 0.091
0.019 0.017 0.083
0.021 0.017 0.089
0.007 0.011 0.085
0.007 0.011 0.087
0.011 0.011 0.093
0.033 0.035 0.081
0.037 0.029 0.095
0.011 0.013 0.103
0.009 0.015 0.107
0.027 0.021 0.103
-0.023 -0.041 0.051
-0.023 -0.035 0.059
-0.005 -0.023 0.059
-0.005 -0.023 0.061
-0.011 -0.031 0.041
-0.003 -0.027 0.053
-0.003 -0.013 0.043
-0.019 -0.033 0.053
-0.025 -0.029 0.061
-0.013 -0.011 0.085
-0.005 -0.005 0.077
-0.017 -0.013 0.089
0.019 -0.003 0.033
-0.015 -0.003 0.061
0.033 0.007 0.031
0.009 0.001 0.051
0.031 0.017 0.057
0.033 0.005 0.041
0.033 0.017 0.051
0.037 0.033 0.045
0.037 0.033 0.053
0.035 0.031 0.061
0.021 0.019 0.077
0.011 0.013 0.085
0.021 0.019 0.093
0.029 0.027 0.073
0.037 0.025 0.101
0.011 0.023 0.109
0.027 0.021 0.099
0.041 0.027 0.101
0.041 0.029 0.097
0.043 0.031 0.103
-0.033 -0.037 0.051
-0.021 -0.041 0.049
-0.033 -0.033 0.067
-0.025 -0.035 0.061
-0.023 -0.037 0.057
-0.017 -0.017 0.061
-0.041 -0.027 0.081
-0.043 -0.031 0.081
-0.033 -0.009 0.087
-0.013 -0.021 0.071
-0.011 -0.029 0.059
-0.041 -0.029 0.083
-0.033 -0.019 0.085
-0.033 -0.015 0.087
-0.031 -0.007 0.089
-0.021 -0.005 0.095
-0.027 -0.001 0.089
-0.015 0.003 0.095
0.027 0.005 0.045
0.023 0.001 0.039
-0.027 -0.013 0.091
-0.021 -0.007 0.093
-0.025 -0.009 0.095
0.027 0.019 0.065
0.021 0.007 0.049
0.021 0.019 0.077
-0.029 -0.007 0.091
-0.011 0.005 0.093
0.015 0.017 0.069
0.009 0.011 0.093
0.001 0.017 0.091
-0.001 0.009 0.103
0.013 0.013 0.107
0.025 0.019 0.099
0.023 0.029 0.105
0.033 0.037 0.105
-0.035 -0.019 0.035
-0.031 -0.031 0.039
-0.033 -0.037 0.049
-0.033 -0.035 0.049
-0.033 -0.021 0.039
-0.031 -0.009 0.047
-0.031 -0.003 0.053
-0.035 -0.009 0.035
-0.033 -0.005 0.049
-0.035 0.001 0.039
-0.041 -0.025 0.075
-0.039 -0.023 0.083
-0.035 -0.013 0.079
-0.021 0.005 0.073
-0.027 -0.005 0.091
-0.013 0.003 0.061
-0.019 0.011 0.081
-0.005 0.017 0.075
-0.019 0.011 0.083
-0.013 0.009 0.089
-0.005 0.029 0.037
-0.003 0.015 0.037
-0.003 0.029 0.043
0.001 0.021 0.059
0.003 0.033 0.043
0.005 0.029 0.047
0.011 0.041 0.037
0.027 0.039 0.063
0.003 0.017 0.069
-0.009 0.027 0.097
0.007 0.035 0.093
0.019 0.037 0.089
0.011 0.035 0.091
0.037 0.043 0.083
0.001 0.033 0.109
0.037 0.045 0.101
-0.037 -0.027 0.061
-0.029 -0.027 0.055
-0.035 -0.029 0.055
-0.029 0.007 0.043
-0.023 0.005 0.051
-0.037 -0.023 0.067
-0.035 0.003 0.039
-0.015 0.003 0.055
-0.011 0.013 0.055
-0.023 0.007 0.085
-0.009 0.011 0.085
-0.005 0.029 0.095
-0.005 0.029 0.033
-0.001 0.033 0.033
-0.005 0.021 0.063
-0.001 0.019 0.065
0.011 0.041 0.047
0.015 0.043 0.041
0.025 0.041 0.045
0.027 0.041 0.057
0.033 0.039 0.057
0.001 0.017 0.071
0.007 0.029 0.071
0.007 0.031 0.081
0.015 0.033 0.077
-0.005 0.029 0.087
-0.003 0.031 0.095
0.011 0.033 0.073
0.041 0.043 0.087
0.001 0.033 0.109
0.001 0.023 0.105
0.035 0.039 0.105
