-0.023 -0.039 0.053
-0.035 -0.035 0.061
-0.033 -0.035 0.063
-0.003 -0.017 0.047
-0.027 -0.021 0.069
-0.013 -0.005 0.059
0.003 -0.009 0.039
-0.007 -0.005 0.075
-0.005 0.001 0.087
-0.013 -0.007 0.091
-0.013 -0.005 0.091
-0.017 -0.003 0.093
-0.009 0.001 0.089
0.011 0.007 0.057
0.001 0.001 0.053
0.003 0.001 0.047
0.003 0.001 0.053
0.023 0.017 0.061
0.011 0.011 0.093
0.019 0.017 0.095
0.005 0.009 0.095
0.005 0.009 0.097
0.007 0.011 0.091
0.003 0.009 0.103
0.033 0.023 0.087
0.027 0.033 0.105
0.031 0.023 0.099
-0.029 -0.037 0.041
-0.031 -0.039 0.053
-0.035 -0.025 0.033
-0.031 -0.033 0.039
-0.031 -0.035 0.041
-0.023 -0.041 0.045
-0.025 -0.041 0.051
-0.033 -0.015 0.039
-0.031 -0.039 0.055
-0.011 -0.029 0.059
-0.037 -0.025 0.063
-0.035 -0.013 0.069
-0.021 -0.015 0.089
-0.011 -0.009 0.083
-0.033 -0.007 0.047
-0.029 -0.015 0.055
-0.037 -0.031 0.061
-0.033 -0.031 0.069
-0.037 -0.029 0.089
-0.035 -0.033 0.055
-0.029 -0.039 0.055
-0.037 -0.031 0.059
-0.009 -0.031 0.055
-0.027 -0.013 0.051
0.031 0.003 0.037
-0.029 -0.015 0.055
-0.013 -0.021 0.069
0.019 0.017 0.071
0.005 0.009 0.091
0.047 0.029 0.087
0.017 0.017 0.073
0.009 0.011 0.093
0.029 0.023 0.093
0.015 0.015 0.105
0.037 0.023 0.099
-0.005 -0.029 0.045
0.001 -0.019 0.035
-0.007 -0.031 0.049
-0.003 -0.025 0.055
-0.009 -0.031 0.051
-0.005 -0.029 0.057
-0.005 -0.019 0.049
-0.041 -0.031 0.073
-0.033 -0.023 0.075
-0.021 -0.019 0.065
-0.011 -0.005 0.055
-0.011 -0.005 0.053
-0.007 -0.001 0.063
-0.005 0.001 0.057
0.007 0.005 0.063
-0.011 -0.001 0.067
-0.009 -0.007 0.083
-0.003 0.005 0.083
-0.005 0.017 0.107
0.021 -0.001 0.033
0.013 -0.003 0.043
0.035 0.005 0.035
0.033 0.003 0.035
0.039 0.009 0.045
0.035 0.021 0.051
0.011 0.019 0.069
0.017 0.017 0.073
0.023 0.017 0.085
0.027 0.021 0.091
0.025 0.019 0.069
0.027 0.019 0.067
0.033 0.021 0.085
0.047 0.029 0.085
-0.027 0.007 0.041
-0.005 0.025 0.051
0.001 0.027 0.045
0.003 0.027 0.075
-0.003 0.021 0.059
-0.003 0.031 0.093
-0.009 0.027 0.097
0.023 0.041 0.053
0.001 0.025 0.051
-0.001 0.029 0.043
-0.005 0.025 0.045
-0.019 0.005 0.053
-0.003 0.025 0.049
-0.007 0.021 0.057
-0.001 0.023 0.057
-0.015 0.015 0.075
0.023 0.039 0.043
0.021 0.039 0.059
0.017 0.037 0.065
0.007 0.039 0.037
0.031 0.041 0.051
0.025 0.041 0.053
0.035 0.039 0.053
0.025 0.039 0.091
0.015 0.035 0.069
0.021 0.037 0.085
0.031 0.039 0.087
0.021 0.039 0.101
0.035 0.043 0.099
-0.011 -0.029 0.035
-0.003 -0.029 0.055
-0.005 -0.015 0.049
0.029 0.015 0.057
0.031 0.013 0.049
-0.003 -0.015 0.045
-0.013 -0.011 0.053
-0.017 -0.017 0.077
-0.013 -0.007 0.091
0.039 0.025 0.099
0.041 0.009 0.043
0.033 0.029 0.067
0.033 0.039 0.057
0.047 0.037 0.085
0.039 0.029 0.095
0.023 0.039 0.103
0.027 0.041 0.037
0.037 0.029 0.039
0.037 0.023 0.053
0.027 0.041 0.037
0.031 0.039 0.063
0.023 0.023 0.077
0.023 0.019 0.073
0.029 0.027 0.073
0.037 0.023 0.097
0.049 0.033 0.087
0.033 0.043 0.097
0.017 0.017 0.105
0.037 0.037 0.107
0.001 -0.017 0.037
0.003 -0.009 0.039
-0.005 -0.025 0.057
-0.007 -0.017 0.053
-0.005 -0.003 0.069
-0.009 -0.025 0.065
-0.003 -0.003 0.075
-0.009 -0.007 0.077
0.013 -0.001 0.045
0.005 0.003 0.065
0.005 0.009 0.069
0.021 0.017 0.071
-0.011 0.003 0.091
0.003 0.009 0.089
0.009 0.011 0.089
-0.005 0.009 0.087
0.021 0.021 0.105
0.037 0.007 0.045
0.021 0.017 0.071
0.037 0.023 0.045
0.035 0.029 0.063
0.001 0.003 0.077
0.005 0.015 0.067
0.047 0.035 0.093
0.015 0.015 0.107
0.003 0.031 0.105
0.025 0.027 0.105
0.009 0.023 0.113
-0.003 -0.023 0.033
-0.011 -0.031 0.037
-0.003 -0.025 0.045
0.003 -0.007 0.039
-0.023 -0.031 0.057
-0.005 -0.031 0.055
-0.003 -0.023 0.051
-0.005 -0.019 0.051
-0.005 -0.019 0.051
-0.005 -0.019 0.049
-0.029 -0.025 0.067
-0.017 -0.009 0.073
0.003 -0.009 0.039
-0.011 0.001 0.039
-0.011 0.001 0.039
0.031 0.005 0.045
0.017 0.007 0.049
0.009 0.001 0.051
-0.011 0.001 0.091
0.011 0.015 0.105
0.041 0.015 0.033
0.025 0.003 0.037
0.015 -0.001 0.043
0.015 0.005 0.047
0.033 0.029 0.033
0.033 0.015 0.047
0.039 0.017 0.037
0.037 0.029 0.039
0.035 0.023 0.039
0.035 0.027 0.037
0.015 0.015 0.077
0.019 0.017 0.075
0.001 0.007 0.095
0.035 0.023 0.083
0.047 0.031 0.083
0.037 0.023 0.099
-0.031 -0.009 0.047
-0.033 -0.023 0.039
-0.037 -0.023 0.065
-0.033 -0.003 0.081
-0.027 -0.007 0.093
-0.043 -0.029 0.079
-0.037 -0.023 0.085
-0.029 -0.007 0.091
-0.031 -0.009 0.089
-0.013 -0.003 0.091
-0.027 0.003 0.047
-0.003 0.015 0.081
-0.007 0.017 0.075
0.001 0.019 0.075
-0.001 0.021 0.093
0.001 0.025 0.053
-0.001 0.021 0.093
0.005 0.035 0.099
0.011 0.035 0.091
0.013 0.033 0.053
0.025 0.041 0.057
0.003 0.035 0.107
0.017 0.021 0.105
0.017 0.023 0.105
0.023 0.031 0.105
0.025 0.041 0.095
0.027 0.041 0.097
0.033 0.043 0.099
-0.035 -0.023 0.031
-0.035 -0.009 0.037
-0.031 -0.031 0.037
-0.031 -0.031 0.043
-0.035 -0.011 0.037
-0.031 -0.003 0.055
-0.043 -0.035 0.075
-0.035 -0.007 0.071
-0.035 -0.017 0.069
-0.033 -0.007 0.081
-0.031 -0.009 0.089
-0.013 0.003 0.063
-0.005 0.023 0.051
-0.025 0.001 0.075
-0.013 0.015 0.077
-0.011 0.015 0.079
-0.017 0.005 0.045
-0.007 0.013 0.045
-0.009 0.009 0.049
-0.015 0.011 0.061
-0.009 0.017 0.047
0.005 0.031 0.045
0.005 0.037 0.037
0.013 0.041 0.041
0.015 0.049 0.037
0.015 0.035 0.061
0.007 0.027 0.069
0.001 0.021 0.075
0.001 0.023 0.081
-0.005 0.025 0.093
-0.007 0.025 0.097
-0.007 0.027 0.089
0.033 0.039 0.089
0.003 0.009 0.099
0.003 0.013 0.101
-0.005 0.017 0.107
0.003 0.025 0.107
0.003 0.025 0.105
0.003 0.033 0.105
-0.023 -0.031 0.059
-0.029 -0.027 0.043
-0.009 -0.021 0.063
-0.003 -0.025 0.055
-0.003 -0.021 0.037
0.003 0.013 0.101
-0.007 0.001 0.089
-0.027 -0.027 0.059
-0.005 -0.027 0.061
-0.003 -0.029 0.055
-0.021 -0.015 0.089
-0.033 -0.027 0.087
-0.011 -0.021 0.069
-0.019 -0.017 0.085
-0.015 -0.013 0.085
-0.029 -0.013 0.091
-0.013 -0.007 0.091
0.025 0.025 0.105
0.011 0.025 0.109
0.019 0.029 0.105
0.037 0.037 0.107
0.031 0.043 0.099
0.027 0.019 0.097
0.033 0.037 0.105
0.031 0.041 0.049
0.045 0.043 0.085
0.003 0.001 0.069
0.035 0.027 0.101
0.021 0.019 0.103
0.037 0.039 0.105
-0.021 -0.039 0.037
-0.017 -0.037 0.049
-0.005 -0.025 0.035
-0.009 -0.025 0.043
-0.031 -0.037 0.059
-0.029 -0.037 0.059
-0.011 -0.031 0.055
-0.011 -0.025 0.063
0.003 -0.011 0.039
-0.003 -0.025 0.039
-0.009 -0.027 0.045
-0.009 -0.031 0.053
-0.031 -0.037 0.061
-0.017 -0.017 0.061
-0.007 -0.001 0.089
-0.003 0.025 0.093
0.021 -0.001 0.033
0.011 -0.005 0.037
0.021 -0.001 0.037
-0.009 -0.027 0.063
0.031 0.007 0.047
0.029 0.005 0.045
-0.011 -0.025 0.047
0.027 0.011 0.053
0.001 0.001 0.075
0.021 0.019 0.075
0.007 0.011 0.095
0.001 0.007 0.095
0.023 0.019 0.091
0.021 0.017 0.095
0.005 0.009 0.101
0.033 0.031 0.103
0.001 0.019 0.105
-0.023 -0.039 0.039
-0.019 -0.039 0.049
-0.033 -0.029 0.033
-0.027 -0.041 0.045
-0.019 -0.039 0.045
-0.015 -0.035 0.035
-0.019 -0.039 0.045
-0.003 -0.025 0.039
-0.025 -0.035 0.061
-0.013 -0.025 0.063
-0.041 -0.037 0.087
0.005 -0.013 0.039
-0.003 0.001 0.053
-0.003 0.011 0.085
0.021 0.005 0.045
0.015 -0.005 0.035
0.013 0.001 0.049
0.023 0.011 0.053
0.029 0.011 0.051
0.039 0.009 0.045
0.011 0.021 0.065
0.029 0.021 0.067
0.007 0.011 0.087
0.007 0.021 0.107
0.043 0.029 0.101
0.037 0.025 0.095
-0.003 -0.025 0.035
-0.007 -0.025 0.061
-0.011 -0.029 0.043
-0.003 -0.029 0.053
-0.015 -0.013 0.059
-0.023 -0.021 0.067
-0.011 -0.017 0.071
-0.011 -0.017 0.067
-0.011 -0.001 0.053
0.001 -0.001 0.059
0.009 0.011 0.059
0.019 0.001 0.041
0.043 0.011 0.043
0.029 0.005 0.039
0.003 0.001 0.049
0.009 0.003 0.055
0.019 0.017 0.057
0.023 0.017 0.061
0.033 0.013 0.047
0.021 0.019 0.075
0.035 0.023 0.083
0.025 0.019 0.097
0.039 0.025 0.101
0.019 0.027 0.105
0.029 0.027 0.103
-0.021 -0.037 0.055
-0.021 -0.037 0.055
-0.009 -0.031 0.051
-0.033 -0.005 0.047
-0.031 -0.035 0.063
-0.037 -0.029 0.089
-0.043 -0.035 0.087
-0.041 -0.025 0.081
-0.039 -0.025 0.085
-0.011 -0.009 0.087
0.013 -0.003 0.043
0.011 -0.001 0.047
-0.031 -0.007 0.089
-0.019 0.007 0.089
-0.023 -0.021 0.077
0.011 0.003 0.053
0.027 0.019 0.067
0.025 0.013 0.055
0.003 0.017 0.083
0.017 0.015 0.085
0.021 0.017 0.095
0.011 0.023 0.109
0.007 0.031 0.105
0.025 0.025 0.105
-0.003 -0.019 0.041
-0.021 -0.035 0.055
-0.025 -0.039 0.057
0.005 0.003 0.063
0.005 0.007 0.069
-0.001 0.001 0.081
-0.007 -0.005 0.041
-0.007 -0.025 0.063
-0.017 -0.015 0.063
-0.005 -0.027 0.057
-0.033 -0.027 0.087
-0.033 -0.027 0.081
-0.019 -0.005 0.093
-0.031 -0.027 0.073
-0.021 -0.013 0.089
0.015 -0.001 0.043
0.037 0.027 0.089
0.011 0.007 0.057
0.019 0.015 0.087
0.015 0.031 0.105
0.009 0.025 0.113
0.033 0.007 0.045
0.035 0.011 0.045
0.041 0.013 0.037
0.043 0.011 0.043
0.031 0.041 0.053
0.037 0.033 0.043
0.047 0.027 0.083
0.021 0.019 0.103
0.043 0.033 0.101
0.043 0.035 0.103
0.015 0.017 0.107
0.021 0.019 0.103
0.027 0.021 0.099
0.009 0.035 0.103
0.039 0.043 0.103
-0.035 0.007 0.035
-0.033 -0.033 0.043
-0.023 -0.025 0.047
-0.031 -0.001 0.045
-0.035 -0.023 0.063
-0.033 -0.009 0.057
-0.033 -0.005 0.067
-0.043 -0.033 0.083
-0.025 0.005 0.087
-0.015 0.009 0.063
-0.025 0.005 0.079
-0.001 0.009 0.101
0.013 0.033 0.065
0.027 0.041 0.043
0.027 0.041 0.053
0.021 0.039 0.043
0.027 0.041 0.043
-0.007 0.029 0.093
-0.003 0.031 0.089
0.005 0.033 0.087
0.005 0.035 0.097
0.023 0.039 0.091
0.025 0.039 0.091
0.007 0.033 0.085
0.003 0.025 0.105
0.015 0.037 0.101
0.019 0.039 0.101
-0.033 -0.023 0.061
-0.017 0.003 0.037
-0.025 -0.027 0.049
-0.033 -0.003 0.077
-0.019 -0.003 0.067
-0.029 -0.001 0.073
-0.019 0.009 0.085
-0.017 0.007 0.089
-0.019 0.005 0.047
-0.009 0.015 0.047
-0.025 0.005 0.049
-0.019 0.007 0.089
-0.001 0.031 0.099
0.013 0.043 0.039
0.009 0.031 0.051
0.015 0.049 0.037
0.015 0.043 0.049
0.015 0.035 0.057
0.009 0.031 0.069
0.009 0.031 0.073
0.017 0.033 0.077
0.021 0.037 0.089
0.017 0.037 0.091
0.043 0.043 0.087
0.001 0.033 0.107
0.011 0.035 0.097
0.027 0.037 0.099
