-0.005 0.021 0.055
-0.005 0.019 0.069
-0.029 0.001 0.047
-0.025 0.001 0.063
-0.013 0.015 0.059
0.005 0.023 0.055
0.003 0.023 0.055
0.005 0.021 0.057
0.001 0.021 0.059
0.015 0.035 0.063
-0.021 0.003 0.039
0.013 0.041 0.053
0.013 0.033 0.069
0.011 0.031 0.065
0.007 0.031 0.075
-0.029 0.001 0.059
-0.003 0.021 0.057
-0.005 0.021 0.061
-0.027 -0.001 0.075
-0.029 -0.003 0.071
-0.023 0.003 0.091
-0.005 0.029 0.087
0.007 0.031 0.077
-0.017 0.013 0.069
-0.001 0.031 0.095
-0.023 -0.001 0.093
-0.007 0.029 0.097
-0.025 0.003 0.089
0.007 0.033 0.087
-0.031 0.009 0.041
-0.029 0.009 0.037
-0.007 0.027 0.041
-0.001 0.025 0.051
-0.001 0.033 0.035
-0.027 0.003 0.055
-0.003 0.021 0.061
-0.007 0.019 0.065
-0.003 0.025 0.051
0.001 0.027 0.049
-0.001 0.019 0.063
-0.005 0.017 0.071
-0.005 0.019 0.067
-0.027 0.003 0.081
-0.001 0.031 0.087
0.027 0.043 0.039
0.007 0.039 0.035
0.029 0.041 0.051
0.029 0.041 0.045
0.035 0.037 0.041
0.027 0.041 0.053
0.017 0.039 0.057
0.035 0.033 0.063
0.039 0.029 0.049
0.035 0.035 0.039
0.035 0.033 0.063
0.009 0.039 0.035
0.015 0.047 0.039
0.017 0.049 0.039
0.017 0.049 0.039
0.029 0.041 0.051
0.033 0.039 0.041
0.037 0.035 0.053
0.019 0.031 0.079
0.009 0.031 0.071
0.021 0.035 0.073
0.031 0.033 0.069
0.025 0.037 0.081
0.011 0.035 0.097
0.019 0.037 0.097
0.033 0.039 0.087
0.031 0.043 0.099
0.029 0.043 0.095
0.031 0.035 0.089
0.037 0.043 0.085
0.015 0.035 0.071
0.031 0.037 0.065
0.029 0.037 0.067
0.023 0.037 0.087
0.029 0.039 0.081
0.025 0.041 0.095
0.037 0.043 0.085
0.043 0.039 0.091
0.023 0.039 0.101
0.015 0.035 0.105
0.009 0.027 0.109
0.027 0.033 0.103
0.007 0.025 0.113
0.031 0.043 0.097
0.039 0.041 0.105
0.041 0.039 0.105
-0.003 -0.021 0.041
-0.003 -0.021 0.041
-0.003 -0.025 0.035
-0.023 -0.037 0.057
-0.025 -0.033 0.061
-0.011 -0.007 0.053
-0.017 -0.015 0.067
-0.003 -0.023 0.051
-0.003 -0.027 0.055
-0.007 -0.017 0.053
-0.011 -0.031 0.039
-0.003 -0.015 0.043
-0.005 -0.029 0.059
-0.009 -0.019 0.055
-0.011 -0.019 0.067
-0.003 -0.029 0.055
-0.007 -0.027 0.061
-0.009 -0.027 0.063
-0.005 -0.023 0.061
-0.015 -0.005 0.063
-0.003 -0.003 0.075
-0.009 -0.013 0.051
0.001 -0.001 0.065
-0.039 -0.033 0.087
-0.029 -0.027 0.069
-0.011 -0.009 0.081
-0.009 -0.007 0.085
-0.029 -0.029 0.069
-0.011 -0.021 0.071
-0.007 -0.003 0.085
0.001 -0.001 0.071
-0.013 -0.005 0.091
-0.023 -0.009 0.093
-0.019 -0.011 0.091
-0.015 -0.013 0.087
0.013 -0.001 0.045
0.033 0.019 0.049
-0.011 0.001 0.047
0.009 0.003 0.055
0.005 0.001 0.055
0.007 0.001 0.049
0.009 0.005 0.059
0.031 0.015 0.051
0.033 0.023 0.059
0.001 -0.001 0.071
0.005 0.001 0.061
0.005 0.001 0.059
0.005 0.001 0.055
0.003 0.005 0.075
0.001 0.007 0.077
0.003 0.003 0.071
-0.001 -0.001 0.075
-0.001 0.001 0.081
0.015 0.015 0.075
-0.007 0.001 0.089
-0.007 0.003 0.089
-0.005 0.003 0.085
0.005 0.009 0.089
0.027 0.021 0.099
-0.001 0.019 0.111
0.039 0.009 0.045
0.037 0.023 0.041
0.037 0.027 0.049
0.021 0.003 0.043
0.015 0.001 0.043
0.043 0.009 0.041
0.017 0.001 0.041
0.027 0.005 0.043
0.025 0.019 0.069
0.029 0.021 0.067
0.033 0.017 0.055
0.025 0.019 0.065
0.037 0.025 0.039
0.037 0.025 0.043
0.039 0.029 0.049
0.035 0.027 0.061
0.037 0.031 0.051
0.039 0.029 0.047
0.037 0.033 0.047
0.037 0.033 0.041
0.027 0.043 0.037
0.035 0.039 0.053
0.023 0.049 0.039
0.031 0.029 0.069
0.035 0.037 0.059
0.033 0.037 0.061
0.001 0.003 0.075
0.025 0.021 0.073
0.029 0.021 0.089
0.025 0.019 0.069
0.011 0.011 0.089
0.019 0.017 0.101
0.031 0.021 0.087
0.039 0.027 0.095
0.043 0.031 0.091
0.043 0.029 0.101
0.039 0.039 0.097
0.047 0.035 0.091
0.047 0.035 0.091
0.049 0.037 0.093
0.003 0.011 0.103
0.017 0.015 0.101
0.011 0.013 0.109
0.017 0.023 0.105
0.013 0.023 0.107
0.021 0.019 0.103
0.007 0.023 0.115
0.043 0.029 0.101
0.041 0.027 0.099
0.041 0.031 0.097
0.043 0.029 0.101
0.029 0.031 0.105
0.043 0.031 0.105
0.043 0.031 0.101
0.041 0.037 0.103
-0.017 -0.039 0.041
-0.011 -0.027 0.041
-0.031 -0.037 0.059
-0.025 -0.041 0.051
-0.025 -0.041 0.051
-0.025 -0.015 0.049
-0.021 -0.041 0.049
-0.023 -0.041 0.047
-0.021 -0.041 0.049
-0.019 -0.037 0.051
-0.015 -0.033 0.047
-0.003 -0.021 0.037
-0.003 -0.019 0.047
-0.007 -0.031 0.049
-0.003 -0.017 0.045
-0.019 -0.033 0.053
-0.023 -0.033 0.059
-0.029 -0.021 0.063
-0.007 -0.025 0.063
-0.023 -0.017 0.053
-0.019 -0.019 0.071
-0.009 -0.021 0.065
-0.013 -0.007 0.059
-0.037 -0.029 0.073
-0.033 -0.027 0.079
-0.033 -0.027 0.083
-0.029 -0.021 0.079
-0.007 -0.001 0.065
-0.009 -0.007 0.077
-0.019 -0.017 0.081
-0.023 -0.015 0.089
-0.021 -0.007 0.093
0.005 -0.017 0.037
0.003 -0.013 0.037
0.013 -0.005 0.035
0.013 -0.003 0.043
-0.021 -0.019 0.047
-0.011 -0.029 0.059
0.009 0.003 0.055
0.009 0.005 0.057
-0.009 -0.025 0.065
-0.013 -0.009 0.059
-0.015 -0.009 0.065
-0.007 -0.001 0.063
0.001 -0.001 0.061
0.001 -0.001 0.063
0.003 0.001 0.063
-0.011 -0.001 0.069
-0.001 -0.001 0.077
0.001 0.017 0.079
-0.009 0.009 0.091
0.003 0.009 0.097
0.007 0.011 0.095
-0.007 0.015 0.111
0.001 0.017 0.107
0.001 0.019 0.105
-0.001 0.017 0.107
0.025 0.003 0.037
0.019 -0.001 0.037
0.033 0.005 0.039
0.019 0.001 0.041
0.021 0.003 0.043
0.013 0.001 0.049
0.011 0.007 0.057
0.019 0.007 0.049
0.021 0.011 0.053
0.015 0.015 0.055
0.019 0.019 0.061
0.017 0.017 0.069
0.031 0.019 0.057
0.043 0.009 0.043
0.035 0.031 0.061
0.017 0.013 0.055
0.035 0.007 0.045
0.023 0.019 0.071
0.025 0.019 0.069
0.033 0.027 0.067
0.013 0.015 0.079
0.029 0.021 0.065
0.031 0.025 0.067
0.025 0.017 0.085
0.001 0.017 0.081
0.021 0.017 0.083
0.023 0.017 0.087
0.027 0.021 0.099
0.037 0.023 0.097
0.021 0.017 0.091
0.021 0.017 0.097
0.023 0.017 0.097
0.027 0.019 0.089
0.035 0.025 0.087
0.027 0.019 0.097
0.033 0.021 0.097
0.047 0.031 0.089
0.047 0.035 0.091
0.013 0.013 0.107
0.011 0.023 0.111
0.015 0.015 0.105
0.015 0.015 0.107
0.011 0.023 0.107
0.023 0.023 0.105
0.035 0.031 0.105
0.035 0.029 0.101
0.037 0.025 0.101
0.035 0.031 0.105
0.043 0.029 0.101
0.041 0.029 0.103
-0.023 -0.003 0.031
-0.035 -0.035 0.061
-0.031 -0.031 0.035
-0.033 -0.027 0.035
-0.033 -0.021 0.037
-0.035 -0.015 0.035
-0.023 -0.019 0.047
-0.033 -0.021 0.037
-0.033 -0.019 0.039
-0.025 -0.015 0.047
-0.029 -0.011 0.049
-0.035 -0.003 0.039
-0.035 0.001 0.039
-0.031 -0.013 0.045
-0.027 -0.013 0.047
-0.031 -0.003 0.045
-0.031 -0.007 0.051
-0.031 -0.005 0.051
-0.035 -0.013 0.065
-0.011 -0.025 0.051
-0.031 -0.003 0.055
-0.031 -0.001 0.061
-0.031 -0.009 0.053
-0.029 -0.011 0.053
-0.033 -0.017 0.065
-0.035 -0.019 0.069
-0.041 -0.025 0.075
-0.037 -0.013 0.073
-0.035 -0.013 0.079
-0.039 -0.027 0.085
-0.035 -0.019 0.071
-0.035 -0.015 0.069
-0.033 -0.003 0.069
-0.033 -0.003 0.071
-0.031 -0.003 0.075
-0.031 -0.011 0.089
-0.031 -0.007 0.089
-0.025 -0.007 0.095
-0.033 -0.009 0.085
-0.033 -0.007 0.087
-0.031 -0.007 0.089
-0.029 0.003 0.045
-0.025 0.005 0.049
-0.025 0.005 0.047
-0.025 0.009 0.043
-0.021 0.003 0.057
-0.011 0.017 0.053
-0.009 0.019 0.061
-0.023 0.005 0.075
-0.015 0.015 0.075
-0.015 0.015 0.075
-0.019 0.009 0.087
-0.007 0.029 0.087
-0.009 0.017 0.109
-0.007 0.019 0.111
-0.003 0.017 0.037
-0.005 0.029 0.035
-0.003 0.031 0.035
0.005 0.007 0.033
-0.015 0.005 0.047
-0.005 0.021 0.039
0.013 0.031 0.059
-0.007 0.011 0.043
-0.005 0.013 0.041
-0.007 0.015 0.045
0.005 0.029 0.049
0.013 0.029 0.059
0.009 0.039 0.039
0.011 0.041 0.045
0.015 0.047 0.039
0.009 0.039 0.043
0.009 0.037 0.051
-0.015 0.013 0.067
0.001 0.017 0.077
-0.013 0.011 0.087
0.003 0.015 0.085
-0.001 0.017 0.081
-0.001 0.019 0.089
-0.001 0.021 0.089
-0.001 0.019 0.097
0.001 0.023 0.095
0.001 0.033 0.095
-0.005 0.031 0.097
-0.001 0.031 0.085
0.003 0.033 0.087
0.015 0.035 0.071
0.011 0.035 0.087
0.017 0.037 0.083
0.017 0.037 0.087
0.013 0.037 0.093
0.029 0.043 0.095
0.017 0.037 0.085
0.005 0.015 0.099
0.009 0.015 0.105
-0.003 0.021 0.107
-0.001 0.019 0.105
-0.003 0.021 0.107
0.003 0.025 0.105
0.007 0.035 0.101
0.003 0.035 0.105
0.011 0.035 0.101
0.015 0.037 0.101
0.027 0.041 0.097
0.023 0.039 0.097
0.029 0.043 0.097
-0.011 -0.027 0.031
-0.019 -0.039 0.045
-0.015 -0.037 0.043
-0.015 -0.035 0.047
-0.031 -0.031 0.037
-0.029 -0.039 0.043
-0.017 -0.037 0.047
-0.011 -0.029 0.035
-0.005 -0.025 0.035
-0.021 -0.041 0.049
-0.003 -0.029 0.049
-0.019 -0.017 0.061
-0.011 -0.029 0.051
-0.009 -0.029 0.061
-0.043 -0.035 0.077
-0.029 -0.031 0.067
-0.039 -0.031 0.075
-0.029 -0.029 0.069
-0.037 -0.033 0.083
-0.031 -0.019 0.083
-0.029 -0.029 0.069
-0.021 -0.019 0.069
-0.017 -0.015 0.073
-0.017 -0.013 0.075
-0.019 -0.017 0.083
-0.009 -0.007 0.081
-0.005 -0.003 0.081
-0.009 -0.003 0.089
0.013 -0.003 0.039
-0.019 -0.039 0.039
0.003 -0.015 0.037
0.005 -0.013 0.039
0.001 0.003 0.043
-0.019 -0.015 0.049
-0.023 -0.017 0.057
-0.009 0.003 0.053
-0.001 0.001 0.051
-0.005 -0.023 0.059
-0.005 -0.005 0.077
-0.015 -0.013 0.087
-0.007 -0.001 0.089
0.001 0.017 0.083
0.001 0.009 0.093
-0.007 0.025 0.095
0.001 0.009 0.097
0.019 -0.003 0.033
0.019 -0.003 0.033
0.029 0.005 0.033
0.011 -0.003 0.033
0.007 -0.001 0.041
0.015 -0.003 0.041
0.025 0.003 0.037
0.021 -0.001 0.033
0.019 -0.003 0.035
0.025 0.005 0.035
0.005 0.003 0.063
0.015 0.021 0.063
0.017 0.013 0.055
0.041 0.009 0.035
0.041 0.009 0.037
0.039 0.007 0.037
0.029 0.003 0.035
0.031 0.003 0.035
0.033 0.005 0.039
0.033 0.007 0.045
0.001 0.001 0.073
0.011 0.019 0.067
0.023 0.021 0.077
0.023 0.021 0.077
0.027 0.023 0.073
0.003 0.009 0.087
0.005 0.015 0.085
0.015 0.015 0.087
0.003 0.009 0.089
0.005 0.009 0.089
0.023 0.019 0.091
0.029 0.021 0.095
0.029 0.023 0.093
0.033 0.021 0.083
0.049 0.031 0.085
0.033 0.025 0.065
0.021 0.017 0.083
0.025 0.019 0.087
0.041 0.025 0.083
0.043 0.029 0.083
0.005 0.019 0.109
0.009 0.015 0.107
0.013 0.015 0.105
0.017 0.015 0.105
0.025 0.021 0.103
0.037 0.023 0.099
0.039 0.025 0.099
0.033 0.021 0.097
0.029 0.025 0.101
0.039 0.025 0.097
