-0.017 -0.037 0.047
-0.023 -0.031 0.059
-0.001 -0.017 0.037
-0.023 -0.035 0.059
-0.023 -0.035 0.059
-0.025 -0.017 0.055
-0.009 -0.031 0.057
-0.015 -0.013 0.065
-0.015 -0.009 0.065
-0.029 -0.011 0.093
-0.013 -0.011 0.085
-0.015 -0.011 0.065
-0.003 0.001 0.083
-0.009 -0.005 0.087
-0.013 -0.007 0.091
-0.005 0.009 0.087
-0.015 0.003 0.095
0.007 0.001 0.053
-0.001 0.001 0.079
0.007 0.001 0.051
0.027 0.003 0.041
0.009 0.003 0.055
0.005 0.001 0.061
0.005 0.013 0.069
0.019 0.019 0.063
0.037 0.007 0.045
0.039 0.009 0.045
0.037 0.027 0.057
0.001 0.007 0.079
0.021 0.019 0.061
0.013 0.015 0.077
0.019 0.017 0.071
0.019 0.017 0.073
0.001 0.007 0.079
0.003 0.009 0.091
0.025 0.019 0.089
0.023 0.017 0.097
0.019 0.019 0.103
0.041 0.027 0.101
0.001 0.009 0.103
0.033 0.027 0.099
0.031 0.037 0.103
-0.033 -0.033 0.045
-0.031 -0.035 0.045
-0.033 -0.035 0.047
-0.033 -0.037 0.049
-0.033 -0.037 0.049
-0.033 -0.017 0.063
-0.033 -0.033 0.043
-0.027 -0.041 0.053
-0.029 -0.033 0.065
-0.013 -0.027 0.055
-0.013 -0.027 0.059
-0.035 -0.011 0.063
-0.043 -0.035 0.075
-0.033 -0.003 0.043
-0.037 -0.031 0.061
-0.037 -0.027 0.087
-0.025 -0.009 0.095
0.029 0.003 0.035
-0.009 -0.031 0.055
-0.027 -0.013 0.051
-0.027 -0.037 0.061
-0.013 -0.025 0.057
-0.011 -0.023 0.067
-0.013 -0.019 0.073
-0.013 -0.017 0.069
-0.027 -0.021 0.079
-0.011 -0.021 0.071
-0.013 -0.019 0.073
0.039 0.007 0.041
-0.033 -0.013 0.059
-0.013 -0.025 0.063
-0.033 -0.027 0.087
-0.003 0.025 0.091
0.009 0.015 0.105
0.003 0.019 0.107
0.015 0.015 0.103
0.017 0.015 0.105
0.033 0.035 0.105
-0.011 -0.027 0.031
-0.003 -0.027 0.033
-0.031 -0.037 0.061
-0.025 -0.041 0.051
-0.019 -0.039 0.049
-0.013 -0.033 0.033
-0.027 -0.019 0.057
-0.005 -0.013 0.049
-0.041 -0.035 0.083
0.007 -0.015 0.035
-0.011 -0.003 0.053
-0.005 -0.001 0.061
-0.011 -0.003 0.071
0.001 0.009 0.077
0.001 0.007 0.079
-0.005 0.009 0.087
-0.009 0.007 0.091
0.001 0.017 0.081
0.009 0.011 0.087
0.011 0.011 0.093
0.011 0.013 0.095
0.037 0.007 0.033
0.003 0.001 0.045
0.015 -0.001 0.043
0.013 0.001 0.049
0.037 0.007 0.035
0.039 0.007 0.035
0.011 0.017 0.073
0.025 0.025 0.075
0.021 0.017 0.069
0.035 0.023 0.085
0.007 0.011 0.103
0.015 0.015 0.099
0.013 0.013 0.107
0.029 0.025 0.101
0.035 0.023 0.099
-0.031 -0.017 0.041
-0.031 -0.037 0.045
-0.035 -0.013 0.065
-0.025 -0.017 0.045
-0.039 -0.029 0.087
-0.041 -0.023 0.079
-0.033 -0.013 0.059
-0.035 -0.013 0.079
-0.013 -0.023 0.067
-0.017 -0.013 0.089
-0.011 -0.003 0.091
-0.009 0.013 0.047
-0.027 0.003 0.055
-0.011 0.013 0.083
-0.013 0.007 0.093
-0.009 0.007 0.091
-0.007 0.029 0.097
-0.027 0.003 0.085
-0.015 0.003 0.055
-0.031 -0.003 0.083
-0.021 0.007 0.087
-0.031 -0.005 0.087
-0.031 -0.005 0.087
-0.027 -0.005 0.091
-0.019 0.007 0.089
-0.015 0.011 0.085
-0.003 0.013 0.085
0.003 0.017 0.093
-0.005 0.027 0.091
0.007 0.015 0.081
-0.001 0.009 0.095
-0.009 0.027 0.097
-0.011 0.013 0.113
-0.007 0.017 0.113
0.005 0.025 0.115
-0.001 0.025 0.097
-0.005 0.027 0.101
0.011 0.015 0.107
0.001 0.029 0.103
0.005 0.023 0.115
-0.019 0.009 0.073
0.003 0.023 0.055
-0.005 0.019 0.069
0.013 0.033 0.063
-0.023 0.005 0.089
-0.031 -0.001 0.085
-0.013 0.013 0.081
0.005 0.029 0.079
-0.007 0.015 0.077
0.003 0.029 0.081
-0.011 0.017 0.069
-0.019 0.011 0.081
-0.003 0.021 0.109
0.017 0.043 0.041
0.031 0.035 0.035
0.035 0.037 0.053
0.015 0.035 0.071
0.041 0.013 0.043
0.037 0.027 0.053
0.035 0.035 0.061
0.011 0.041 0.039
0.025 0.047 0.039
0.023 0.041 0.051
0.019 0.039 0.059
0.017 0.037 0.061
0.013 0.035 0.091
0.019 0.037 0.091
0.023 0.037 0.087
0.033 0.033 0.065
0.043 0.043 0.087
0.015 0.035 0.091
0.025 0.041 0.095
0.029 0.043 0.095
0.013 0.035 0.101
0.009 0.035 0.103
0.013 0.027 0.107
0.007 0.031 0.105
0.039 0.041 0.099
0.041 0.043 0.101
-0.013 -0.035 0.039
0.013 -0.003 0.043
-0.005 -0.011 0.049
-0.007 -0.019 0.053
-0.003 -0.023 0.051
-0.005 -0.021 0.055
-0.035 -0.031 0.081
-0.013 -0.011 0.087
0.021 0.017 0.091
-0.017 -0.015 0.067
-0.017 -0.015 0.071
-0.011 -0.007 0.089
0.037 0.023 0.099
-0.019 -0.003 0.095
-0.009 -0.007 0.081
-0.007 -0.005 0.085
0.037 0.035 0.047
0.035 0.039 0.053
0.031 0.035 0.067
0.031 0.033 0.069
0.025 0.025 0.091
0.011 0.023 0.109
0.037 0.033 0.041
0.035 0.035 0.061
0.037 0.033 0.041
0.021 0.017 0.071
0.027 0.019 0.067
0.037 0.031 0.097
0.043 0.031 0.091
0.047 0.027 0.083
0.027 0.037 0.069
0.021 0.037 0.069
0.013 0.035 0.089
0.035 0.043 0.095
0.045 0.039 0.085
0.043 0.041 0.083
0.043 0.029 0.101
0.037 0.033 0.107
0.037 0.033 0.107
0.041 0.027 0.101
0.019 0.037 0.103
-0.003 -0.021 0.037
-0.019 -0.041 0.043
-0.003 -0.027 0.047
-0.003 -0.019 0.039
-0.007 -0.017 0.053
-0.019 -0.017 0.057
-0.011 -0.001 0.049
-0.023 -0.021 0.079
-0.007 -0.005 0.083
-0.021 -0.013 0.089
-0.013 -0.011 0.085
0.009 0.003 0.055
0.011 0.015 0.057
0.003 0.015 0.071
0.005 0.009 0.093
0.001 0.017 0.109
-0.007 0.017 0.113
0.037 0.025 0.047
0.027 0.019 0.063
0.035 0.007 0.045
0.035 0.025 0.061
0.037 0.037 0.049
0.005 0.009 0.071
0.005 0.009 0.095
0.025 0.019 0.087
0.039 0.041 0.099
0.017 0.017 0.105
0.017 0.017 0.105
0.013 0.025 0.107
0.025 0.023 0.105
0.041 0.039 0.103
0.005 -0.017 0.035
-0.017 -0.037 0.035
-0.015 -0.013 0.061
-0.015 -0.037 0.037
-0.001 -0.021 0.033
0.001 -0.019 0.033
-0.003 -0.017 0.045
-0.007 -0.027 0.061
-0.011 -0.021 0.069
-0.003 -0.001 0.069
-0.005 -0.005 0.077
-0.013 -0.011 0.087
0.013 0.007 0.055
0.003 0.009 0.073
0.021 -0.001 0.037
0.031 0.003 0.037
0.013 -0.003 0.043
0.009 -0.001 0.045
0.035 0.015 0.045
0.031 0.013 0.049
0.021 0.015 0.055
0.041 0.013 0.039
0.037 0.035 0.045
0.033 0.035 0.063
0.035 0.037 0.059
0.025 0.019 0.069
0.031 0.023 0.067
0.021 0.021 0.079
0.025 0.019 0.083
0.031 0.029 0.069
0.031 0.021 0.087
0.029 0.023 0.093
0.039 0.043 0.081
0.047 0.037 0.087
0.033 0.039 0.093
0.021 0.019 0.103
0.039 0.025 0.099
-0.023 -0.003 0.031
-0.037 -0.027 0.061
-0.035 -0.007 0.063
-0.025 -0.019 0.043
-0.023 -0.021 0.045
-0.023 -0.025 0.047
-0.035 -0.011 0.037
-0.035 -0.011 0.037
-0.033 -0.005 0.043
-0.033 -0.005 0.049
-0.033 -0.023 0.061
-0.039 -0.021 0.077
-0.035 -0.025 0.087
-0.029 -0.001 0.075
-0.015 0.001 0.067
-0.025 -0.005 0.093
-0.027 -0.001 0.089
-0.027 -0.003 0.091
-0.035 0.007 0.033
-0.029 0.007 0.043
-0.025 0.009 0.043
-0.019 0.001 0.071
-0.017 0.013 0.079
-0.027 0.003 0.087
-0.011 0.011 0.053
-0.013 0.005 0.059
-0.011 0.017 0.055
0.007 0.031 0.049
0.009 0.039 0.043
-0.015 0.015 0.075
-0.003 0.015 0.081
0.009 0.031 0.069
0.003 0.023 0.075
-0.007 0.029 0.089
0.023 0.039 0.091
0.023 0.041 0.093
0.017 0.037 0.085
0.031 0.039 0.087
0.003 0.025 0.101
-0.031 -0.027 0.031
-0.013 -0.033 0.033
-0.019 -0.039 0.037
-0.023 -0.037 0.035
-0.031 -0.039 0.055
-0.017 -0.037 0.049
-0.033 -0.017 0.039
-0.035 -0.035 0.061
-0.037 -0.031 0.063
-0.031 -0.031 0.035
-0.013 -0.035 0.039
-0.005 -0.025 0.041
-0.023 -0.039 0.039
-0.033 -0.033 0.051
-0.027 -0.037 0.059
-0.029 -0.033 0.065
-0.011 -0.029 0.051
-0.033 -0.033 0.067
-0.029 -0.031 0.067
-0.011 -0.021 0.051
-0.017 -0.017 0.061
-0.013 -0.009 0.077
-0.013 -0.005 0.073
-0.027 -0.011 0.093
0.009 -0.001 0.045
-0.031 -0.015 0.043
-0.019 -0.019 0.075
-0.015 -0.013 0.077
-0.003 0.025 0.089
-0.011 -0.031 0.041
0.003 -0.011 0.039
0.023 0.001 0.035
0.007 -0.015 0.037
0.005 0.003 0.063
0.029 0.013 0.055
0.011 0.015 0.075
-0.001 -0.001 0.069
0.005 0.017 0.077
0.021 0.017 0.073
0.027 0.019 0.085
0.025 0.019 0.083
0.033 0.025 0.089
0.029 0.021 0.097
0.045 0.035 0.093
0.003 0.009 0.101
-0.001 0.009 0.101
0.001 0.009 0.101
0.037 0.025 0.101
0.043 0.031 0.105
-0.027 -0.037 0.039
-0.011 -0.029 0.033
-0.013 -0.023 0.047
-0.017 -0.037 0.035
0.001 -0.017 0.037
-0.003 -0.029 0.047
-0.021 -0.019 0.063
-0.035 -0.031 0.069
-0.033 -0.031 0.069
-0.037 -0.031 0.079
-0.025 -0.017 0.087
-0.013 -0.009 0.089
0.005 -0.017 0.037
0.005 -0.017 0.033
0.001 -0.001 0.059
-0.001 -0.001 0.077
0.001 0.009 0.093
0.015 -0.003 0.031
0.015 -0.005 0.033
0.003 0.001 0.061
0.005 0.003 0.063
0.019 0.007 0.049
0.007 0.005 0.063
0.041 0.009 0.037
0.039 0.007 0.043
0.035 0.025 0.061
0.017 -0.001 0.039
0.023 0.001 0.037
0.029 0.011 0.051
0.017 0.017 0.075
0.011 0.013 0.085
0.005 0.009 0.089
0.031 0.023 0.095
0.015 0.015 0.091
0.045 0.029 0.089
0.015 0.015 0.101
0.017 0.015 0.105
0.023 0.019 0.101
-0.035 -0.015 0.037
-0.031 -0.009 0.055
-0.031 -0.003 0.057
-0.037 -0.027 0.067
-0.041 -0.023 0.077
-0.033 -0.003 0.071
-0.039 -0.023 0.083
-0.033 -0.013 0.085
-0.033 -0.005 0.079
-0.019 0.011 0.075
-0.033 -0.005 0.085
-0.025 -0.005 0.093
-0.023 0.009 0.043
-0.013 0.009 0.055
-0.007 0.021 0.061
-0.019 0.009 0.071
-0.013 0.011 0.085
-0.019 0.005 0.091
-0.003 0.031 0.097
-0.005 0.025 0.035
-0.001 0.033 0.037
0.007 0.039 0.035
-0.007 0.019 0.049
-0.011 0.017 0.061
0.011 0.025 0.061
0.007 0.037 0.041
0.015 0.035 0.067
0.009 0.039 0.035
0.011 0.041 0.037
0.023 0.041 0.045
0.021 0.039 0.059
0.003 0.021 0.071
0.011 0.033 0.077
-0.001 0.021 0.085
0.007 0.035 0.093
0.017 0.037 0.097
0.023 0.037 0.087
-0.007 0.029 0.103
0.009 0.035 0.099
0.015 0.035 0.105
0.025 0.037 0.099
0.029 0.037 0.101
-0.033 -0.033 0.051
-0.029 -0.027 0.055
-0.033 -0.005 0.049
-0.033 0.007 0.039
-0.031 -0.001 0.055
-0.025 -0.001 0.065
-0.027 -0.003 0.071
-0.029 -0.003 0.067
-0.019 0.009 0.071
-0.017 0.013 0.071
-0.027 -0.003 0.091
-0.027 0.001 0.089
-0.025 0.007 0.045
-0.015 0.005 0.043
-0.007 0.025 0.039
-0.005 0.029 0.035
-0.013 0.003 0.049
-0.011 0.017 0.073
-0.025 0.005 0.083
-0.007 0.029 0.087
-0.003 0.031 0.101
0.005 0.035 0.043
0.005 0.037 0.037
-0.007 0.015 0.077
0.019 0.033 0.077
0.003 0.031 0.083
0.001 0.033 0.095
0.019 0.039 0.095
0.027 0.037 0.069
0.005 0.033 0.095
0.031 0.035 0.089
0.023 0.041 0.093
0.033 0.039 0.087
0.043 0.043 0.085
0.043 0.043 0.085
-0.003 0.031 0.099
0.007 0.027 0.111
0.013 0.037 0.099
0.025 0.037 0.099
0.035 0.037 0.107
