0.007 0.037 0.049
-0.003 0.029 0.041
0.003 0.023 0.055
-0.001 0.021 0.059
0.001 0.021 0.059
0.001 0.019 0.063
-0.013 0.017 0.069
-0.021 0.005 0.047
-0.007 0.021 0.057
0.003 0.027 0.047
0.007 0.029 0.051
-0.011 0.017 0.063
-0.013 0.017 0.067
-0.011 0.017 0.069
-0.011 0.017 0.067
0.015 0.035 0.069
0.001 0.021 0.061
0.003 0.017 0.065
0.011 0.031 0.063
0.011 0.031 0.063
-0.021 0.005 0.053
-0.027 0.001 0.059
-0.001 0.021 0.061
-0.007 0.019 0.065
-0.007 0.019 0.065
-0.027 -0.003 0.069
-0.021 0.009 0.077
-0.031 -0.001 0.077
-0.027 0.001 0.089
-0.013 0.015 0.075
-0.007 0.015 0.077
-0.011 0.017 0.073
0.007 0.031 0.081
0.009 0.033 0.083
-0.019 0.009 0.087
-0.005 0.029 0.093
-0.001 0.031 0.095
-0.021 -0.001 0.093
-0.003 0.031 0.097
-0.005 0.031 0.097
0.005 0.033 0.091
0.003 0.033 0.095
0.005 0.033 0.087
0.021 0.041 0.055
0.015 0.041 0.053
0.011 0.031 0.065
-0.031 0.009 0.041
-0.001 0.025 0.045
-0.003 0.021 0.059
0.003 0.019 0.063
-0.011 0.017 0.057
-0.005 0.025 0.053
-0.007 0.021 0.055
-0.005 0.025 0.051
-0.019 0.011 0.077
-0.017 0.013 0.077
0.003 0.031 0.083
-0.003 0.019 0.065
-0.021 0.009 0.081
-0.019 0.009 0.087
-0.009 0.027 0.095
0.003 0.033 0.093
-0.009 0.013 0.081
-0.003 0.031 0.089
0.003 0.031 0.085
0.005 0.031 0.085
0.001 0.033 0.093
-0.009 0.017 0.113
0.015 0.047 0.039
0.015 0.041 0.055
0.023 0.041 0.057
0.037 0.035 0.055
0.011 0.041 0.037
0.017 0.037 0.059
0.029 0.039 0.061
0.007 0.025 0.053
0.003 0.019 0.063
0.017 0.037 0.063
0.015 0.035 0.059
0.031 0.039 0.063
0.041 0.013 0.043
0.039 0.009 0.045
0.037 0.019 0.035
0.007 0.037 0.045
0.011 0.041 0.049
0.023 0.047 0.041
0.019 0.051 0.037
0.027 0.041 0.041
0.033 0.039 0.047
0.009 0.031 0.071
0.015 0.033 0.075
0.007 0.031 0.075
0.007 0.031 0.077
0.027 0.033 0.071
0.029 0.033 0.071
0.027 0.031 0.073
0.035 0.041 0.087
0.031 0.041 0.093
0.033 0.033 0.089
0.033 0.031 0.067
0.039 0.043 0.087
0.043 0.043 0.087
0.041 0.043 0.085
0.049 0.033 0.087
0.037 0.043 0.097
0.037 0.043 0.097
0.011 0.033 0.077
0.023 0.039 0.065
0.003 0.033 0.091
0.029 0.043 0.095
0.039 0.043 0.085
0.039 0.043 0.085
0.037 0.041 0.095
0.011 0.031 0.105
0.017 0.033 0.105
0.015 0.017 0.107
0.015 0.035 0.105
0.007 0.035 0.105
0.025 0.037 0.103
0.025 0.033 0.105
0.027 0.033 0.103
0.027 0.033 0.105
0.025 0.033 0.105
0.023 0.033 0.105
0.041 0.033 0.099
0.037 0.039 0.105
0.003 0.033 0.101
0.017 0.037 0.103
0.021 0.037 0.103
0.023 0.039 0.103
0.025 0.037 0.101
0.025 0.037 0.103
0.031 0.043 0.097
-0.015 -0.035 0.035
-0.017 -0.039 0.039
-0.017 -0.037 0.049
-0.019 -0.039 0.047
-0.013 -0.033 0.035
-0.017 -0.035 0.049
-0.017 -0.033 0.049
-0.029 -0.039 0.057
-0.025 -0.037 0.059
-0.011 -0.003 0.051
-0.023 -0.031 0.057
-0.029 -0.025 0.061
-0.011 -0.021 0.071
-0.017 -0.013 0.071
-0.015 -0.009 0.065
-0.005 -0.019 0.043
-0.003 -0.027 0.055
-0.003 -0.025 0.055
-0.005 -0.019 0.051
-0.003 -0.023 0.051
-0.003 -0.021 0.045
-0.005 -0.017 0.049
-0.003 -0.019 0.041
-0.005 -0.017 0.043
-0.005 -0.021 0.047
-0.003 -0.011 0.041
-0.011 -0.003 0.051
-0.011 -0.005 0.053
-0.013 -0.009 0.055
0.003 -0.013 0.037
-0.007 -0.005 0.045
-0.005 -0.007 0.041
-0.005 -0.027 0.059
-0.011 -0.021 0.069
-0.029 -0.023 0.063
-0.011 -0.017 0.063
-0.005 -0.031 0.051
-0.003 -0.029 0.053
-0.003 -0.029 0.055
-0.003 -0.003 0.071
0.001 -0.001 0.061
-0.043 -0.037 0.081
-0.039 -0.035 0.087
-0.039 -0.033 0.087
-0.033 -0.029 0.071
-0.013 -0.019 0.073
-0.029 -0.025 0.069
-0.031 -0.025 0.071
-0.017 -0.017 0.075
-0.017 -0.011 0.071
-0.015 -0.009 0.075
0.001 -0.001 0.069
-0.015 -0.013 0.087
-0.013 -0.007 0.091
-0.015 -0.007 0.091
0.007 -0.013 0.037
0.017 -0.005 0.035
0.017 -0.001 0.039
-0.001 0.001 0.053
0.023 0.007 0.049
0.013 0.005 0.049
0.035 0.023 0.057
0.001 -0.001 0.063
0.001 -0.001 0.071
0.005 0.001 0.061
0.007 0.011 0.063
0.009 0.013 0.059
0.007 0.017 0.063
0.005 0.017 0.067
-0.003 0.001 0.083
-0.005 0.003 0.085
-0.001 0.013 0.079
0.007 0.011 0.085
-0.007 -0.001 0.089
0.011 0.011 0.089
0.023 0.019 0.091
0.029 0.023 0.103
0.021 0.021 0.105
0.023 0.021 0.103
0.017 0.025 0.105
0.001 0.017 0.109
0.035 0.007 0.043
0.037 0.007 0.043
0.033 0.015 0.047
0.035 0.023 0.037
0.039 0.009 0.045
0.013 0.001 0.049
0.013 0.001 0.045
0.019 0.007 0.049
0.033 0.021 0.059
0.035 0.021 0.039
0.037 0.027 0.043
0.031 0.021 0.063
0.027 0.019 0.067
0.033 0.015 0.047
0.041 0.015 0.037
0.037 0.031 0.053
0.037 0.029 0.057
0.037 0.031 0.045
0.037 0.031 0.045
0.023 0.045 0.041
0.021 0.051 0.037
0.033 0.033 0.065
0.033 0.035 0.063
0.033 0.039 0.055
0.031 0.039 0.063
0.037 0.033 0.043
0.037 0.033 0.057
0.005 0.013 0.067
0.001 0.001 0.075
0.019 0.017 0.071
0.027 0.023 0.073
0.019 0.017 0.073
0.031 0.023 0.067
0.047 0.027 0.085
0.009 0.011 0.095
0.017 0.015 0.097
0.031 0.021 0.083
0.041 0.027 0.101
0.039 0.025 0.097
0.047 0.029 0.087
0.047 0.027 0.085
0.029 0.037 0.067
0.027 0.035 0.071
0.031 0.033 0.069
0.047 0.029 0.083
0.041 0.029 0.097
0.033 0.037 0.093
0.047 0.037 0.087
0.047 0.035 0.093
0.045 0.035 0.093
0.011 0.013 0.103
0.015 0.015 0.107
0.015 0.031 0.105
0.039 0.031 0.105
0.037 0.033 0.107
0.039 0.041 0.099
0.041 0.039 0.105
-0.003 -0.025 0.045
-0.019 -0.039 0.037
-0.023 -0.041 0.043
-0.019 -0.033 0.053
-0.023 -0.017 0.053
-0.015 -0.031 0.047
-0.013 -0.031 0.045
-0.013 -0.027 0.045
-0.005 -0.031 0.053
-0.013 -0.031 0.045
-0.015 -0.031 0.047
-0.013 -0.029 0.045
-0.009 -0.031 0.051
-0.017 -0.027 0.047
-0.011 -0.029 0.051
-0.027 -0.013 0.047
-0.023 -0.017 0.051
-0.013 -0.027 0.057
0.001 -0.011 0.039
-0.003 -0.015 0.045
-0.025 -0.031 0.061
-0.023 -0.017 0.057
-0.005 -0.027 0.057
-0.003 -0.025 0.055
-0.011 -0.025 0.065
-0.005 -0.017 0.051
-0.035 -0.029 0.077
-0.025 -0.021 0.079
-0.035 -0.031 0.083
-0.027 -0.029 0.065
-0.025 -0.021 0.067
-0.019 -0.019 0.069
-0.019 -0.017 0.073
-0.019 -0.019 0.079
-0.011 -0.023 0.067
-0.019 -0.017 0.085
-0.027 -0.013 0.091
-0.017 -0.001 0.095
-0.007 -0.005 0.083
-0.013 -0.007 0.091
0.009 -0.011 0.033
0.013 -0.005 0.035
0.013 -0.003 0.041
0.011 -0.001 0.047
-0.007 -0.031 0.057
-0.009 -0.029 0.061
-0.011 -0.009 0.053
-0.003 -0.015 0.047
-0.007 -0.009 0.049
0.005 0.001 0.053
0.003 0.001 0.055
-0.011 -0.017 0.071
-0.001 0.001 0.053
-0.007 0.001 0.055
0.005 0.003 0.063
0.013 0.001 0.049
-0.009 -0.005 0.073
-0.003 0.003 0.083
-0.003 0.005 0.083
-0.009 0.001 0.089
-0.003 0.007 0.083
-0.005 0.009 0.087
-0.015 0.001 0.093
-0.015 0.003 0.095
0.005 0.009 0.101
0.007 0.011 0.103
-0.005 0.015 0.109
0.017 -0.001 0.039
0.015 -0.001 0.043
0.017 0.001 0.041
0.037 0.007 0.045
0.029 0.005 0.039
0.019 0.003 0.043
0.021 0.003 0.043
0.019 0.003 0.043
0.013 0.009 0.055
0.027 0.003 0.041
0.011 0.007 0.057
0.031 0.013 0.051
0.007 0.009 0.067
0.007 0.013 0.063
0.019 0.017 0.057
0.031 0.019 0.057
0.043 0.009 0.043
0.043 0.009 0.043
0.037 0.029 0.055
0.037 0.027 0.057
0.025 0.017 0.057
0.031 0.007 0.047
0.031 0.013 0.049
0.035 0.021 0.047
0.029 0.013 0.055
0.029 0.015 0.057
0.037 0.023 0.051
0.013 0.019 0.057
0.015 0.021 0.057
0.029 0.019 0.061
0.037 0.031 0.053
0.033 0.037 0.063
0.005 0.003 0.065
0.003 0.011 0.073
0.001 0.009 0.077
0.011 0.015 0.079
0.015 0.017 0.069
0.015 0.015 0.075
0.019 0.017 0.083
0.017 0.017 0.075
0.011 0.013 0.099
0.021 0.017 0.085
0.023 0.017 0.087
0.029 0.019 0.085
0.031 0.021 0.087
0.025 0.019 0.091
0.023 0.019 0.091
0.047 0.027 0.083
0.045 0.027 0.085
0.031 0.029 0.069
0.031 0.031 0.069
0.017 0.015 0.097
0.025 0.019 0.089
0.027 0.019 0.095
0.037 0.025 0.101
0.045 0.033 0.091
0.009 0.011 0.099
0.009 0.013 0.103
0.013 0.015 0.103
0.015 0.015 0.103
0.009 0.015 0.109
0.015 0.015 0.107
0.029 0.023 0.103
0.023 0.023 0.105
0.021 0.025 0.105
0.007 0.023 0.115
0.011 0.013 0.103
0.035 0.031 0.103
0.041 0.029 0.103
-0.027 -0.007 0.033
-0.027 -0.035 0.037
-0.031 -0.035 0.045
-0.033 -0.033 0.045
-0.031 -0.039 0.051
-0.035 -0.035 0.059
-0.033 -0.023 0.061
-0.033 -0.017 0.063
-0.035 -0.013 0.063
-0.025 -0.015 0.049
-0.031 -0.027 0.041
-0.029 -0.029 0.047
-0.033 -0.001 0.043
-0.027 -0.027 0.051
-0.033 -0.023 0.061
-0.037 -0.025 0.065
-0.029 -0.025 0.057
-0.029 -0.017 0.057
-0.033 -0.017 0.063
-0.031 -0.011 0.055
-0.033 -0.015 0.061
-0.033 -0.009 0.059
-0.031 -0.011 0.055
-0.037 -0.013 0.071
-0.035 -0.017 0.079
-0.035 -0.015 0.081
-0.035 -0.015 0.069
-0.035 -0.015 0.075
-0.035 -0.007 0.071
-0.035 -0.005 0.071
-0.029 -0.001 0.075
-0.033 -0.011 0.083
-0.033 -0.009 0.087
-0.027 -0.003 0.091
-0.033 -0.011 0.041
-0.029 0.003 0.043
-0.029 0.005 0.043
-0.035 0.003 0.035
-0.031 0.007 0.041
-0.003 0.009 0.039
-0.005 0.013 0.039
-0.009 0.015 0.047
-0.007 0.023 0.039
-0.005 0.029 0.033
-0.005 0.025 0.045
-0.023 0.003 0.059
-0.009 0.019 0.065
-0.009 0.019 0.065
-0.017 0.003 0.069
-0.017 0.013 0.077
-0.017 0.011 0.085
-0.007 0.029 0.087
-0.003 0.025 0.091
-0.001 0.013 0.035
-0.001 0.015 0.035
0.001 0.021 0.033
-0.005 0.021 0.039
-0.025 0.009 0.043
-0.003 0.017 0.037
-0.007 0.007 0.047
-0.017 0.005 0.045
-0.007 0.011 0.043
-0.007 0.015 0.043
-0.001 0.017 0.033
-0.007 0.027 0.037
0.003 0.031 0.043
-0.001 0.031 0.039
-0.013 0.015 0.059
-0.017 0.009 0.067
-0.011 0.017 0.057
-0.011 0.017 0.059
-0.011 0.013 0.055
-0.001 0.023 0.057
-0.007 0.021 0.047
0.013 0.033 0.063
0.015 0.047 0.037
0.007 0.037 0.043
0.017 0.051 0.037
0.017 0.039 0.057
-0.015 0.015 0.067
-0.017 0.013 0.071
0.005 0.021 0.069
0.003 0.027 0.079
-0.001 0.019 0.085
-0.001 0.031 0.087
-0.001 0.021 0.089
-0.001 0.031 0.087
0.009 0.031 0.069
0.023 0.039 0.065
0.001 0.033 0.091
0.011 0.035 0.089
0.017 0.037 0.087
0.001 0.011 0.097
0.005 0.015 0.101
0.003 0.021 0.103
-0.007 0.029 0.103
0.001 0.031 0.103
0.003 0.025 0.107
0.003 0.023 0.101
0.003 0.025 0.105
-0.001 0.033 0.097
0.007 0.035 0.101
0.013 0.037 0.099
0.017 0.037 0.103
0.029 0.039 0.099
