-0.031 -0.037 0.061
-0.027 -0.037 0.061
-0.037 -0.031 0.061
-0.033 -0.029 0.071
-0.019 -0.021 0.047
-0.003 -0.025 0.055
-0.011 -0.031 0.055
-0.029 -0.021 0.079
-0.029 -0.025 0.069
-0.009 -0.025 0.065
-0.013 -0.017 0.073
-0.039 -0.037 0.087
-0.037 -0.033 0.085
-0.039 -0.029 0.087
-0.007 -0.005 0.079
-0.007 -0.005 0.083
-0.005 -0.001 0.085
0.007 -0.013 0.037
-0.031 -0.019 0.079
-0.013 -0.007 0.059
-0.005 -0.001 0.065
-0.021 -0.017 0.087
-0.025 -0.009 0.095
-0.021 -0.007 0.093
-0.017 -0.001 0.095
-0.001 0.001 0.081
-0.027 -0.007 0.093
-0.001 0.009 0.097
-0.001 0.009 0.101
0.021 0.005 0.047
0.021 0.011 0.053
0.035 0.007 0.041
0.007 0.015 0.063
0.011 0.015 0.079
0.019 0.017 0.077
0.007 0.011 0.091
0.001 0.011 0.077
0.009 0.011 0.099
0.021 0.021 0.105
0.031 0.021 0.097
0.029 0.023 0.103
0.015 0.021 0.105
0.027 0.023 0.103
0.025 0.021 0.103
0.019 0.021 0.105
0.045 0.035 0.093
0.035 0.025 0.099
0.001 0.017 0.109
0.005 0.019 0.109
0.031 0.029 0.101
0.019 0.025 0.105
0.019 0.037 0.103
-0.027 -0.041 0.053
-0.019 -0.041 0.043
-0.015 -0.037 0.041
-0.029 -0.041 0.049
-0.023 -0.035 0.033
-0.013 -0.033 0.033
-0.021 -0.039 0.051
-0.005 -0.029 0.059
-0.005 -0.029 0.061
-0.015 -0.007 0.063
-0.043 -0.035 0.075
-0.033 -0.031 0.069
-0.035 -0.031 0.085
-0.031 -0.023 0.071
-0.019 -0.019 0.065
-0.017 -0.015 0.079
-0.023 -0.019 0.081
-0.019 -0.017 0.083
0.023 0.001 0.035
-0.009 -0.025 0.035
-0.003 -0.027 0.047
0.013 -0.003 0.043
-0.005 0.001 0.055
-0.007 0.015 0.109
-0.003 0.017 0.107
0.035 0.007 0.033
0.033 0.003 0.035
0.025 0.003 0.041
0.035 0.005 0.035
0.007 0.011 0.063
0.009 0.021 0.063
0.041 0.015 0.037
0.043 0.011 0.043
0.037 0.025 0.049
0.035 0.007 0.039
0.031 0.013 0.051
0.035 0.031 0.037
0.013 0.021 0.065
0.019 0.019 0.065
0.015 0.015 0.075
0.035 0.023 0.083
0.041 0.025 0.081
0.021 0.017 0.073
0.015 0.015 0.089
0.009 0.013 0.103
0.013 0.015 0.105
0.011 0.023 0.109
0.039 0.025 0.101
0.015 0.015 0.107
0.043 0.035 0.103
-0.039 -0.023 0.069
-0.033 -0.029 0.039
-0.023 -0.017 0.047
-0.041 -0.027 0.077
-0.033 -0.007 0.041
-0.027 -0.013 0.047
-0.013 -0.021 0.067
-0.033 -0.005 0.083
-0.027 -0.017 0.087
-0.025 -0.011 0.093
-0.033 -0.007 0.087
-0.007 0.025 0.037
-0.005 0.029 0.037
-0.011 0.007 0.055
-0.031 -0.001 0.085
-0.021 0.009 0.085
-0.009 0.011 0.087
-0.003 0.023 0.055
-0.031 -0.005 0.087
-0.025 -0.005 0.093
-0.029 -0.005 0.089
0.013 0.029 0.057
-0.001 0.019 0.079
-0.001 0.017 0.081
-0.007 0.027 0.089
0.003 0.013 0.089
0.021 0.023 0.105
0.015 0.037 0.101
0.009 0.033 0.105
0.007 0.015 0.103
0.009 0.015 0.105
-0.001 0.025 0.047
-0.003 0.025 0.049
-0.019 0.005 0.051
-0.007 0.021 0.057
0.003 0.027 0.047
-0.001 0.025 0.045
-0.027 0.003 0.049
0.015 0.043 0.051
0.007 0.027 0.051
-0.025 0.005 0.081
-0.017 0.011 0.085
0.007 0.031 0.077
-0.029 0.001 0.085
0.019 0.043 0.049
0.017 0.041 0.053
0.005 0.035 0.045
-0.019 0.005 0.049
-0.009 0.019 0.067
-0.019 0.009 0.087
-0.009 0.027 0.095
0.023 0.045 0.041
0.029 0.041 0.043
0.037 0.035 0.043
0.003 0.035 0.039
0.023 0.047 0.041
0.017 0.037 0.067
0.035 0.037 0.057
0.035 0.029 0.061
0.021 0.049 0.039
0.021 0.039 0.059
0.005 0.029 0.079
0.009 0.031 0.079
0.023 0.037 0.081
0.015 0.035 0.089
0.031 0.039 0.087
0.031 0.033 0.089
0.021 0.037 0.089
0.039 0.043 0.085
0.043 0.039 0.091
-0.011 -0.031 0.039
-0.003 -0.025 0.049
-0.005 -0.029 0.057
-0.017 -0.015 0.063
0.009 -0.011 0.035
0.031 0.017 0.057
-0.009 -0.021 0.065
-0.007 -0.009 0.049
-0.011 -0.007 0.089
-0.011 -0.017 0.071
0.047 0.029 0.083
-0.013 -0.009 0.089
0.037 0.011 0.045
0.037 0.029 0.059
0.031 0.041 0.051
0.033 0.027 0.067
0.035 0.043 0.095
0.031 0.031 0.033
0.041 0.013 0.033
0.037 0.019 0.033
0.041 0.013 0.041
0.033 0.013 0.047
0.033 0.035 0.063
0.031 0.019 0.059
0.033 0.039 0.093
0.047 0.035 0.085
0.041 0.029 0.097
0.047 0.033 0.089
0.039 0.043 0.087
0.031 0.043 0.095
0.017 0.015 0.105
0.043 0.029 0.103
0.033 0.039 0.103
0.037 0.037 0.107
0.009 0.021 0.109
0.021 0.039 0.101
0.041 0.033 0.099
-0.001 -0.021 0.035
-0.021 -0.037 0.055
-0.027 -0.035 0.061
-0.005 -0.013 0.049
-0.005 -0.015 0.051
-0.005 -0.021 0.051
-0.005 -0.029 0.057
-0.003 -0.023 0.051
-0.003 -0.029 0.051
-0.015 -0.013 0.053
-0.005 -0.005 0.043
-0.009 -0.003 0.045
-0.005 -0.029 0.061
-0.005 -0.021 0.053
-0.013 -0.009 0.089
-0.023 -0.021 0.073
-0.011 -0.019 0.069
-0.015 -0.011 0.077
-0.009 -0.007 0.079
-0.011 -0.005 0.089
-0.005 -0.003 0.083
-0.011 -0.007 0.089
-0.011 -0.003 0.091
0.017 -0.001 0.039
0.007 0.001 0.053
-0.011 0.001 0.041
0.005 0.003 0.065
0.005 0.003 0.063
0.025 0.021 0.103
0.021 0.023 0.105
0.035 0.007 0.045
0.013 0.001 0.045
0.037 0.019 0.043
0.035 0.027 0.037
0.009 0.013 0.061
0.019 0.013 0.053
0.031 0.021 0.063
0.037 0.027 0.055
0.019 0.015 0.091
0.043 0.027 0.087
0.041 0.033 0.091
0.047 0.039 0.087
0.017 0.019 0.105
0.011 0.023 0.109
0.037 0.031 0.105
0.037 0.033 0.107
-0.013 -0.035 0.039
-0.027 -0.027 0.063
-0.013 -0.031 0.045
-0.003 -0.021 0.041
0.005 -0.011 0.037
-0.003 -0.015 0.043
-0.035 -0.031 0.083
-0.023 -0.021 0.071
-0.017 -0.009 0.067
-0.015 -0.013 0.065
-0.011 -0.009 0.079
-0.015 -0.013 0.087
-0.025 -0.011 0.093
-0.015 -0.009 0.091
0.033 0.005 0.043
0.031 0.009 0.047
-0.017 0.001 0.059
0.003 0.001 0.059
0.007 0.007 0.061
0.007 0.009 0.067
0.005 0.009 0.071
-0.001 0.001 0.081
0.019 0.015 0.087
0.013 0.001 0.047
0.037 0.007 0.039
0.013 0.019 0.057
0.031 0.017 0.057
0.035 0.027 0.061
0.041 0.013 0.043
0.025 0.047 0.039
0.017 0.017 0.069
0.017 0.017 0.069
0.029 0.027 0.073
0.013 0.015 0.081
0.009 0.011 0.093
0.033 0.021 0.085
0.039 0.027 0.089
0.039 0.027 0.089
0.029 0.037 0.093
0.041 0.037 0.083
0.049 0.037 0.093
0.027 0.029 0.105
0.033 0.031 0.103
-0.035 -0.021 0.035
-0.035 -0.019 0.037
-0.037 -0.031 0.061
-0.031 -0.023 0.041
-0.033 -0.025 0.037
-0.035 -0.009 0.037
-0.031 -0.007 0.035
-0.027 -0.013 0.047
-0.035 -0.009 0.039
-0.033 -0.009 0.043
-0.029 -0.013 0.055
-0.031 -0.001 0.049
-0.031 -0.009 0.053
-0.035 -0.021 0.067
-0.037 -0.021 0.073
-0.025 0.003 0.077
-0.029 0.005 0.045
-0.025 0.005 0.049
-0.025 0.005 0.047
-0.005 0.029 0.033
-0.011 0.015 0.051
-0.015 0.013 0.083
-0.001 0.009 0.103
-0.005 0.021 0.039
0.003 0.007 0.035
-0.003 0.017 0.037
-0.003 0.009 0.039
-0.013 0.015 0.059
-0.009 0.019 0.051
0.007 0.037 0.041
0.015 0.041 0.055
0.019 0.039 0.059
0.017 0.039 0.057
-0.015 0.003 0.067
0.003 0.017 0.075
0.001 0.025 0.083
-0.007 0.027 0.089
-0.009 0.027 0.095
-0.007 0.029 0.097
0.017 0.037 0.067
-0.003 0.031 0.101
0.007 0.027 0.107
-0.007 0.029 0.103
0.017 0.037 0.103
0.031 0.043 0.099
-0.021 -0.041 0.049
-0.011 -0.031 0.041
-0.011 -0.025 0.045
-0.033 -0.033 0.045
-0.003 -0.025 0.035
-0.027 -0.039 0.057
-0.007 -0.031 0.057
-0.005 -0.029 0.059
-0.033 -0.037 0.057
-0.037 -0.033 0.085
-0.031 -0.027 0.073
-0.011 -0.025 0.065
-0.001 -0.001 0.073
-0.007 -0.005 0.081
-0.015 -0.037 0.043
-0.019 -0.019 0.067
-0.013 -0.011 0.053
-0.023 -0.021 0.073
-0.003 0.017 0.107
0.007 -0.015 0.037
-0.007 -0.025 0.041
0.013 0.007 0.053
0.023 0.015 0.055
0.033 0.003 0.033
0.033 0.003 0.035
0.033 0.017 0.055
0.005 0.003 0.065
0.005 0.003 0.067
0.009 0.015 0.081
0.003 0.017 0.083
0.029 0.019 0.085
0.031 0.021 0.095
0.007 0.009 0.067
0.005 0.009 0.097
0.015 0.015 0.083
0.027 0.019 0.089
0.013 0.013 0.101
0.015 0.015 0.103
-0.001 0.009 0.101
0.013 0.015 0.105
0.033 0.029 0.101
-0.033 -0.037 0.057
-0.017 -0.039 0.039
-0.027 -0.041 0.047
-0.005 -0.025 0.035
-0.017 -0.015 0.051
-0.001 -0.001 0.061
-0.035 -0.029 0.083
-0.029 -0.021 0.069
-0.023 -0.021 0.075
-0.003 -0.003 0.073
-0.023 -0.011 0.091
-0.013 -0.007 0.091
-0.015 -0.037 0.041
0.001 -0.009 0.039
0.001 -0.001 0.063
-0.011 -0.021 0.071
-0.009 -0.023 0.065
0.021 -0.001 0.033
0.037 0.009 0.031
0.007 -0.013 0.037
0.015 -0.003 0.041
0.023 0.003 0.035
0.031 0.007 0.047
0.013 0.003 0.051
0.009 0.005 0.059
0.039 0.007 0.043
0.031 0.003 0.037
0.041 0.011 0.043
0.003 0.017 0.077
0.021 0.019 0.065
0.019 0.019 0.079
0.025 0.023 0.075
0.005 0.009 0.089
0.019 0.019 0.079
0.027 0.021 0.093
0.027 0.019 0.065
0.015 0.015 0.093
0.025 0.017 0.085
0.025 0.019 0.091
0.031 0.035 0.095
0.015 0.015 0.107
0.025 0.023 0.105
0.031 0.021 0.095
-0.035 -0.035 0.055
-0.035 -0.007 0.065
-0.027 -0.001 0.067
-0.017 0.005 0.067
-0.019 0.003 0.071
-0.025 0.005 0.085
-0.029 0.009 0.039
-0.019 0.005 0.049
-0.029 0.001 0.051
-0.011 0.013 0.083
-0.019 0.005 0.091
-0.001 0.021 0.085
-0.007 0.027 0.035
-0.005 0.029 0.039
-0.001 0.021 0.061
0.007 0.037 0.041
0.011 0.041 0.039
-0.013 0.015 0.079
-0.005 0.017 0.075
-0.001 0.021 0.081
0.015 0.035 0.071
-0.009 0.027 0.097
0.009 0.035 0.093
0.021 0.037 0.065
0.003 0.033 0.091
0.023 0.039 0.083
0.001 0.023 0.109
0.035 0.039 0.105
-0.035 0.005 0.037
-0.025 -0.003 0.033
-0.033 -0.031 0.047
-0.035 -0.005 0.039
-0.031 -0.007 0.051
-0.033 -0.027 0.055
-0.033 -0.005 0.057
-0.035 -0.025 0.033
-0.033 -0.009 0.043
-0.029 -0.001 0.063
-0.019 0.003 0.055
-0.037 -0.021 0.069
-0.041 -0.025 0.075
-0.035 -0.019 0.077
-0.033 -0.003 0.077
-0.039 -0.023 0.081
-0.023 -0.003 0.067
-0.023 -0.001 0.073
-0.019 -0.005 0.069
-0.033 -0.005 0.085
-0.023 0.007 0.085
-0.015 0.013 0.083
-0.007 0.027 0.041
-0.009 0.009 0.047
-0.005 0.025 0.053
-0.029 0.001 0.083
-0.013 0.011 0.087
-0.007 0.011 0.085
-0.009 0.017 0.113
0.009 0.039 0.037
0.015 0.049 0.035
-0.005 0.029 0.037
0.013 0.041 0.037
0.007 0.021 0.057
0.009 0.029 0.065
0.011 0.031 0.065
0.015 0.035 0.061
0.019 0.041 0.045
0.021 0.041 0.051
0.015 0.043 0.051
0.031 0.041 0.053
0.033 0.039 0.053
-0.005 0.019 0.067
-0.005 0.019 0.069
0.007 0.025 0.067
0.021 0.035 0.073
-0.007 0.029 0.089
0.001 0.027 0.081
-0.005 0.027 0.091
0.025 0.039 0.091
0.045 0.039 0.093
0.047 0.039 0.093
0.001 0.033 0.101
-0.003 0.031 0.097
0.003 0.035 0.105
0.015 0.033 0.105
0.003 0.035 0.105
