-0.033 -0.037 0.053
-0.031 -0.039 0.057
-0.027 -0.033 0.063
-0.029 -0.031 0.067
-0.029 -0.021 0.073
-0.029 -0.021 0.079
-0.007 -0.025 0.063
-0.005 -0.015 0.051
-0.041 -0.037 0.087
-0.039 -0.025 0.085
-0.029 -0.031 0.067
-0.019 -0.019 0.077
-0.031 -0.021 0.075
-0.011 -0.007 0.089
-0.013 -0.001 0.091
-0.007 0.007 0.089
-0.007 0.015 0.113
0.001 -0.001 0.067
0.025 0.009 0.051
0.023 0.015 0.055
0.025 0.007 0.045
-0.001 -0.001 0.075
-0.001 0.001 0.081
0.031 0.013 0.053
0.009 0.001 0.051
0.019 0.009 0.051
0.007 0.013 0.063
-0.001 0.003 0.081
0.009 0.019 0.067
0.013 0.013 0.087
0.023 0.019 0.073
0.025 0.021 0.073
0.013 0.013 0.087
0.011 0.011 0.093
0.015 0.015 0.077
0.005 0.011 0.101
0.031 0.023 0.067
0.025 0.019 0.071
0.031 0.021 0.087
0.045 0.027 0.085
0.013 0.023 0.107
0.005 0.011 0.101
0.001 0.021 0.109
0.005 0.023 0.113
0.013 0.027 0.107
0.019 0.037 0.103
0.033 0.041 0.101
-0.003 0.021 0.059
0.001 0.021 0.061
-0.027 -0.001 0.067
-0.027 -0.001 0.067
-0.017 0.005 0.049
-0.007 0.021 0.055
-0.001 0.023 0.057
-0.001 0.023 0.053
-0.009 0.019 0.063
-0.007 0.019 0.067
-0.013 0.017 0.071
0.013 0.033 0.071
-0.017 0.013 0.075
-0.023 0.007 0.081
-0.023 0.007 0.087
-0.003 0.031 0.089
0.007 0.031 0.077
0.003 0.033 0.095
-0.009 0.019 0.051
-0.005 0.027 0.043
-0.011 0.017 0.057
-0.013 0.017 0.063
-0.005 0.021 0.061
-0.009 0.017 0.069
-0.001 0.031 0.087
0.007 0.035 0.101
-0.007 0.017 0.113
0.031 0.041 0.045
0.041 0.015 0.035
0.037 0.011 0.045
0.025 0.047 0.037
0.019 0.051 0.037
0.019 0.037 0.063
0.023 0.029 0.077
0.017 0.037 0.099
0.003 0.033 0.095
0.033 0.041 0.085
0.017 0.033 0.077
0.017 0.035 0.089
0.037 0.041 0.095
0.007 0.035 0.105
0.005 0.035 0.103
0.021 0.037 0.097
0.021 0.037 0.103
0.005 -0.011 0.037
-0.005 -0.015 0.041
-0.013 -0.019 0.061
-0.011 -0.017 0.067
-0.003 -0.023 0.049
0.037 0.023 0.053
0.035 0.025 0.061
-0.003 -0.013 0.045
-0.003 -0.011 0.045
-0.017 -0.015 0.059
-0.003 -0.025 0.053
-0.009 -0.019 0.061
0.005 0.003 0.067
0.001 0.001 0.071
-0.003 0.003 0.083
0.049 0.033 0.087
0.005 0.007 0.071
-0.003 -0.001 0.079
-0.007 -0.001 0.089
0.005 0.001 0.061
0.037 0.035 0.053
0.037 0.025 0.053
0.047 0.033 0.089
0.047 0.035 0.093
0.039 0.029 0.095
0.033 0.035 0.097
0.037 0.019 0.039
0.041 0.013 0.033
0.037 0.025 0.043
0.035 0.037 0.059
0.037 0.019 0.039
0.037 0.027 0.039
0.035 0.023 0.043
0.037 0.023 0.053
0.037 0.031 0.053
0.023 0.049 0.039
0.035 0.039 0.051
0.029 0.041 0.057
0.029 0.027 0.071
0.029 0.025 0.071
0.037 0.025 0.095
0.031 0.021 0.087
0.047 0.029 0.085
0.047 0.029 0.087
0.037 0.025 0.095
0.047 0.037 0.085
0.043 0.031 0.105
0.043 0.029 0.101
0.027 0.025 0.105
0.013 0.037 0.097
-0.003 -0.025 0.035
-0.011 -0.027 0.033
-0.003 -0.027 0.033
0.007 -0.015 0.035
-0.019 -0.039 0.049
-0.023 -0.035 0.059
-0.009 -0.021 0.063
-0.003 -0.023 0.039
-0.013 -0.029 0.045
-0.003 -0.027 0.045
0.003 -0.007 0.039
-0.019 -0.033 0.053
-0.009 -0.031 0.055
-0.003 -0.025 0.055
-0.027 -0.029 0.063
-0.011 -0.007 0.051
-0.003 -0.001 0.067
-0.005 -0.003 0.069
-0.029 -0.017 0.087
-0.017 -0.015 0.085
-0.009 -0.001 0.041
-0.013 0.003 0.049
0.005 0.007 0.067
0.003 0.011 0.073
-0.011 -0.003 0.091
0.013 0.013 0.091
0.019 0.017 0.095
0.017 -0.001 0.039
0.009 0.001 0.051
0.033 0.017 0.053
0.029 0.013 0.055
0.043 0.009 0.043
0.037 0.025 0.045
0.037 0.033 0.047
0.003 0.001 0.069
0.013 0.017 0.071
0.025 0.019 0.067
0.029 0.029 0.073
0.011 0.013 0.085
0.005 0.009 0.091
0.007 0.011 0.093
0.031 0.021 0.095
0.043 0.027 0.085
0.041 0.029 0.089
0.043 0.027 0.085
0.047 0.029 0.083
0.033 0.033 0.065
0.045 0.041 0.087
0.005 0.009 0.097
0.011 0.023 0.107
0.019 0.017 0.101
-0.035 -0.009 0.073
-0.025 0.003 0.051
-0.021 0.003 0.059
-0.035 -0.021 0.081
-0.029 -0.007 0.091
-0.033 -0.003 0.065
-0.031 -0.001 0.085
-0.043 -0.033 0.083
-0.035 -0.015 0.079
-0.029 -0.011 0.093
-0.029 -0.011 0.093
-0.027 -0.011 0.093
-0.029 -0.007 0.091
-0.027 -0.007 0.093
-0.027 -0.015 0.089
-0.013 -0.003 0.091
-0.015 0.011 0.085
-0.019 0.005 0.053
-0.019 0.011 0.077
-0.011 0.015 0.053
-0.005 0.025 0.049
-0.021 0.009 0.081
-0.029 0.001 0.085
-0.025 0.005 0.087
-0.007 0.011 0.089
-0.007 0.011 0.089
-0.003 0.019 0.111
-0.007 0.015 0.079
0.011 0.029 0.061
-0.007 0.025 0.095
0.007 0.027 0.051
0.007 0.025 0.053
0.003 0.017 0.067
-0.005 0.029 0.089
0.005 0.029 0.073
-0.001 0.031 0.101
0.001 0.033 0.101
0.003 0.035 0.107
0.007 0.035 0.101
0.003 0.035 0.039
0.005 0.035 0.045
0.009 0.035 0.103
0.003 0.027 0.101
-0.003 0.019 0.091
0.019 0.039 0.101
0.029 0.041 0.099
0.009 0.015 0.109
0.001 0.021 0.109
0.031 0.033 0.103
0.033 0.037 0.105
0.037 0.043 0.103
-0.033 -0.035 0.047
-0.035 -0.033 0.053
-0.035 -0.015 0.035
-0.029 -0.017 0.043
-0.033 -0.011 0.043
-0.031 -0.011 0.045
-0.031 -0.001 0.045
-0.033 -0.001 0.043
-0.043 -0.029 0.079
-0.039 -0.027 0.085
-0.035 -0.025 0.087
-0.033 -0.003 0.081
-0.033 -0.003 0.073
-0.031 -0.011 0.089
-0.025 -0.007 0.095
-0.029 -0.009 0.091
-0.033 -0.001 0.041
-0.029 0.001 0.047
-0.023 0.003 0.059
-0.017 0.009 0.067
-0.013 0.017 0.071
-0.015 0.013 0.083
-0.017 0.011 0.085
-0.013 0.009 0.089
0.001 0.013 0.033
-0.005 0.029 0.033
-0.029 0.007 0.045
-0.005 0.011 0.039
-0.005 0.011 0.041
-0.007 0.011 0.043
-0.011 0.011 0.051
-0.011 0.015 0.055
0.009 0.027 0.053
-0.005 0.023 0.049
0.003 0.035 0.039
0.015 0.041 0.055
0.009 0.037 0.051
-0.025 0.005 0.079
0.005 0.027 0.073
-0.001 0.031 0.093
0.001 0.033 0.093
0.017 0.037 0.087
0.001 0.031 0.105
-0.005 0.027 0.099
0.003 0.033 0.105
0.019 0.039 0.101
-0.029 -0.039 0.045
-0.021 -0.039 0.037
-0.013 -0.033 0.045
-0.019 -0.039 0.049
-0.003 -0.025 0.047
-0.019 -0.033 0.053
-0.003 -0.029 0.051
-0.025 -0.037 0.059
-0.009 -0.031 0.053
-0.041 -0.035 0.075
-0.027 -0.021 0.079
0.003 -0.017 0.035
0.005 -0.017 0.037
-0.015 -0.035 0.047
0.005 -0.017 0.037
0.007 -0.001 0.043
-0.005 -0.001 0.061
-0.007 -0.001 0.063
-0.003 0.011 0.085
-0.007 0.015 0.109
0.005 -0.011 0.037
0.015 -0.003 0.041
0.011 0.007 0.055
0.021 0.007 0.049
0.019 0.019 0.061
0.033 0.021 0.059
0.023 0.017 0.059
0.039 0.007 0.043
0.033 0.021 0.083
0.043 0.025 0.083
0.005 0.009 0.097
0.029 0.023 0.099
0.033 0.023 0.099
0.043 0.029 0.103
0.021 0.019 0.101
0.031 0.021 0.097
-0.015 -0.035 0.035
-0.025 -0.041 0.049
-0.025 -0.035 0.061
-0.005 -0.029 0.047
-0.007 -0.025 0.063
-0.009 -0.023 0.063
-0.005 -0.011 0.049
-0.031 -0.033 0.065
-0.027 -0.021 0.079
-0.039 -0.035 0.083
-0.017 -0.015 0.087
-0.029 -0.031 0.067
-0.019 -0.019 0.069
-0.007 -0.003 0.071
-0.003 -0.001 0.079
-0.029 -0.019 0.083
-0.009 -0.007 0.085
-0.011 -0.001 0.051
0.007 0.003 0.057
0.013 0.007 0.055
-0.005 -0.001 0.065
0.001 0.009 0.087
0.009 0.011 0.087
0.003 0.019 0.107
0.035 0.011 0.045
0.039 0.007 0.043
0.013 -0.003 0.043
0.011 -0.003 0.043
0.011 -0.001 0.045
0.015 0.015 0.055
0.017 0.013 0.055
0.013 0.017 0.055
0.021 0.017 0.069
0.039 0.007 0.035
0.041 0.007 0.043
0.031 0.013 0.053
0.033 0.017 0.053
0.035 0.023 0.049
0.037 0.031 0.055
0.037 0.035 0.045
0.035 0.029 0.063
0.037 0.035 0.055
0.015 0.017 0.073
0.011 0.011 0.091
0.027 0.019 0.089
0.037 0.025 0.087
0.043 0.025 0.083
0.027 0.027 0.073
0.029 0.029 0.073
0.025 0.021 0.101
0.043 0.031 0.091
0.009 0.011 0.101
0.015 0.019 0.105
0.029 0.031 0.103
-0.043 -0.037 0.081
-0.033 -0.035 0.063
-0.021 -0.041 0.049
-0.035 -0.001 0.039
-0.031 -0.025 0.043
-0.035 -0.033 0.063
-0.029 -0.037 0.061
-0.043 -0.037 0.081
-0.043 -0.033 0.081
-0.023 -0.021 0.067
-0.023 -0.021 0.069
-0.035 -0.031 0.085
-0.025 -0.021 0.079
-0.037 -0.031 0.089
-0.029 -0.019 0.083
-0.033 -0.007 0.085
-0.017 -0.013 0.089
-0.031 -0.009 0.089
-0.031 -0.011 0.089
-0.007 0.015 0.111
0.011 -0.003 0.043
-0.017 -0.017 0.079
0.021 0.005 0.047
0.023 0.011 0.053
-0.013 -0.005 0.091
0.039 0.007 0.043
0.027 0.019 0.067
-0.023 -0.005 0.095
-0.021 -0.003 0.095
-0.019 0.005 0.091
-0.019 0.001 0.095
0.001 0.009 0.089
-0.001 0.017 0.085
0.007 0.011 0.085
0.019 0.017 0.077
0.011 0.011 0.089
-0.001 0.009 0.103
0.019 0.015 0.091
0.005 0.019 0.101
0.009 0.021 0.107
0.005 0.019 0.105
0.013 0.015 0.103
-0.035 -0.017 0.031
-0.033 -0.035 0.047
-0.035 -0.007 0.037
-0.031 -0.009 0.049
-0.033 -0.009 0.045
-0.033 -0.005 0.047
-0.033 -0.009 0.057
-0.029 0.001 0.057
-0.029 -0.001 0.063
-0.035 -0.021 0.067
-0.043 -0.029 0.077
-0.035 -0.017 0.077
-0.033 -0.005 0.067
-0.035 -0.011 0.067
-0.031 -0.003 0.075
-0.033 -0.005 0.085
-0.001 0.033 0.037
-0.027 0.001 0.077
-0.009 0.027 0.095
-0.001 0.033 0.037
-0.011 0.015 0.051
0.003 0.031 0.041
-0.007 0.021 0.047
-0.005 0.025 0.051
0.003 0.031 0.041
0.007 0.021 0.057
0.011 0.023 0.057
-0.005 0.027 0.043
0.005 0.029 0.049
0.009 0.033 0.051
0.011 0.041 0.037
0.015 0.049 0.037
0.015 0.035 0.057
0.023 0.041 0.053
0.003 0.029 0.079
0.009 0.031 0.073
0.003 0.029 0.081
0.001 0.031 0.085
0.005 0.033 0.087
0.025 0.037 0.067
0.031 0.039 0.087
0.039 0.041 0.089
0.001 0.011 0.103
-0.007 0.029 0.103
-0.007 0.029 0.103
0.001 0.031 0.103
0.005 0.035 0.105
0.017 0.037 0.101
-0.033 -0.017 0.039
-0.027 -0.029 0.049
-0.033 -0.003 0.063
-0.033 -0.005 0.043
-0.033 -0.005 0.049
-0.031 -0.001 0.051
-0.023 0.009 0.043
-0.027 -0.001 0.065
-0.041 -0.027 0.081
-0.037 -0.011 0.075
-0.017 0.013 0.079
-0.027 0.003 0.087
-0.009 0.017 0.047
-0.005 0.025 0.047
-0.011 0.011 0.053
-0.011 0.017 0.053
-0.013 0.013 0.059
-0.013 0.011 0.085
-0.009 0.013 0.083
-0.017 0.005 0.091
-0.003 0.031 0.089
0.007 0.039 0.035
-0.003 0.029 0.039
0.009 0.039 0.035
0.025 0.049 0.035
0.021 0.039 0.057
0.031 0.039 0.063
0.005 0.029 0.079
0.009 0.031 0.069
0.015 0.035 0.067
-0.005 0.029 0.089
0.029 0.037 0.087
0.037 0.043 0.085
0.005 0.033 0.095
0.019 0.037 0.083
0.029 0.043 0.095
0.031 0.041 0.083
0.041 0.043 0.087
0.003 0.035 0.107
0.001 0.033 0.107
0.001 0.033 0.107
0.029 0.041 0.099
0.003 0.035 0.105
