-0.035 -0.025 0.033
-0.035 -0.019 0.033
-0.035 -0.015 0.037
-0.035 0.001 0.035
-0.035 -0.011 0.037
-0.033 -0.033 0.043
-0.035 -0.035 0.059
-0.029 -0.039 0.045
-0.031 -0.037 0.043
-0.031 -0.035 0.045
-0.033 -0.029 0.039
-0.033 -0.037 0.049
-0.035 -0.031 0.053
-0.033 -0.037 0.059
-0.035 -0.035 0.061
-0.033 -0.035 0.063
-0.037 -0.031 0.063
-0.035 -0.009 0.035
-0.033 -0.001 0.043
-0.035 -0.031 0.053
-0.037 -0.027 0.061
-0.037 -0.025 0.063
-0.031 -0.027 0.043
-0.027 -0.025 0.043
-0.031 -0.015 0.043
-0.025 -0.017 0.045
-0.027 -0.015 0.045
-0.027 -0.029 0.047
-0.025 -0.027 0.047
-0.023 -0.025 0.049
-0.025 -0.017 0.045
-0.023 -0.021 0.045
-0.023 -0.017 0.049
-0.027 -0.013 0.051
-0.035 -0.009 0.035
-0.035 -0.001 0.037
-0.031 -0.013 0.045
-0.031 -0.013 0.043
-0.027 -0.013 0.047
-0.033 -0.009 0.041
-0.033 -0.007 0.043
-0.035 -0.001 0.039
-0.035 -0.003 0.041
-0.031 -0.001 0.051
-0.033 -0.031 0.049
-0.023 -0.017 0.049
-0.027 -0.017 0.053
-0.029 -0.027 0.055
-0.031 -0.021 0.063
-0.035 -0.021 0.065
-0.033 -0.015 0.061
-0.033 -0.019 0.063
-0.033 -0.017 0.065
-0.031 -0.009 0.049
-0.029 -0.013 0.053
-0.033 -0.013 0.059
-0.035 -0.011 0.061
-0.031 -0.001 0.059
-0.031 -0.001 0.063
-0.027 0.001 0.061
-0.029 -0.001 0.063
-0.029 -0.001 0.065
-0.027 -0.001 0.065
-0.031 -0.007 0.053
-0.043 -0.031 0.077
-0.043 -0.033 0.085
-0.037 -0.031 0.065
-0.037 -0.025 0.065
-0.035 -0.017 0.069
-0.041 -0.027 0.075
-0.039 -0.021 0.079
-0.039 -0.021 0.079
-0.035 -0.019 0.079
-0.035 -0.005 0.071
-0.041 -0.031 0.085
-0.041 -0.031 0.085
-0.039 -0.025 0.085
-0.039 -0.023 0.081
-0.035 -0.019 0.081
-0.033 -0.019 0.085
-0.035 -0.013 0.081
-0.037 -0.027 0.067
-0.035 -0.021 0.065
-0.035 -0.015 0.081
-0.037 -0.011 0.073
-0.035 -0.009 0.075
-0.033 -0.005 0.075
-0.031 -0.001 0.079
-0.015 0.001 0.067
-0.027 0.001 0.077
-0.033 -0.019 0.083
-0.031 -0.009 0.089
-0.029 -0.007 0.091
-0.023 -0.005 0.095
-0.023 -0.001 0.093
-0.023 -0.003 0.095
-0.033 -0.007 0.083
-0.033 -0.005 0.083
-0.035 -0.009 0.039
-0.033 -0.007 0.043
-0.033 -0.001 0.041
-0.027 0.003 0.049
-0.033 0.007 0.039
-0.031 0.007 0.037
-0.035 0.003 0.039
-0.007 0.005 0.047
-0.009 0.009 0.047
-0.005 0.021 0.037
-0.005 0.029 0.037
-0.023 0.005 0.051
-0.029 0.001 0.059
-0.025 0.003 0.057
-0.027 0.001 0.061
-0.023 0.003 0.055
-0.021 0.003 0.057
-0.015 0.007 0.061
-0.015 0.009 0.063
-0.009 0.019 0.055
-0.011 0.017 0.059
-0.011 0.017 0.059
-0.025 0.003 0.077
-0.015 0.009 0.065
-0.013 0.017 0.071
-0.029 0.001 0.083
-0.023 0.003 0.091
-0.019 0.005 0.091
-0.019 0.001 0.095
-0.021 0.009 0.083
-0.015 0.013 0.081
-0.015 0.013 0.083
-0.023 0.003 0.091
-0.023 0.003 0.091
-0.001 0.007 0.095
-0.001 0.017 0.081
-0.001 0.017 0.083
-0.003 0.031 0.089
-0.003 0.031 0.093
-0.009 0.027 0.101
-0.033 0.007 0.041
0.001 0.011 0.033
-0.001 0.017 0.035
-0.001 0.017 0.033
-0.007 0.027 0.035
0.001 0.009 0.035
-0.023 0.005 0.051
-0.007 0.011 0.045
-0.005 0.015 0.041
-0.011 0.009 0.051
-0.011 0.011 0.051
-0.011 0.013 0.053
-0.007 0.027 0.035
0.005 0.029 0.047
-0.003 0.019 0.037
-0.007 0.027 0.041
-0.009 0.003 0.055
-0.013 0.015 0.065
-0.015 0.011 0.061
-0.013 0.013 0.057
-0.011 0.013 0.055
-0.011 0.013 0.055
0.009 0.031 0.051
-0.005 0.021 0.063
0.005 0.021 0.059
0.009 0.021 0.065
-0.007 0.021 0.061
-0.007 0.013 0.045
-0.009 0.015 0.049
-0.007 0.021 0.043
-0.005 0.023 0.051
0.013 0.033 0.053
0.011 0.025 0.061
0.011 0.027 0.061
-0.003 0.033 0.035
-0.001 0.033 0.037
0.007 0.037 0.043
0.009 0.039 0.045
0.007 0.037 0.041
0.013 0.041 0.041
0.007 0.037 0.045
0.015 0.043 0.041
0.017 0.051 0.035
0.017 0.051 0.035
0.015 0.049 0.037
0.013 0.033 0.053
0.013 0.037 0.055
0.023 0.041 0.057
0.009 0.037 0.051
0.011 0.035 0.053
-0.019 0.009 0.073
-0.021 0.007 0.075
-0.013 0.015 0.077
0.009 0.031 0.067
0.007 0.021 0.067
0.007 0.021 0.067
0.005 0.027 0.071
0.011 0.033 0.075
-0.001 0.017 0.083
0.003 0.013 0.089
-0.001 0.017 0.089
0.003 0.029 0.083
-0.003 0.025 0.087
0.003 0.029 0.083
-0.003 0.025 0.087
-0.001 0.029 0.085
-0.001 0.019 0.097
0.001 0.033 0.091
-0.005 0.027 0.091
0.009 0.031 0.069
0.001 0.025 0.085
-0.007 0.027 0.087
-0.001 0.029 0.085
0.017 0.037 0.067
0.015 0.035 0.071
0.019 0.037 0.069
0.015 0.035 0.073
0.011 0.037 0.095
0.011 0.037 0.095
0.015 0.035 0.081
0.017 0.037 0.083
0.017 0.037 0.085
0.017 0.037 0.087
0.017 0.037 0.083
0.007 0.035 0.095
0.013 0.037 0.093
0.017 0.037 0.085
0.017 0.037 0.085
0.031 0.039 0.087
0.037 0.043 0.083
0.037 0.043 0.083
0.039 0.043 0.087
0.001 0.011 0.097
0.005 0.015 0.101
0.005 0.013 0.103
0.005 0.013 0.103
0.005 0.017 0.097
0.009 0.015 0.105
0.003 0.025 0.105
0.005 0.025 0.109
0.009 0.029 0.105
0.001 0.023 0.099
-0.007 0.029 0.103
0.003 0.025 0.105
0.001 0.031 0.105
0.007 0.027 0.105
0.009 0.029 0.105
0.005 0.025 0.113
-0.007 0.029 0.101
-0.007 0.029 0.103
0.001 0.031 0.103
0.005 0.035 0.103
0.017 0.037 0.103
0.005 0.035 0.099
0.005 0.035 0.103
0.003 0.033 0.105
0.017 0.037 0.101
-0.003 -0.027 0.045
-0.003 -0.017 0.045
-0.003 -0.021 0.037
0.001 -0.017 0.037
-0.001 -0.017 0.037
-0.031 -0.037 0.061
-0.027 -0.041 0.045
-0.019 -0.041 0.043
-0.025 -0.039 0.055
-0.005 -0.031 0.055
-0.011 -0.029 0.043
-0.009 -0.027 0.039
-0.003 -0.027 0.055
-0.011 -0.029 0.039
-0.005 -0.025 0.039
-0.009 -0.027 0.037
-0.009 -0.025 0.035
-0.003 -0.025 0.041
-0.003 -0.025 0.041
-0.007 -0.031 0.049
-0.003 -0.025 0.047
-0.003 -0.025 0.041
-0.003 -0.025 0.049
-0.003 -0.019 0.047
-0.003 -0.023 0.047
-0.003 -0.025 0.051
-0.003 -0.025 0.043
-0.003 -0.023 0.045
-0.005 -0.025 0.057
-0.013 -0.013 0.051
-0.013 -0.011 0.053
-0.003 -0.015 0.037
-0.001 -0.019 0.037
-0.003 -0.013 0.039
-0.005 -0.017 0.041
-0.019 -0.031 0.051
-0.011 -0.031 0.055
-0.029 -0.025 0.065
-0.029 -0.023 0.065
-0.003 -0.029 0.053
-0.015 -0.011 0.059
-0.009 -0.021 0.065
-0.017 -0.009 0.067
-0.017 -0.009 0.069
-0.015 -0.005 0.063
-0.011 -0.007 0.053
-0.013 -0.005 0.057
-0.013 -0.003 0.059
-0.043 -0.037 0.081
-0.043 -0.037 0.081
-0.039 -0.035 0.087
-0.033 -0.033 0.067
-0.035 -0.029 0.071
-0.035 -0.027 0.073
-0.023 -0.021 0.073
-0.017 -0.017 0.075
-0.017 -0.013 0.075
-0.033 -0.027 0.085
-0.039 -0.033 0.087
-0.033 -0.023 0.081
-0.023 -0.021 0.069
-0.029 -0.021 0.073
-0.011 -0.021 0.071
-0.017 -0.011 0.067
-0.015 -0.013 0.079
-0.015 -0.009 0.075
-0.017 -0.007 0.067
-0.017 -0.015 0.073
-0.015 -0.009 0.075
-0.013 -0.011 0.081
-0.013 -0.011 0.083
-0.013 -0.007 0.075
-0.011 -0.009 0.079
-0.009 -0.005 0.073
-0.011 -0.009 0.079
-0.009 -0.007 0.077
-0.007 -0.005 0.075
-0.007 -0.005 0.075
-0.005 -0.003 0.079
-0.021 -0.017 0.087
-0.021 -0.017 0.087
-0.019 -0.011 0.091
-0.021 -0.007 0.093
-0.021 -0.005 0.095
-0.015 -0.013 0.085
-0.009 -0.007 0.085
-0.009 -0.007 0.087
-0.011 -0.007 0.089
-0.013 -0.003 0.091
0.005 -0.015 0.037
0.009 -0.013 0.035
0.007 -0.013 0.037
0.005 -0.013 0.039
0.009 -0.011 0.035
0.013 -0.005 0.035
0.015 -0.001 0.043
0.009 -0.001 0.045
-0.007 -0.017 0.053
-0.011 -0.009 0.053
-0.013 -0.011 0.055
-0.011 -0.005 0.053
-0.013 -0.009 0.057
-0.011 -0.001 0.051
-0.007 -0.005 0.045
0.009 0.001 0.047
0.011 0.003 0.053
0.011 0.007 0.055
0.013 0.007 0.055
-0.013 -0.003 0.059
-0.017 -0.007 0.067
-0.011 0.001 0.051
0.003 0.001 0.055
-0.007 0.001 0.055
0.001 -0.001 0.059
0.001 -0.001 0.069
0.001 -0.001 0.069
0.009 0.009 0.061
0.011 0.013 0.057
0.005 0.005 0.069
0.007 0.015 0.063
-0.007 -0.005 0.081
-0.005 -0.003 0.081
-0.009 -0.007 0.083
-0.003 0.003 0.083
0.001 0.003 0.079
0.003 0.007 0.075
-0.011 -0.007 0.089
-0.013 -0.001 0.091
-0.017 -0.003 0.093
-0.015 -0.001 0.093
-0.015 0.001 0.093
-0.015 0.001 0.095
-0.005 0.007 0.085
-0.005 0.005 0.087
-0.013 0.003 0.093
0.011 0.013 0.099
0.011 0.013 0.103
-0.005 0.015 0.109
0.015 0.015 0.107
0.013 0.015 0.107
0.011 0.023 0.107
0.017 -0.005 0.035
0.019 -0.003 0.035
0.021 0.001 0.033
0.033 0.005 0.041
0.021 0.005 0.045
0.029 0.009 0.047
0.031 0.009 0.047
0.033 0.005 0.041
0.037 0.011 0.045
0.011 -0.001 0.045
0.017 0.001 0.041
0.015 0.005 0.045
0.027 0.005 0.039
0.035 0.007 0.039
0.023 0.003 0.041
0.027 0.003 0.041
0.031 0.009 0.047
0.025 0.007 0.049
0.017 0.015 0.055
0.009 0.003 0.055
0.015 0.013 0.055
0.005 0.001 0.059
0.007 0.003 0.059
0.007 0.005 0.061
0.009 0.011 0.061
0.019 0.009 0.051
0.021 0.017 0.057
0.025 0.017 0.059
0.027 0.021 0.071
0.023 0.019 0.063
0.033 0.003 0.035
0.035 0.005 0.037
0.041 0.013 0.035
0.033 0.005 0.041
0.043 0.011 0.043
0.039 0.017 0.041
0.037 0.027 0.039
0.037 0.027 0.041
0.037 0.023 0.045
0.033 0.017 0.051
0.035 0.025 0.061
0.031 0.015 0.055
0.035 0.021 0.053
0.027 0.019 0.061
0.031 0.021 0.061
0.035 0.023 0.049
0.037 0.023 0.041
0.037 0.027 0.039
0.037 0.027 0.045
0.037 0.027 0.047
0.037 0.033 0.047
0.029 0.023 0.071
0.037 0.033 0.055
0.037 0.031 0.059
0.035 0.033 0.063
0.037 0.031 0.059
0.037 0.033 0.057
0.003 0.011 0.073
0.011 0.017 0.071
0.023 0.021 0.075
0.015 0.015 0.075
0.019 0.017 0.083
0.019 0.019 0.079
0.023 0.021 0.077
0.005 0.015 0.081
0.005 0.009 0.089
0.005 0.009 0.093
0.003 0.009 0.093
0.017 0.015 0.083
0.017 0.015 0.095
0.027 0.019 0.089
0.017 0.017 0.081
0.035 0.023 0.085
0.021 0.017 0.091
0.027 0.021 0.093
0.033 0.021 0.097
0.029 0.023 0.099
0.027 0.027 0.091
0.037 0.025 0.083
0.047 0.029 0.083
0.043 0.029 0.089
0.033 0.031 0.067
0.033 0.031 0.067
0.031 0.029 0.069
0.031 0.035 0.067
0.031 0.035 0.067
0.027 0.031 0.073
0.023 0.017 0.097
0.031 0.023 0.089
0.029 0.025 0.101
0.035 0.029 0.089
0.037 0.023 0.099
0.049 0.033 0.087
0.039 0.039 0.097
0.005 0.009 0.101
0.013 0.015 0.103
0.013 0.013 0.107
0.013 0.015 0.103
0.017 0.015 0.105
0.011 0.023 0.109
0.021 0.019 0.103
0.025 0.023 0.105
0.019 0.029 0.105
0.035 0.023 0.099
0.039 0.025 0.099
0.027 0.023 0.103
0.017 0.027 0.105
0.025 0.027 0.105
0.009 0.027 0.111
0.035 0.029 0.101
0.041 0.029 0.103
0.031 0.033 0.103
0.019 0.031 0.105
0.029 0.031 0.105
0.043 0.033 0.103
0.043 0.033 0.103
