-0.027 -0.041 0.051
-0.023 -0.041 0.051
-0.021 -0.035 0.055
-0.035 -0.035 0.061
-0.019 -0.023 0.047
-0.021 -0.019 0.047
-0.003 -0.017 0.047
-0.029 -0.017 0.087
-0.039 -0.035 0.085
-0.011 -0.021 0.071
-0.015 -0.013 0.085
-0.021 -0.019 0.083
-0.033 -0.027 0.087
-0.027 -0.019 0.083
-0.017 -0.007 0.091
-0.019 -0.001 0.095
-0.009 0.001 0.089
-0.027 -0.007 0.093
-0.001 0.019 0.095
0.035 0.007 0.045
0.031 0.007 0.047
0.003 0.007 0.075
0.019 0.017 0.057
0.023 0.019 0.065
0.017 0.017 0.075
0.015 0.015 0.083
0.003 0.009 0.103
0.001 0.019 0.095
0.003 0.009 0.103
0.021 0.019 0.103
0.033 0.021 0.085
0.039 0.027 0.089
0.029 0.019 0.085
0.013 0.015 0.107
0.039 0.025 0.097
0.043 0.031 0.091
0.001 0.017 0.107
0.003 0.021 0.109
0.027 0.031 0.105
0.017 0.037 0.103
0.027 0.041 0.097
-0.019 0.005 0.039
-0.021 0.003 0.057
-0.027 -0.001 0.067
-0.015 0.005 0.045
-0.001 0.021 0.059
0.001 0.027 0.047
0.007 0.025 0.053
-0.021 0.003 0.039
-0.019 0.005 0.051
-0.007 0.017 0.069
-0.011 0.017 0.065
0.001 0.017 0.067
-0.025 0.005 0.087
-0.001 0.031 0.087
-0.003 0.017 0.073
-0.023 0.003 0.091
-0.021 -0.001 0.093
-0.001 0.033 0.097
0.001 0.025 0.053
-0.023 0.007 0.079
-0.003 0.017 0.069
0.003 0.027 0.077
0.027 0.041 0.055
0.013 0.037 0.055
0.031 0.037 0.065
0.001 0.035 0.037
0.029 0.039 0.063
0.015 0.035 0.071
0.021 0.037 0.081
0.007 0.033 0.091
0.019 0.039 0.093
0.005 0.035 0.097
0.031 0.039 0.087
0.027 0.041 0.093
0.037 0.043 0.085
0.039 0.041 0.089
0.019 0.035 0.073
0.017 0.037 0.091
0.013 0.035 0.103
0.039 0.041 0.105
0.035 0.013 0.045
-0.005 -0.025 0.057
-0.007 -0.025 0.063
0.035 0.025 0.061
0.003 0.001 0.067
-0.013 -0.009 0.057
-0.017 -0.015 0.071
-0.011 -0.009 0.081
0.023 0.021 0.077
0.001 0.003 0.075
0.001 0.001 0.071
0.029 0.029 0.071
0.031 0.035 0.067
0.031 0.033 0.067
0.047 0.039 0.087
0.037 0.045 0.099
0.037 0.019 0.035
0.035 0.007 0.045
0.031 0.015 0.055
0.041 0.009 0.035
0.025 0.045 0.039
0.031 0.041 0.045
0.045 0.043 0.083
0.043 0.031 0.091
0.029 0.021 0.089
0.047 0.029 0.087
0.033 0.025 0.089
0.047 0.031 0.089
0.045 0.043 0.085
0.045 0.043 0.085
0.013 0.027 0.107
0.039 0.025 0.099
0.043 0.033 0.105
0.039 0.045 0.101
-0.023 -0.041 0.051
-0.003 -0.029 0.047
-0.003 -0.029 0.047
-0.005 -0.019 0.049
-0.003 -0.025 0.055
-0.007 -0.019 0.053
-0.011 -0.005 0.055
-0.015 -0.011 0.065
-0.029 -0.027 0.069
-0.017 -0.009 0.071
-0.021 -0.015 0.089
0.003 -0.009 0.039
0.015 0.005 0.047
0.025 0.007 0.047
0.005 0.011 0.067
0.005 0.009 0.071
0.003 0.013 0.073
-0.001 0.003 0.081
0.019 0.017 0.095
-0.007 0.015 0.113
0.041 0.013 0.033
0.029 0.003 0.035
0.031 0.003 0.037
0.013 0.003 0.051
0.007 0.003 0.057
0.035 0.007 0.039
0.041 0.015 0.033
0.037 0.023 0.041
0.037 0.021 0.045
0.037 0.027 0.047
0.035 0.037 0.041
0.027 0.045 0.037
0.025 0.049 0.037
0.039 0.029 0.051
0.039 0.029 0.051
0.013 0.017 0.069
0.025 0.019 0.069
0.029 0.027 0.071
0.013 0.015 0.081
0.017 0.015 0.095
0.035 0.023 0.085
0.027 0.019 0.095
0.027 0.027 0.091
0.047 0.027 0.085
0.047 0.029 0.087
0.039 0.025 0.099
0.029 0.023 0.103
0.039 0.039 0.097
-0.029 -0.001 0.063
-0.041 -0.027 0.081
-0.041 -0.027 0.081
-0.033 -0.029 0.039
-0.035 -0.023 0.035
-0.035 -0.013 0.037
-0.033 -0.003 0.043
-0.035 -0.011 0.065
-0.031 -0.001 0.049
-0.039 -0.021 0.073
-0.029 -0.015 0.089
-0.037 -0.021 0.081
-0.035 -0.019 0.075
-0.013 0.011 0.087
-0.007 0.013 0.083
-0.027 0.003 0.053
-0.017 0.011 0.067
-0.021 0.007 0.087
-0.009 0.027 0.103
0.011 0.033 0.051
-0.005 0.031 0.097
-0.011 0.013 0.083
-0.001 0.021 0.093
0.005 0.025 0.053
0.015 0.035 0.071
0.011 0.039 0.053
0.019 0.043 0.041
0.033 0.035 0.063
-0.007 0.011 0.089
-0.007 0.029 0.093
0.007 0.031 0.075
0.015 0.035 0.069
0.015 0.037 0.101
0.009 0.029 0.105
0.007 0.035 0.105
-0.025 -0.005 0.033
-0.033 -0.035 0.047
-0.035 -0.015 0.033
-0.035 0.001 0.039
-0.033 -0.005 0.063
-0.035 -0.009 0.065
-0.041 -0.025 0.075
-0.037 -0.011 0.069
-0.035 -0.007 0.069
-0.035 -0.017 0.079
-0.035 -0.005 0.071
-0.031 -0.011 0.089
-0.031 -0.003 0.087
-0.029 -0.013 0.091
-0.021 0.001 0.061
-0.007 0.009 0.045
-0.003 0.031 0.037
-0.023 0.003 0.059
-0.015 0.015 0.075
-0.009 0.019 0.065
-0.009 0.027 0.101
-0.003 0.033 0.035
0.001 0.009 0.035
-0.023 0.005 0.047
-0.005 0.017 0.039
-0.007 0.013 0.045
0.001 0.021 0.033
-0.003 0.021 0.057
-0.005 0.025 0.053
-0.005 0.011 0.041
0.003 0.035 0.039
0.007 0.037 0.045
0.013 0.041 0.053
0.015 0.041 0.055
0.009 0.037 0.051
-0.001 0.017 0.079
0.007 0.031 0.077
0.007 0.031 0.079
-0.001 0.033 0.097
-0.001 0.031 0.087
0.017 0.037 0.067
0.037 0.043 0.083
0.017 0.039 0.093
0.019 0.039 0.095
0.003 0.033 0.105
0.009 0.029 0.105
0.001 0.033 0.099
-0.021 -0.037 0.055
-0.035 -0.017 0.037
-0.035 -0.033 0.063
-0.031 -0.035 0.041
-0.019 -0.039 0.049
-0.023 -0.041 0.045
-0.033 -0.019 0.039
-0.007 -0.023 0.039
-0.027 -0.037 0.059
-0.009 -0.031 0.055
-0.011 -0.025 0.065
-0.025 -0.011 0.091
0.005 -0.017 0.035
0.007 -0.015 0.037
0.001 -0.001 0.065
-0.035 -0.013 0.037
-0.035 -0.009 0.039
-0.033 -0.033 0.045
-0.019 -0.013 0.089
-0.007 -0.001 0.089
0.015 -0.005 0.035
0.019 0.005 0.047
0.021 -0.001 0.037
0.013 0.007 0.055
0.025 0.007 0.049
-0.005 -0.029 0.057
0.019 0.019 0.061
0.033 0.007 0.045
0.037 0.007 0.045
-0.009 -0.031 0.053
-0.001 0.001 0.081
0.027 0.023 0.073
0.027 0.019 0.089
0.033 0.021 0.085
0.009 0.015 0.107
-0.029 -0.037 0.059
-0.013 -0.035 0.037
0.001 -0.019 0.035
-0.027 -0.041 0.051
-0.013 -0.027 0.061
-0.001 -0.001 0.061
-0.037 -0.031 0.065
-0.031 -0.031 0.067
-0.017 -0.015 0.075
0.005 -0.017 0.037
-0.005 -0.029 0.045
-0.013 0.003 0.063
-0.009 0.001 0.063
0.001 -0.001 0.063
-0.013 -0.001 0.069
-0.001 0.001 0.081
-0.001 0.007 0.081
-0.003 0.013 0.085
0.021 0.001 0.031
0.017 -0.005 0.033
0.007 -0.015 0.035
0.023 0.003 0.033
0.023 0.005 0.043
0.017 -0.005 0.035
0.007 0.001 0.045
0.029 0.011 0.049
0.023 0.017 0.059
0.039 0.029 0.045
0.023 0.001 0.037
0.027 0.011 0.053
0.037 0.025 0.049
0.015 0.015 0.077
0.005 0.017 0.077
0.023 0.021 0.075
0.025 0.021 0.073
0.009 0.013 0.097
0.007 0.011 0.101
0.035 0.035 0.107
-0.003 -0.021 0.043
-0.019 -0.039 0.049
-0.015 -0.035 0.045
-0.019 -0.035 0.051
-0.009 -0.027 0.037
-0.003 -0.025 0.053
-0.003 -0.025 0.047
0.001 -0.013 0.037
-0.005 -0.013 0.047
-0.005 -0.009 0.041
-0.003 -0.029 0.055
-0.007 -0.025 0.063
-0.009 -0.021 0.063
-0.013 -0.011 0.053
-0.005 -0.015 0.049
-0.015 -0.007 0.063
-0.033 -0.027 0.073
-0.031 -0.027 0.073
-0.011 -0.021 0.071
-0.031 -0.021 0.075
-0.013 -0.011 0.081
-0.019 -0.013 0.089
-0.013 -0.011 0.081
-0.011 -0.005 0.053
0.017 0.013 0.055
-0.005 -0.001 0.067
-0.001 0.009 0.081
0.003 0.009 0.075
-0.013 -0.001 0.091
0.023 0.001 0.035
0.023 0.001 0.039
0.027 0.005 0.039
0.033 0.005 0.043
0.041 0.007 0.043
0.041 0.007 0.043
0.037 0.025 0.051
0.037 0.029 0.059
0.037 0.025 0.051
0.035 0.023 0.055
0.037 0.025 0.047
0.037 0.033 0.053
0.011 0.015 0.081
0.015 0.015 0.077
0.027 0.025 0.073
0.025 0.029 0.075
0.045 0.033 0.091
0.017 0.019 0.105
0.031 0.023 0.099
0.019 0.023 0.105
0.043 0.029 0.103
0.043 0.031 0.101
-0.027 -0.037 0.061
-0.035 -0.031 0.055
-0.037 -0.031 0.065
-0.033 -0.031 0.069
-0.033 -0.033 0.067
-0.043 -0.037 0.079
-0.013 -0.023 0.057
-0.035 -0.031 0.069
-0.043 -0.033 0.081
-0.025 -0.021 0.069
-0.011 -0.025 0.065
-0.013 -0.019 0.065
-0.037 -0.011 0.071
-0.023 -0.021 0.069
-0.043 -0.035 0.087
-0.041 -0.037 0.087
-0.035 -0.011 0.079
-0.035 -0.009 0.079
-0.033 -0.017 0.085
-0.025 -0.021 0.073
-0.021 -0.019 0.079
-0.017 -0.015 0.087
-0.031 -0.003 0.085
-0.011 -0.003 0.091
-0.013 -0.023 0.067
0.011 -0.003 0.041
-0.035 0.003 0.039
-0.037 -0.011 0.069
-0.041 -0.029 0.083
-0.035 -0.015 0.081
-0.031 -0.013 0.089
-0.019 0.001 0.095
-0.021 0.003 0.091
-0.001 0.019 0.097
-0.013 -0.019 0.073
0.011 0.003 0.053
0.029 0.005 0.043
0.003 0.001 0.053
-0.009 0.005 0.091
0.027 0.013 0.055
0.031 0.019 0.059
-0.023 -0.007 0.095
-0.007 0.003 0.089
0.013 0.015 0.075
0.013 0.013 0.087
-0.001 0.009 0.097
0.015 0.013 0.095
-0.001 0.025 0.095
0.027 0.019 0.095
-0.001 0.017 0.091
-0.001 0.009 0.101
0.021 0.021 0.105
0.039 0.027 0.101
-0.003 0.019 0.111
0.023 0.023 0.105
0.033 0.035 0.105
-0.035 -0.019 0.031
-0.035 -0.013 0.035
-0.031 -0.025 0.043
-0.037 -0.031 0.063
-0.033 -0.017 0.039
-0.033 -0.019 0.039
-0.025 0.009 0.043
-0.033 -0.011 0.057
-0.033 -0.007 0.057
-0.029 0.001 0.057
-0.037 -0.027 0.067
-0.035 -0.015 0.081
-0.033 -0.003 0.081
-0.029 -0.003 0.089
-0.033 0.003 0.041
-0.005 0.029 0.033
-0.027 0.003 0.083
-0.025 0.005 0.085
-0.001 0.017 0.083
-0.001 0.033 0.037
-0.003 0.029 0.041
-0.001 0.023 0.057
0.007 0.029 0.051
0.013 0.033 0.061
0.007 0.039 0.037
0.013 0.035 0.055
0.025 0.041 0.057
-0.005 0.017 0.075
0.005 0.023 0.071
0.003 0.021 0.073
-0.001 0.019 0.095
0.001 0.031 0.087
0.007 0.033 0.085
0.011 0.035 0.087
0.017 0.037 0.087
0.033 0.043 0.095
0.003 0.035 0.105
0.033 0.039 0.103
-0.033 -0.011 0.033
-0.033 -0.005 0.043
-0.035 -0.019 0.037
-0.025 -0.003 0.033
-0.027 0.001 0.061
-0.017 0.003 0.055
-0.017 0.003 0.055
-0.041 -0.023 0.079
-0.035 -0.013 0.077
-0.019 0.011 0.079
-0.011 0.013 0.081
-0.019 0.007 0.089
-0.003 -0.005 0.037
-0.003 -0.003 0.035
-0.001 -0.007 0.039
0.001 -0.007 0.037
-0.029 0.007 0.045
-0.003 0.025 0.047
-0.015 0.015 0.067
-0.015 0.015 0.075
-0.027 0.003 0.087
-0.003 0.021 0.107
-0.005 0.021 0.109
0.005 0.037 0.035
0.011 0.041 0.037
0.009 0.039 0.045
0.005 0.029 0.049
0.003 0.033 0.041
0.011 0.041 0.037
0.001 0.019 0.063
0.001 0.019 0.063
0.011 0.023 0.055
0.017 0.043 0.041
0.019 0.039 0.043
0.025 0.041 0.053
0.011 0.041 0.051
0.001 0.023 0.077
0.007 0.031 0.079
0.011 0.035 0.089
0.015 0.035 0.087
0.013 0.037 0.093
0.013 0.037 0.093
0.023 0.039 0.091
0.039 0.041 0.089
-0.001 0.033 0.097
0.023 0.037 0.099
0.019 0.039 0.101
0.021 0.037 0.103
0.009 0.035 0.099
