-0.037 -0.011 0.075
-0.035 -0.009 0.071
-0.033 -0.021 0.039
-0.033 -0.019 0.039
-0.033 -0.019 0.039
-0.033 -0.017 0.039
-0.033 -0.003 0.073
-0.031 -0.005 0.051
-0.031 -0.001 0.059
-0.029 0.001 0.055
-0.029 -0.003 0.069
-0.031 -0.001 0.063
-0.027 0.001 0.061
-0.025 0.003 0.053
-0.041 -0.027 0.075
-0.033 -0.031 0.049
-0.037 -0.021 0.073
-0.039 -0.021 0.079
-0.033 -0.021 0.081
-0.035 -0.015 0.081
-0.033 -0.015 0.083
-0.043 -0.029 0.079
-0.043 -0.029 0.079
-0.037 -0.023 0.085
-0.041 -0.027 0.083
-0.039 -0.025 0.085
-0.039 -0.025 0.085
-0.039 -0.025 0.085
-0.035 -0.023 0.085
-0.035 -0.027 0.033
-0.033 -0.027 0.039
-0.035 -0.021 0.035
-0.035 -0.009 0.039
-0.035 0.001 0.039
-0.033 -0.005 0.041
-0.033 -0.011 0.043
-0.033 -0.011 0.043
-0.037 -0.029 0.061
-0.039 -0.025 0.069
-0.039 -0.025 0.071
-0.039 -0.023 0.071
-0.039 -0.021 0.075
-0.039 -0.021 0.075
-0.037 -0.021 0.071
-0.035 -0.017 0.069
-0.037 -0.011 0.069
-0.031 -0.025 0.041
-0.027 -0.025 0.043
-0.035 -0.017 0.069
-0.035 -0.015 0.081
-0.037 -0.011 0.069
-0.035 -0.007 0.075
-0.035 -0.009 0.083
-0.033 -0.005 0.085
-0.031 -0.005 0.087
-0.033 -0.009 0.087
-0.031 -0.009 0.089
-0.027 -0.007 0.093
-0.033 -0.007 0.087
-0.033 -0.005 0.083
-0.031 -0.003 0.087
-0.031 -0.003 0.087
-0.031 -0.003 0.087
-0.029 -0.001 0.087
-0.029 -0.003 0.089
-0.033 -0.003 0.071
-0.033 -0.003 0.069
-0.031 -0.003 0.051
-0.031 -0.001 0.045
-0.029 0.003 0.045
-0.029 0.001 0.047
-0.027 0.001 0.049
-0.029 -0.001 0.065
-0.025 0.003 0.057
-0.019 0.005 0.053
-0.015 0.003 0.055
-0.017 0.007 0.067
-0.021 0.009 0.075
-0.027 0.003 0.087
-0.025 0.001 0.091
-0.025 0.005 0.085
-0.017 0.003 0.055
-0.035 -0.017 0.081
-0.033 -0.017 0.083
-0.035 -0.019 0.081
-0.035 -0.019 0.081
-0.037 -0.023 0.083
-0.037 -0.021 0.075
-0.037 -0.011 0.075
-0.033 -0.011 0.085
-0.031 -0.007 0.089
-0.021 -0.013 0.089
-0.029 -0.005 0.089
-0.029 -0.013 0.091
-0.029 -0.015 0.089
-0.027 -0.015 0.089
-0.009 -0.029 0.061
-0.027 -0.007 0.093
-0.025 -0.009 0.095
-0.035 -0.007 0.065
-0.031 -0.005 0.053
-0.031 -0.001 0.059
-0.033 -0.003 0.067
-0.029 -0.001 0.065
-0.027 -0.001 0.067
-0.027 0.003 0.087
-0.041 -0.027 0.083
-0.043 -0.037 0.081
-0.043 -0.035 0.081
-0.043 -0.031 0.083
-0.037 -0.021 0.073
-0.039 -0.023 0.073
-0.041 -0.025 0.079
-0.041 -0.023 0.079
-0.041 -0.023 0.079
-0.037 -0.021 0.079
-0.035 -0.021 0.081
-0.035 -0.019 0.079
-0.037 -0.013 0.075
-0.037 -0.011 0.075
-0.037 -0.011 0.075
-0.033 -0.005 0.077
-0.041 -0.029 0.085
-0.035 -0.025 0.087
-0.037 -0.023 0.085
-0.035 -0.021 0.081
-0.029 -0.015 0.089
-0.025 -0.011 0.093
-0.027 -0.011 0.093
-0.025 -0.011 0.093
-0.021 -0.013 0.089
-0.027 -0.009 0.093
-0.027 -0.005 0.091
-0.031 -0.003 0.073
-0.025 0.005 0.087
-0.027 -0.007 0.093
-0.031 -0.001 0.083
-0.031 -0.001 0.079
-0.031 -0.001 0.083
-0.027 0.003 0.087
-0.025 0.003 0.089
-0.027 -0.001 0.089
-0.021 0.007 0.087
-0.017 0.007 0.089
-0.021 -0.003 0.095
-0.023 -0.001 0.093
-0.019 0.001 0.093
-0.031 -0.017 0.089
-0.023 -0.017 0.087
-0.031 -0.015 0.089
-0.031 -0.013 0.089
-0.023 -0.009 0.093
-0.023 -0.015 0.089
-0.031 -0.001 0.085
-0.021 -0.015 0.089
-0.025 -0.011 0.093
-0.023 -0.007 0.095
-0.027 -0.005 0.091
-0.021 -0.003 0.095
-0.019 -0.003 0.095
-0.019 -0.001 0.095
-0.019 -0.007 0.093
-0.023 -0.003 0.095
-0.021 -0.005 0.095
-0.019 -0.011 0.091
-0.019 -0.009 0.091
-0.011 -0.001 0.091
-0.015 -0.007 0.091
-0.023 0.007 0.083
-0.023 0.007 0.087
-0.025 0.003 0.089
-0.023 0.005 0.089
-0.021 0.005 0.089
-0.015 0.011 0.085
-0.015 0.013 0.083
-0.015 0.013 0.083
-0.009 0.011 0.085
-0.007 0.013 0.081
-0.033 0.005 0.041
-0.031 0.003 0.041
-0.031 0.009 0.041
-0.021 0.005 0.047
-0.023 0.005 0.053
-0.023 0.009 0.043
-0.019 0.005 0.051
-0.019 0.005 0.053
-0.017 0.013 0.069
-0.015 0.015 0.067
-0.019 0.011 0.075
-0.015 0.013 0.063
-0.017 0.013 0.069
-0.017 0.013 0.071
-0.007 0.021 0.049
-0.007 0.023 0.047
-0.007 0.021 0.045
-0.007 0.021 0.047
-0.007 0.027 0.041
-0.007 0.025 0.039
-0.007 0.027 0.041
-0.007 0.021 0.045
-0.005 0.023 0.051
-0.019 0.001 0.059
-0.019 0.003 0.057
-0.027 0.001 0.061
-0.021 0.001 0.061
-0.015 0.003 0.055
-0.017 0.003 0.055
-0.021 0.009 0.077
-0.019 0.011 0.081
-0.015 0.011 0.061
-0.021 0.009 0.085
-0.019 0.011 0.075
-0.019 0.009 0.085
-0.009 0.019 0.057
-0.007 0.021 0.055
-0.005 0.023 0.053
-0.009 0.019 0.059
-0.005 0.025 0.053
-0.011 0.017 0.063
-0.003 0.033 0.035
-0.023 0.007 0.079
-0.025 0.005 0.083
-0.027 0.003 0.085
-0.025 0.005 0.087
-0.023 0.007 0.081
-0.021 0.009 0.079
-0.017 0.013 0.075
-0.021 0.009 0.083
-0.005 0.015 0.077
-0.011 0.007 0.091
-0.003 0.015 0.081
-0.001 0.017 0.081
-0.029 0.001 0.085
-0.027 0.003 0.083
-0.027 0.003 0.085
-0.025 0.005 0.087
-0.021 0.001 0.091
-0.019 0.005 0.091
-0.007 0.003 0.089
-0.005 0.013 0.085
-0.009 0.009 0.091
-0.007 0.009 0.089
-0.007 0.011 0.089
-0.005 0.013 0.085
-0.017 0.001 0.095
-0.015 0.003 0.095
-0.015 0.001 0.095
-0.013 0.007 0.093
-0.011 0.009 0.091
-0.001 0.021 0.083
-0.003 0.029 0.091
-0.005 0.029 0.093
-0.001 0.021 0.095
-0.009 0.027 0.101
-0.001 0.019 0.097
-0.011 0.013 0.113
-0.007 0.017 0.069
0.001 0.021 0.061
-0.007 0.021 0.053
-0.005 0.025 0.053
0.003 0.027 0.049
0.003 0.031 0.041
0.005 0.029 0.049
-0.015 0.015 0.069
-0.015 0.015 0.075
-0.011 0.017 0.071
-0.009 0.017 0.075
-0.009 0.019 0.057
-0.005 0.021 0.061
-0.015 0.013 0.081
-0.005 0.017 0.075
-0.001 0.019 0.087
-0.007 0.025 0.097
-0.003 0.019 0.091
0.001 0.021 0.077
-0.009 0.027 0.101
-0.007 0.029 0.093
-0.005 0.029 0.089
-0.009 0.027 0.097
-0.001 0.015 0.081
-0.003 0.019 0.091
-0.007 0.025 0.097
-0.001 0.021 0.095
-0.007 0.023 0.047
-0.001 0.023 0.055
0.003 0.033 0.043
0.001 0.027 0.049
0.001 0.027 0.049
0.007 0.023 0.055
0.007 0.027 0.069
0.007 0.029 0.069
0.007 0.031 0.077
0.011 0.033 0.069
-0.015 0.011 0.085
-0.013 0.011 0.087
-0.007 0.015 0.079
-0.001 0.017 0.079
-0.011 0.009 0.087
-0.013 0.009 0.089
-0.005 0.013 0.085
-0.007 0.011 0.085
-0.005 0.029 0.103
-0.001 0.027 0.101
0.005 0.023 0.055
0.005 0.027 0.051
0.009 0.027 0.053
0.009 0.031 0.051
0.009 0.029 0.065
0.011 0.031 0.053
-0.003 0.029 0.087
-0.007 0.029 0.097
-0.005 0.029 0.101
-0.005 0.029 0.103
-0.005 0.029 0.103
-0.003 0.029 0.103
-0.003 0.031 0.101
0.001 0.031 0.103
-0.009 0.027 0.103
-0.009 0.027 0.103
-0.005 0.027 0.103
-0.005 0.027 0.103
-0.001 0.033 0.097
0.001 0.023 0.097
-0.001 0.031 0.101
-0.003 0.029 0.103
0.003 0.027 0.101
0.005 0.027 0.103
0.005 0.029 0.103
-0.001 0.033 0.097
-0.001 0.031 0.099
0.005 0.033 0.095
0.007 0.035 0.093
0.013 0.035 0.083
0.001 0.033 0.101
0.005 0.035 0.099
0.017 0.037 0.087
0.003 0.035 0.107
0.007 0.035 0.101
0.007 0.039 0.037
0.009 0.039 0.043
0.007 0.037 0.045
0.009 0.039 0.045
0.005 0.033 0.045
0.005 0.035 0.045
0.005 0.035 0.045
0.007 0.037 0.047
0.009 0.039 0.051
0.009 0.039 0.051
0.017 0.037 0.057
0.019 0.039 0.059
0.017 0.041 0.053
0.019 0.043 0.041
0.019 0.045 0.039
0.023 0.047 0.041
0.023 0.043 0.039
0.025 0.043 0.039
0.015 0.041 0.055
0.015 0.041 0.055
0.025 0.041 0.055
0.019 0.049 0.039
0.021 0.049 0.039
0.023 0.049 0.039
0.009 0.039 0.051
0.013 0.037 0.055
0.015 0.035 0.063
0.023 0.041 0.057
0.025 0.041 0.059
0.023 0.039 0.065
0.027 0.037 0.067
0.019 0.039 0.059
0.019 0.039 0.059
0.021 0.039 0.061
0.021 0.039 0.063
0.023 0.039 0.065
0.029 0.041 0.057
0.027 0.037 0.067
0.033 0.037 0.063
-0.011 0.009 0.091
-0.009 0.011 0.087
-0.011 0.007 0.091
-0.005 0.011 0.087
-0.001 0.017 0.079
-0.001 0.015 0.077
-0.009 0.009 0.091
-0.007 0.011 0.089
-0.005 0.013 0.085
0.001 0.023 0.099
-0.001 0.017 0.071
-0.001 0.021 0.081
-0.005 0.027 0.103
0.007 0.029 0.071
-0.001 0.019 0.085
-0.003 0.019 0.091
-0.009 0.027 0.097
0.003 0.035 0.107
0.007 0.035 0.105
0.003 0.035 0.107
0.009 0.035 0.097
-0.005 0.019 0.107
-0.001 0.019 0.097
-0.001 0.021 0.109
0.001 0.011 0.089
-0.007 0.019 0.111
-0.011 0.017 0.113
-0.007 0.019 0.111
0.007 0.021 0.109
0.001 0.033 0.093
0.001 0.021 0.097
0.005 0.025 0.109
0.009 0.029 0.105
0.009 0.027 0.111
0.013 0.027 0.107
0.009 0.033 0.105
0.009 0.027 0.111
0.011 0.027 0.109
0.005 0.025 0.115
0.013 0.027 0.107
0.019 0.025 0.105
0.021 0.025 0.105
0.023 0.025 0.105
0.021 0.025 0.105
0.023 0.025 0.105
0.005 0.035 0.105
0.011 0.031 0.105
0.013 0.031 0.105
0.013 0.029 0.105
0.017 0.029 0.105
0.019 0.029 0.105
0.021 0.029 0.105
0.017 0.029 0.105
0.019 0.029 0.105
0.021 0.033 0.105
0.031 0.035 0.103
0.033 0.033 0.105
0.031 0.035 0.103
0.023 0.035 0.103
0.027 0.033 0.105
0.011 0.033 0.077
0.025 0.037 0.069
0.011 0.035 0.089
0.011 0.037 0.095
0.005 0.033 0.091
-0.001 0.033 0.097
0.007 0.035 0.097
0.013 0.035 0.087
0.017 0.039 0.093
0.017 0.037 0.103
0.023 0.041 0.095
0.017 0.037 0.101
0.021 0.039 0.101
0.019 0.039 0.095
0.011 0.035 0.103
0.019 0.037 0.097
0.021 0.035 0.103
0.019 0.039 0.101
0.027 0.041 0.097
0.029 0.039 0.099
0.035 0.041 0.101
0.041 0.043 0.087
0.043 0.043 0.087
0.031 0.037 0.103
0.033 0.037 0.105
0.035 0.039 0.105
0.033 0.039 0.103
0.001 0.017 0.109
0.009 0.015 0.107
0.009 0.015 0.109
0.009 0.015 0.107
0.011 0.017 0.107
0.015 0.015 0.107
-0.001 0.021 0.109
0.001 0.021 0.099
0.011 0.017 0.107
0.005 0.025 0.115
0.009 0.029 0.105
0.013 0.017 0.107
0.005 0.025 0.115
0.009 0.023 0.113
0.007 0.027 0.109
0.009 0.029 0.105
0.007 0.025 0.115
0.019 0.021 0.105
0.023 0.025 0.105
0.027 0.029 0.105
0.021 0.023 0.105
0.017 0.025 0.105
0.023 0.025 0.105
0.021 0.027 0.105
0.023 0.027 0.105
0.005 0.023 0.115
0.007 0.023 0.115
0.005 0.025 0.115
0.039 0.027 0.101
0.037 0.031 0.105
0.003 0.033 0.103
0.003 0.035 0.105
0.007 0.035 0.103
0.017 0.037 0.103
0.029 0.035 0.101
0.025 0.037 0.103
0.025 0.037 0.103
0.031 0.039 0.101
0.027 0.033 0.105
0.031 0.033 0.103
0.025 0.037 0.103
0.027 0.033 0.105
0.033 0.041 0.101
0.031 0.039 0.101
0.037 0.039 0.105
0.035 0.043 0.101
0.039 0.041 0.105
0.039 0.043 0.103
