-0.031 -0.037 0.043
-0.021 -0.041 0.047
-0.025 -0.041 0.051
-0.031 -0.039 0.057
-0.027 -0.013 0.047
-0.033 -0.037 0.055
-0.037 -0.029 0.063
-0.043 -0.037 0.081
-0.041 -0.035 0.085
-0.019 -0.017 0.083
-0.031 -0.009 0.089
-0.025 -0.009 0.095
-0.025 -0.041 0.051
-0.011 -0.029 0.053
-0.033 -0.011 0.087
-0.009 -0.031 0.049
-0.021 -0.037 0.055
-0.037 -0.029 0.067
-0.013 -0.021 0.069
-0.013 -0.019 0.071
0.029 0.011 0.053
-0.025 -0.021 0.073
-0.039 -0.033 0.079
-0.041 -0.035 0.075
-0.043 -0.037 0.081
0.001 0.001 0.075
0.019 0.017 0.075
0.003 0.009 0.101
0.003 0.009 0.097
0.033 0.033 0.105
-0.005 -0.029 0.057
-0.035 -0.031 0.069
-0.037 -0.029 0.073
-0.027 -0.011 0.093
-0.015 -0.009 0.091
-0.015 -0.001 0.093
0.005 -0.017 0.033
0.007 -0.015 0.033
-0.005 -0.025 0.039
-0.003 -0.021 0.039
-0.003 -0.021 0.041
-0.005 -0.007 0.041
-0.005 -0.007 0.047
0.019 -0.003 0.035
0.011 0.013 0.087
0.021 0.001 0.031
0.023 0.003 0.035
0.033 0.005 0.043
0.037 0.021 0.045
0.029 0.003 0.035
0.035 0.029 0.035
0.033 0.021 0.055
0.009 0.019 0.069
0.019 0.017 0.077
0.005 0.015 0.081
0.025 0.019 0.087
0.033 0.021 0.085
0.027 0.023 0.073
0.017 0.015 0.087
-0.019 -0.021 0.047
-0.021 -0.019 0.047
-0.007 -0.023 0.061
-0.015 -0.011 0.089
-0.023 -0.021 0.079
-0.039 -0.035 0.087
-0.041 -0.029 0.085
-0.009 -0.003 0.089
-0.013 -0.003 0.091
-0.003 -0.001 0.079
0.001 0.021 0.109
0.009 0.013 0.061
0.011 0.003 0.053
0.003 0.001 0.065
0.027 0.017 0.059
0.013 0.019 0.105
0.027 0.019 0.097
0.005 0.009 0.101
0.013 0.013 0.091
0.019 0.015 0.091
0.033 0.021 0.085
0.029 0.027 0.103
0.037 0.037 0.107
0.013 0.037 0.055
0.011 0.039 0.053
0.009 0.039 0.051
0.003 0.027 0.049
0.005 0.021 0.057
-0.021 0.003 0.057
-0.025 0.001 0.061
-0.019 0.011 0.083
0.001 0.033 0.093
0.025 0.041 0.047
-0.033 0.007 0.033
0.001 0.035 0.035
-0.011 0.017 0.113
0.021 0.049 0.039
0.027 0.043 0.039
0.021 0.041 0.047
0.037 0.035 0.047
0.033 0.039 0.041
0.033 0.039 0.057
0.039 0.017 0.035
0.025 0.049 0.033
0.033 0.031 0.067
0.037 0.041 0.089
0.021 0.037 0.089
0.027 0.035 0.071
0.035 0.041 0.081
0.011 0.035 0.101
0.021 0.037 0.103
0.009 0.035 0.103
-0.025 -0.039 0.057
-0.023 -0.039 0.053
-0.023 -0.035 0.059
-0.023 -0.031 0.055
-0.009 -0.029 0.061
-0.005 -0.023 0.061
0.001 -0.017 0.037
-0.005 -0.019 0.051
-0.015 -0.013 0.059
-0.007 -0.017 0.053
-0.003 -0.027 0.053
-0.005 -0.023 0.057
-0.005 -0.029 0.059
-0.011 -0.007 0.089
-0.011 -0.009 0.081
-0.013 -0.003 0.059
0.001 -0.001 0.061
0.003 0.007 0.075
-0.007 -0.003 0.087
0.035 0.011 0.045
0.037 0.025 0.045
0.005 0.001 0.061
0.009 0.013 0.061
0.027 0.013 0.055
0.021 0.017 0.067
0.039 0.031 0.049
0.011 0.015 0.075
0.005 0.009 0.089
0.031 0.023 0.099
0.017 0.017 0.105
0.039 0.025 0.097
0.023 0.031 0.105
-0.005 -0.017 0.049
-0.003 -0.015 0.047
0.035 0.025 0.059
0.033 0.015 0.047
0.035 0.019 0.047
-0.005 -0.015 0.051
0.003 0.001 0.063
-0.011 -0.009 0.081
-0.009 -0.005 0.087
0.037 0.039 0.095
0.033 0.043 0.095
0.033 0.035 0.037
0.039 0.015 0.041
0.037 0.033 0.039
0.013 0.003 0.051
0.035 0.037 0.059
0.033 0.031 0.065
0.041 0.011 0.035
0.043 0.011 0.041
0.023 0.047 0.041
0.047 0.039 0.087
0.045 0.043 0.083
0.023 0.029 0.077
0.039 0.041 0.089
0.047 0.035 0.089
0.039 0.027 0.089
0.031 0.035 0.067
0.043 0.033 0.101
0.019 0.017 0.103
0.037 0.043 0.097
-0.027 0.007 0.045
-0.029 -0.001 0.065
-0.029 -0.001 0.063
-0.033 -0.003 0.077
-0.035 -0.007 0.065
-0.019 0.005 0.041
-0.009 0.019 0.061
-0.017 0.013 0.079
-0.037 -0.021 0.075
-0.031 -0.007 0.089
-0.019 0.005 0.045
-0.023 0.005 0.051
-0.001 0.025 0.051
-0.017 0.013 0.069
-0.005 0.017 0.071
0.025 0.039 0.041
0.005 0.025 0.053
0.033 0.039 0.057
0.029 0.037 0.067
0.007 0.039 0.037
0.017 0.051 0.035
0.015 0.035 0.061
0.035 0.037 0.059
-0.001 0.019 0.079
0.009 0.031 0.069
0.027 0.037 0.069
0.011 0.035 0.089
0.007 0.035 0.097
0.023 0.039 0.083
0.029 0.039 0.083
0.035 0.039 0.105
0.031 0.037 0.103
0.035 0.039 0.105
-0.011 -0.029 0.037
-0.029 -0.029 0.067
-0.003 -0.023 0.043
-0.015 -0.013 0.055
-0.003 -0.029 0.049
-0.019 -0.017 0.085
-0.021 -0.015 0.089
0.001 -0.001 0.063
0.005 0.003 0.063
0.041 0.007 0.043
0.009 0.001 0.051
0.037 0.031 0.041
0.035 0.037 0.043
0.035 0.039 0.051
0.029 0.027 0.073
0.031 0.029 0.069
0.031 0.021 0.095
0.033 0.023 0.087
0.023 0.017 0.097
0.029 0.033 0.071
0.033 0.031 0.067
0.033 0.031 0.089
0.045 0.033 0.091
0.041 0.027 0.099
-0.009 -0.027 0.063
-0.035 -0.027 0.087
-0.039 -0.033 0.087
-0.029 -0.021 0.077
-0.033 -0.003 0.065
-0.017 -0.001 0.095
-0.019 0.003 0.091
-0.015 -0.003 0.091
-0.011 0.017 0.073
-0.027 0.001 0.089
-0.011 0.001 0.091
0.031 0.007 0.047
-0.007 0.025 0.097
-0.003 0.019 0.111
-0.003 0.027 0.101
0.005 0.015 0.101
-0.001 0.019 0.111
0.015 0.017 0.107
0.023 0.037 0.103
-0.009 -0.019 0.063
0.003 -0.009 0.039
-0.009 -0.031 0.055
-0.005 -0.031 0.051
-0.009 -0.019 0.063
-0.025 -0.021 0.069
-0.017 -0.011 0.075
-0.033 -0.027 0.083
-0.017 -0.015 0.085
-0.013 -0.005 0.073
-0.021 -0.017 0.087
0.011 0.013 0.057
0.017 0.015 0.097
0.021 0.017 0.099
0.021 0.017 0.099
0.009 0.013 0.059
0.035 0.023 0.055
0.035 0.031 0.037
0.027 0.045 0.037
0.037 0.025 0.055
0.037 0.025 0.051
0.005 0.013 0.069
0.033 0.027 0.067
0.011 0.013 0.095
0.039 0.025 0.083
0.027 0.021 0.091
0.043 0.029 0.101
-0.019 -0.039 0.045
-0.021 -0.041 0.049
-0.019 -0.035 0.051
-0.029 -0.037 0.059
-0.019 -0.037 0.051
-0.015 -0.025 0.045
-0.009 -0.025 0.035
-0.025 -0.033 0.061
-0.013 -0.025 0.063
-0.033 -0.031 0.069
-0.031 -0.025 0.071
-0.009 -0.025 0.065
-0.017 -0.017 0.081
0.019 -0.003 0.031
-0.001 0.001 0.047
0.009 0.003 0.055
-0.001 -0.001 0.057
0.001 -0.001 0.057
0.007 0.003 0.061
-0.001 0.001 0.081
-0.015 -0.001 0.093
0.005 0.009 0.097
0.027 0.005 0.043
0.011 0.017 0.057
0.021 0.017 0.057
0.037 0.027 0.059
0.017 0.013 0.055
0.033 0.017 0.049
0.027 0.019 0.065
0.025 0.019 0.067
0.005 0.017 0.075
0.017 0.015 0.085
0.019 0.015 0.085
0.005 0.009 0.089
0.007 0.011 0.097
0.033 0.021 0.085
0.041 0.025 0.085
0.029 0.031 0.071
0.007 0.021 0.109
0.011 0.023 0.109
0.017 0.027 0.105
0.009 0.023 0.113
-0.029 -0.017 0.043
-0.025 -0.019 0.043
-0.031 -0.019 0.059
-0.031 -0.019 0.061
-0.037 -0.029 0.063
-0.039 -0.023 0.083
-0.039 -0.023 0.081
-0.035 -0.009 0.073
-0.033 -0.011 0.083
-0.025 -0.015 0.049
-0.035 0.001 0.037
-0.009 0.019 0.065
-0.031 -0.005 0.053
-0.035 -0.009 0.063
-0.015 0.015 0.069
-0.015 0.007 0.061
-0.015 0.013 0.065
-0.033 -0.007 0.087
-0.015 0.003 0.095
0.005 0.017 0.097
-0.003 0.031 0.091
-0.009 0.027 0.101
-0.001 0.027 0.101
0.001 0.021 0.099
0.017 0.033 0.105
-0.031 -0.033 0.039
-0.037 -0.031 0.059
-0.035 -0.029 0.055
-0.029 -0.017 0.043
-0.011 -0.025 0.047
-0.033 -0.007 0.041
-0.035 0.001 0.039
-0.035 -0.021 0.067
-0.043 -0.035 0.079
-0.035 -0.009 0.079
-0.035 -0.003 0.041
-0.007 0.005 0.047
-0.019 0.001 0.071
-0.021 0.009 0.083
-0.003 0.031 0.033
-0.031 0.009 0.041
-0.007 0.027 0.037
-0.001 0.023 0.057
0.005 0.029 0.049
0.001 0.025 0.053
0.013 0.041 0.041
0.003 0.021 0.071
-0.007 0.017 0.075
0.005 0.021 0.069
-0.007 0.011 0.089
-0.001 0.031 0.085
-0.001 0.031 0.087
0.001 0.033 0.091
0.025 0.039 0.085
0.019 0.037 0.091
0.009 0.019 0.103
-0.009 0.027 0.101
-0.017 -0.033 0.031
-0.021 -0.037 0.055
-0.033 -0.007 0.047
-0.027 -0.033 0.035
-0.027 -0.039 0.041
-0.029 -0.041 0.049
-0.031 -0.033 0.065
-0.035 -0.031 0.067
-0.035 -0.029 0.079
-0.023 -0.021 0.079
-0.027 -0.041 0.051
-0.011 -0.021 0.049
-0.019 -0.037 0.051
-0.013 -0.027 0.061
-0.015 -0.013 0.079
-0.025 -0.011 0.093
-0.007 0.015 0.113
0.007 -0.015 0.035
0.017 0.001 0.041
0.017 0.007 0.049
0.013 0.005 0.051
0.015 0.021 0.061
0.027 0.005 0.043
0.025 0.005 0.043
0.031 0.013 0.053
0.027 0.019 0.067
0.001 0.009 0.087
0.003 0.017 0.081
0.011 0.013 0.085
0.029 0.019 0.083
0.027 0.019 0.087
0.035 0.031 0.103
-0.033 -0.037 0.057
-0.031 -0.031 0.035
-0.031 -0.037 0.045
-0.021 -0.041 0.047
-0.011 -0.031 0.037
-0.013 -0.033 0.035
-0.021 -0.041 0.047
-0.023 -0.035 0.057
-0.029 -0.033 0.065
-0.017 -0.017 0.067
-0.013 -0.003 0.071
0.007 -0.015 0.033
-0.021 -0.039 0.037
-0.003 0.007 0.041
0.007 0.001 0.045
0.015 0.011 0.055
0.013 0.021 0.061
0.017 0.021 0.061
0.013 -0.005 0.037
0.033 0.005 0.043
0.017 0.019 0.065
0.029 0.023 0.069
0.025 0.023 0.075
0.047 0.027 0.083
0.027 0.021 0.091
0.033 0.035 0.081
0.039 0.027 0.087
0.003 0.009 0.103
0.007 0.011 0.103
0.023 0.023 0.105
-0.027 -0.031 0.063
-0.009 -0.019 0.055
-0.007 -0.017 0.053
0.013 0.001 0.047
-0.003 -0.025 0.053
0.019 0.015 0.087
-0.013 -0.009 0.059
-0.029 -0.025 0.065
0.021 0.001 0.039
0.033 0.023 0.087
0.033 0.023 0.087
0.029 0.037 0.067
0.047 0.039 0.087
0.001 0.005 0.077
0.011 0.015 0.109
0.009 0.033 0.105
0.033 0.009 0.045
0.021 0.011 0.053
0.015 0.007 0.051
0.031 0.021 0.063
0.031 0.023 0.067
0.047 0.029 0.085
0.035 0.023 0.057
0.029 0.041 0.051
0.037 0.035 0.047
0.027 0.019 0.097
0.027 0.039 0.085
0.019 0.033 0.105
0.039 0.031 0.105
0.035 0.039 0.105
-0.033 -0.003 0.043
-0.021 0.009 0.083
-0.023 0.009 0.043
-0.005 0.023 0.037
-0.023 0.003 0.057
-0.003 0.019 0.091
-0.001 0.021 0.105
0.001 0.035 0.037
-0.003 0.013 0.037
-0.005 0.015 0.041
-0.005 0.025 0.045
0.003 0.031 0.041
0.015 0.041 0.043
0.015 0.035 0.063
0.015 0.043 0.041
0.011 0.033 0.077
0.011 0.033 0.075
0.003 0.015 0.095
0.015 0.035 0.073
0.023 0.039 0.083
0.023 0.041 0.095
0.025 0.041 0.093
-0.001 0.019 0.097
0.007 0.035 0.105
-0.035 -0.015 0.033
-0.033 0.007 0.035
-0.035 -0.031 0.055
-0.033 0.005 0.039
-0.033 0.007 0.039
-0.033 -0.005 0.045
-0.017 0.005 0.041
-0.033 -0.005 0.059
-0.033 -0.007 0.057
-0.017 0.013 0.073
-0.005 0.025 0.043
-0.019 0.009 0.071
0.011 0.039 0.053
0.005 0.029 0.049
0.011 0.041 0.037
0.015 0.047 0.039
0.025 0.041 0.059
0.031 0.039 0.041
0.003 0.023 0.075
-0.001 0.031 0.085
0.041 0.043 0.083
