-0.031 -0.035 0.063
-0.021 -0.027 0.049
-0.023 -0.041 0.047
-0.035 -0.035 0.061
-0.009 -0.027 0.039
-0.009 -0.031 0.055
-0.039 -0.037 0.087
-0.035 -0.031 0.087
-0.027 -0.029 0.065
-0.029 -0.013 0.091
-0.001 0.007 0.095
-0.007 0.027 0.089
-0.005 0.015 0.111
0.007 0.001 0.045
0.005 0.013 0.069
0.011 0.011 0.057
0.025 0.011 0.053
0.001 0.005 0.079
0.039 0.009 0.045
0.037 0.015 0.043
0.033 0.019 0.055
0.033 0.019 0.055
0.017 0.015 0.097
0.005 0.009 0.099
0.009 0.011 0.095
0.013 0.013 0.107
0.027 0.021 0.103
0.027 0.023 0.103
0.017 0.025 0.105
0.035 0.027 0.101
0.005 0.019 0.107
0.035 0.035 0.107
-0.033 -0.037 0.059
-0.035 -0.019 0.037
-0.033 -0.007 0.057
-0.013 -0.019 0.067
-0.043 -0.033 0.079
-0.043 -0.037 0.081
-0.021 -0.019 0.081
-0.023 -0.019 0.083
-0.021 -0.007 0.093
-0.025 -0.009 0.095
-0.021 -0.005 0.095
-0.029 -0.011 0.049
-0.037 -0.031 0.059
-0.029 -0.033 0.065
-0.035 -0.029 0.071
-0.027 -0.013 0.091
-0.007 -0.031 0.055
-0.011 -0.031 0.057
-0.013 -0.019 0.071
-0.013 -0.019 0.071
0.027 0.015 0.057
-0.009 -0.027 0.063
-0.037 -0.027 0.061
-0.035 -0.029 0.077
-0.039 -0.037 0.087
0.019 0.019 0.065
0.015 0.013 0.095
0.017 0.015 0.093
0.039 0.025 0.083
0.003 0.021 0.101
0.001 0.017 0.109
0.015 0.015 0.105
0.007 0.021 0.107
0.011 0.021 0.105
-0.025 -0.041 0.049
-0.013 -0.033 0.041
-0.001 -0.021 0.033
-0.013 -0.033 0.035
-0.013 -0.031 0.035
-0.037 -0.033 0.083
-0.029 -0.023 0.065
-0.003 -0.021 0.041
0.003 0.001 0.047
-0.009 0.001 0.061
0.003 0.001 0.067
-0.005 -0.003 0.083
0.011 -0.001 0.045
0.019 -0.003 0.035
0.027 0.015 0.057
0.025 0.009 0.051
0.019 0.017 0.057
0.037 0.025 0.041
0.035 0.021 0.053
0.023 0.005 0.045
0.023 0.019 0.071
0.007 0.011 0.091
0.021 0.017 0.091
0.023 0.021 0.093
0.041 0.025 0.081
0.005 0.009 0.097
0.019 0.017 0.099
0.021 0.017 0.099
0.033 0.021 0.097
0.037 0.025 0.095
-0.025 -0.027 0.055
-0.009 -0.031 0.057
-0.007 -0.011 0.049
-0.007 -0.005 0.047
-0.025 -0.021 0.071
-0.025 -0.021 0.075
-0.017 -0.017 0.071
-0.037 -0.029 0.089
-0.019 -0.017 0.085
-0.013 -0.011 0.087
-0.009 -0.007 0.087
0.003 -0.007 0.039
-0.005 -0.003 0.081
-0.023 0.001 0.091
-0.015 0.001 0.095
-0.019 0.005 0.091
-0.017 0.001 0.095
-0.007 0.005 0.087
-0.003 0.019 0.111
0.031 0.005 0.045
0.009 0.011 0.101
0.037 0.007 0.045
0.039 0.015 0.043
0.037 0.023 0.053
0.027 0.023 0.103
0.007 0.011 0.103
0.013 0.013 0.099
0.033 0.025 0.065
0.045 0.031 0.089
0.043 0.035 0.105
0.019 0.017 0.103
0.013 0.035 0.103
-0.033 -0.037 0.053
-0.027 -0.039 0.057
-0.035 -0.029 0.055
-0.043 -0.031 0.083
-0.037 -0.011 0.075
-0.039 -0.033 0.087
-0.041 -0.033 0.087
-0.035 -0.013 0.067
-0.031 -0.019 0.083
-0.011 0.007 0.053
-0.005 0.029 0.037
-0.011 0.017 0.057
-0.021 0.009 0.081
-0.029 0.001 0.083
-0.001 0.023 0.091
-0.005 0.027 0.103
-0.005 0.023 0.053
0.005 0.029 0.049
0.011 0.023 0.055
-0.019 0.005 0.091
-0.013 0.015 0.079
0.003 0.015 0.087
0.015 0.047 0.037
0.011 0.013 0.109
0.013 0.019 0.105
0.015 0.037 0.101
0.003 0.021 0.059
-0.025 0.009 0.043
-0.027 0.007 0.041
-0.003 0.025 0.049
0.005 0.025 0.053
0.017 0.043 0.051
-0.013 0.017 0.071
-0.005 0.019 0.069
-0.021 0.009 0.085
0.021 0.041 0.049
0.027 0.041 0.049
0.005 0.035 0.045
-0.011 0.017 0.071
-0.013 0.015 0.073
0.003 0.031 0.083
0.037 0.033 0.039
0.013 0.043 0.039
0.029 0.035 0.033
0.013 0.031 0.055
0.037 0.033 0.041
0.039 0.029 0.047
0.029 0.035 0.033
0.029 0.029 0.073
0.003 0.031 0.083
0.045 0.039 0.091
0.045 0.039 0.089
0.015 0.035 0.105
0.013 0.017 0.107
0.025 0.037 0.099
0.035 0.043 0.101
0.033 0.039 0.103
0.031 0.037 0.103
0.023 0.033 0.105
0.013 0.037 0.099
0.035 0.043 0.099
-0.001 -0.021 0.035
-0.041 -0.035 0.083
-0.019 -0.019 0.079
-0.027 -0.029 0.065
-0.013 -0.011 0.079
-0.001 0.007 0.081
0.007 0.011 0.093
0.013 0.013 0.091
-0.015 0.001 0.095
0.011 0.023 0.111
0.007 0.001 0.049
0.021 0.001 0.039
0.029 0.015 0.057
0.015 0.017 0.071
0.037 0.007 0.033
0.039 0.015 0.043
0.011 0.025 0.109
0.019 0.017 0.099
0.037 0.035 0.107
-0.027 -0.033 0.063
-0.003 -0.011 0.045
-0.027 -0.025 0.057
-0.005 -0.023 0.061
-0.017 -0.013 0.075
-0.019 -0.019 0.079
-0.015 -0.013 0.083
0.037 0.023 0.099
0.033 0.039 0.041
0.009 0.009 0.061
0.033 0.031 0.067
0.021 0.043 0.041
0.045 0.037 0.089
0.047 0.035 0.091
0.027 0.023 0.091
0.025 0.025 0.091
0.027 0.041 0.039
0.031 0.009 0.047
0.043 0.011 0.043
0.039 0.009 0.045
0.029 0.015 0.057
0.035 0.025 0.061
0.039 0.007 0.033
0.037 0.023 0.047
0.019 0.041 0.045
0.029 0.041 0.055
0.029 0.027 0.073
0.027 0.019 0.067
0.029 0.029 0.073
0.045 0.029 0.089
0.041 0.029 0.097
0.049 0.031 0.085
0.037 0.041 0.095
0.041 0.027 0.101
0.043 0.029 0.103
0.009 0.025 0.113
0.037 0.045 0.099
-0.023 0.005 0.045
-0.035 -0.007 0.065
-0.025 -0.001 0.067
-0.033 -0.005 0.049
-0.021 0.003 0.057
-0.027 0.003 0.055
-0.031 -0.003 0.069
-0.015 0.015 0.067
-0.017 0.013 0.069
-0.035 -0.009 0.081
-0.025 -0.005 0.093
0.009 0.033 0.051
-0.005 0.025 0.051
-0.015 0.003 0.053
-0.017 0.013 0.079
-0.019 0.005 0.091
0.001 0.023 0.057
0.007 0.019 0.061
0.029 0.041 0.049
0.029 0.037 0.067
0.005 0.037 0.037
0.007 0.037 0.047
0.021 0.039 0.063
0.035 0.039 0.051
0.001 0.033 0.093
0.023 0.039 0.083
0.023 0.037 0.085
0.029 0.037 0.087
0.027 0.039 0.085
0.039 0.039 0.089
0.005 0.025 0.115
0.003 -0.009 0.039
-0.009 -0.031 0.057
-0.033 -0.029 0.071
-0.031 -0.025 0.071
-0.011 -0.019 0.071
-0.005 -0.003 0.083
-0.017 -0.003 0.093
0.013 0.007 0.055
-0.001 0.001 0.055
-0.005 0.009 0.087
0.015 -0.001 0.041
0.025 0.017 0.059
0.041 0.013 0.043
0.025 0.047 0.035
0.035 0.039 0.049
0.003 0.001 0.069
0.031 0.027 0.089
0.035 0.029 0.089
0.043 0.033 0.101
0.015 0.021 0.105
0.037 0.037 0.107
-0.001 -0.021 0.035
-0.019 -0.041 0.043
-0.019 -0.033 0.051
-0.003 -0.013 0.041
-0.015 -0.013 0.063
-0.001 -0.019 0.037
-0.031 -0.023 0.071
-0.035 -0.029 0.079
-0.013 -0.011 0.083
-0.023 -0.009 0.093
-0.005 -0.007 0.043
0.025 0.011 0.053
-0.005 0.003 0.087
-0.005 0.005 0.085
-0.005 0.009 0.087
0.001 0.009 0.103
0.019 -0.003 0.035
0.029 0.013 0.055
0.035 0.021 0.053
0.033 0.019 0.051
0.035 0.033 0.037
0.037 0.035 0.043
0.001 0.007 0.079
0.005 0.009 0.093
0.027 0.019 0.095
0.041 0.027 0.087
0.033 0.031 0.103
-0.033 -0.033 0.051
-0.035 -0.033 0.063
-0.035 -0.019 0.035
-0.035 -0.011 0.033
-0.033 -0.023 0.037
-0.031 -0.003 0.059
-0.023 -0.005 0.095
-0.029 0.003 0.045
-0.007 0.027 0.037
-0.007 0.027 0.089
-0.001 0.015 0.035
-0.003 0.019 0.037
-0.005 0.013 0.039
-0.023 0.005 0.053
-0.007 0.011 0.043
-0.001 0.031 0.039
-0.011 0.017 0.061
0.005 0.029 0.049
0.013 0.029 0.055
0.001 0.035 0.037
0.009 0.039 0.045
0.003 0.021 0.071
-0.007 0.025 0.097
-0.003 0.031 0.091
0.001 0.033 0.095
0.023 0.039 0.091
-0.001 0.009 0.097
-0.005 0.017 0.107
-0.007 0.029 0.101
0.003 0.033 0.103
0.013 0.037 0.097
-0.005 -0.025 0.039
-0.025 -0.041 0.045
-0.027 -0.037 0.061
-0.041 -0.035 0.075
-0.043 -0.037 0.081
-0.037 -0.029 0.067
-0.039 -0.033 0.079
-0.031 -0.019 0.079
-0.027 -0.021 0.077
-0.013 -0.023 0.067
-0.025 -0.011 0.091
-0.017 -0.013 0.089
-0.001 -0.021 0.035
-0.035 0.001 0.035
-0.029 -0.037 0.061
-0.011 -0.007 0.089
-0.005 -0.029 0.045
0.013 -0.003 0.043
0.007 0.001 0.049
-0.007 -0.031 0.057
0.021 0.019 0.061
0.001 -0.001 0.067
0.015 0.013 0.095
0.021 0.017 0.085
0.011 0.019 0.069
0.035 0.023 0.083
0.029 0.019 0.085
0.005 0.019 0.105
0.005 0.019 0.105
0.001 0.025 0.099
0.025 0.021 0.103
-0.031 -0.029 0.033
-0.023 -0.041 0.041
-0.013 -0.033 0.043
-0.003 -0.015 0.043
-0.003 -0.023 0.045
-0.021 -0.033 0.055
-0.011 -0.029 0.059
-0.005 -0.027 0.061
-0.017 -0.015 0.049
-0.033 -0.031 0.069
-0.015 -0.037 0.039
-0.003 -0.025 0.053
-0.005 -0.023 0.059
0.001 0.001 0.051
-0.005 0.001 0.059
-0.001 0.017 0.087
-0.001 0.017 0.091
0.003 0.009 0.099
0.023 0.001 0.035
0.019 0.011 0.053
0.013 0.003 0.051
0.013 -0.003 0.039
0.033 0.005 0.037
0.037 0.007 0.037
0.039 0.007 0.043
0.035 0.021 0.049
0.003 0.007 0.073
0.005 0.009 0.091
0.033 0.023 0.095
0.009 0.013 0.085
0.011 0.015 0.105
0.009 0.003 0.055
-0.003 -0.029 0.055
-0.005 -0.003 0.083
-0.009 -0.013 0.051
-0.017 -0.013 0.069
-0.013 -0.017 0.073
-0.017 -0.013 0.071
-0.017 -0.001 0.095
-0.005 -0.003 0.083
0.037 0.027 0.089
0.037 0.023 0.099
0.007 0.007 0.065
0.041 0.033 0.099
0.011 0.015 0.109
-0.005 0.027 0.103
-0.001 0.019 0.111
0.037 0.033 0.051
0.041 0.015 0.039
0.033 0.015 0.047
0.037 0.029 0.041
0.033 0.039 0.055
0.027 0.041 0.053
0.045 0.041 0.087
0.031 0.041 0.049
0.045 0.043 0.083
0.037 0.033 0.041
0.029 0.021 0.097
0.029 0.023 0.103
0.039 0.025 0.099
0.043 0.031 0.101
0.043 0.033 0.105
0.033 0.021 0.085
0.043 0.029 0.089
0.041 0.043 0.087
0.043 0.043 0.087
0.039 0.025 0.101
0.015 0.035 0.105
-0.027 -0.027 0.053
-0.035 -0.025 0.033
-0.033 -0.027 0.055
-0.031 -0.003 0.051
-0.023 0.009 0.041
-0.027 -0.027 0.051
-0.029 -0.027 0.055
-0.023 -0.001 0.073
-0.025 0.005 0.085
-0.011 0.015 0.051
-0.001 0.017 0.033
0.003 0.035 0.039
-0.003 0.023 0.055
0.005 0.035 0.043
0.007 0.039 0.035
0.013 0.041 0.045
0.019 0.049 0.039
0.015 0.043 0.049
0.017 0.039 0.057
0.003 0.019 0.073
-0.001 0.017 0.091
0.033 0.039 0.089
0.029 0.039 0.081
0.027 0.039 0.085
0.009 0.035 0.099
0.033 0.037 0.105
-0.035 -0.031 0.057
-0.035 -0.015 0.035
-0.017 0.005 0.041
-0.027 0.001 0.061
-0.013 0.017 0.065
-0.041 -0.033 0.087
-0.011 0.017 0.071
-0.011 0.013 0.081
-0.005 0.025 0.051
-0.007 0.023 0.047
-0.001 0.033 0.033
-0.019 0.003 0.071
-0.013 0.017 0.069
-0.003 0.015 0.081
-0.007 0.029 0.093
-0.007 0.029 0.103
-0.005 0.021 0.109
0.015 0.045 0.037
0.015 0.049 0.035
0.001 0.035 0.037
0.009 0.039 0.041
0.005 0.035 0.043
0.007 0.029 0.051
0.023 0.041 0.049
0.015 0.043 0.035
0.011 0.031 0.067
0.009 0.031 0.077
0.003 0.033 0.093
-0.001 0.029 0.085
0.013 0.035 0.091
0.033 0.039 0.089
0.035 0.043 0.101
