-0.027 -0.021 0.041
-0.025 0.001 0.063
-0.037 -0.029 0.063
-0.033 -0.019 0.083
-0.035 -0.019 0.037
-0.033 -0.005 0.041
-0.035 -0.007 0.067
-0.033 -0.027 0.039
-0.035 -0.015 0.065
-0.035 -0.007 0.079
-0.033 -0.005 0.081
-0.027 -0.007 0.093
-0.027 -0.003 0.091
-0.031 0.001 0.043
-0.035 -0.009 0.063
-0.035 -0.021 0.081
-0.033 -0.009 0.087
-0.025 -0.013 0.089
-0.035 -0.007 0.071
-0.031 -0.001 0.051
-0.029 -0.005 0.089
-0.025 0.005 0.083
-0.025 0.005 0.085
-0.019 0.007 0.089
-0.039 -0.025 0.083
-0.043 -0.029 0.081
-0.039 -0.021 0.077
-0.039 -0.029 0.087
-0.035 -0.017 0.075
-0.033 -0.011 0.087
-0.027 -0.011 0.093
-0.027 -0.001 0.073
-0.033 -0.003 0.073
-0.023 -0.003 0.095
-0.015 0.003 0.095
-0.031 -0.003 0.085
-0.031 -0.007 0.089
-0.023 -0.003 0.095
-0.017 -0.001 0.095
-0.011 0.013 0.083
-0.029 0.009 0.041
-0.031 0.001 0.043
-0.011 0.017 0.057
-0.013 0.015 0.061
-0.007 0.021 0.047
-0.003 0.025 0.051
-0.021 0.009 0.077
-0.003 0.023 0.055
-0.019 0.011 0.075
-0.015 0.013 0.083
-0.009 0.017 0.073
-0.023 0.007 0.085
-0.019 0.011 0.083
-0.023 0.003 0.091
-0.005 0.029 0.093
-0.003 0.019 0.091
-0.005 0.029 0.103
-0.005 0.025 0.049
0.005 0.035 0.045
0.011 0.029 0.053
-0.001 0.031 0.093
-0.015 0.015 0.075
-0.015 0.013 0.079
-0.009 0.019 0.055
-0.009 0.019 0.067
-0.015 0.013 0.083
-0.001 0.019 0.089
-0.007 0.029 0.089
-0.001 0.017 0.083
-0.001 0.021 0.093
0.001 0.025 0.053
0.005 0.027 0.051
-0.009 0.011 0.087
-0.001 0.019 0.085
-0.009 0.027 0.103
-0.009 0.027 0.103
-0.009 0.027 0.101
0.011 0.031 0.053
0.001 0.023 0.057
-0.007 0.029 0.089
-0.007 0.029 0.097
0.003 0.033 0.091
0.005 0.035 0.099
0.013 0.037 0.093
0.007 0.037 0.049
0.015 0.035 0.063
0.027 0.039 0.065
0.021 0.039 0.063
0.023 0.037 0.069
0.023 0.037 0.069
0.027 0.039 0.065
0.027 0.037 0.069
0.029 0.037 0.067
-0.009 0.009 0.091
-0.007 0.029 0.103
-0.005 0.029 0.093
-0.009 0.027 0.097
0.007 0.035 0.105
0.001 0.033 0.109
0.003 0.025 0.107
0.003 0.023 0.109
0.007 0.027 0.109
0.017 0.027 0.105
0.017 0.025 0.105
0.021 0.027 0.105
0.011 0.035 0.103
0.015 0.035 0.105
0.017 0.029 0.105
0.027 0.033 0.105
0.021 0.037 0.069
0.023 0.037 0.069
0.011 0.037 0.095
0.003 0.035 0.105
0.023 0.039 0.083
0.013 0.037 0.099
0.023 0.041 0.093
0.015 0.037 0.101
0.031 0.039 0.101
0.029 0.039 0.099
0.001 0.017 0.109
0.011 0.015 0.109
0.009 0.015 0.109
0.011 0.017 0.107
0.003 0.021 0.109
0.009 0.029 0.105
0.015 0.029 0.105
0.005 0.023 0.115
0.015 0.019 0.105
0.021 0.019 0.103
0.021 0.025 0.105
0.035 0.027 0.101
0.033 0.033 0.105
0.035 0.029 0.101
0.007 0.033 0.105
0.025 0.033 0.105
0.029 0.041 0.099
0.019 0.033 0.105
0.021 0.033 0.105
0.023 0.033 0.105
0.041 0.035 0.105
0.033 0.041 0.101
0.035 0.035 0.107
0.039 0.041 0.105
-0.031 -0.037 0.043
-0.027 -0.041 0.047
-0.015 -0.035 0.047
-0.017 -0.037 0.049
-0.021 -0.037 0.055
-0.027 -0.037 0.061
-0.031 -0.033 0.039
-0.031 -0.039 0.055
-0.009 -0.029 0.047
-0.021 -0.037 0.035
-0.021 -0.039 0.037
-0.013 -0.035 0.037
-0.017 -0.039 0.039
-0.009 -0.025 0.035
-0.005 -0.025 0.035
-0.005 -0.023 0.037
-0.003 -0.013 0.041
-0.023 -0.035 0.059
-0.023 -0.035 0.059
-0.027 -0.029 0.063
-0.003 -0.029 0.051
-0.005 -0.029 0.057
-0.019 -0.035 0.051
-0.025 -0.019 0.061
-0.011 -0.027 0.049
-0.009 -0.031 0.055
-0.011 -0.029 0.059
-0.007 -0.029 0.059
-0.007 -0.001 0.063
-0.029 -0.033 0.065
-0.033 -0.029 0.071
-0.037 -0.029 0.075
-0.035 -0.027 0.073
-0.035 -0.031 0.087
-0.033 -0.023 0.081
-0.027 -0.031 0.065
-0.021 -0.019 0.067
-0.019 -0.019 0.071
-0.019 -0.019 0.075
-0.013 -0.023 0.067
-0.017 -0.017 0.079
-0.021 -0.019 0.073
-0.011 -0.025 0.065
-0.021 -0.017 0.085
0.009 -0.003 0.037
-0.015 -0.037 0.041
-0.015 -0.037 0.041
-0.015 -0.037 0.045
-0.011 -0.029 0.043
-0.009 -0.029 0.047
-0.001 0.001 0.047
-0.013 -0.027 0.061
0.003 0.001 0.061
0.001 0.001 0.077
-0.003 -0.001 0.079
-0.003 -0.003 0.077
-0.021 -0.019 0.079
-0.007 -0.001 0.089
0.003 0.009 0.097
0.011 -0.003 0.033
0.013 -0.005 0.035
0.009 -0.013 0.035
0.023 0.001 0.039
0.031 0.003 0.035
0.015 -0.005 0.035
0.031 0.003 0.035
0.005 0.001 0.051
0.009 0.003 0.053
0.019 0.015 0.055
0.041 0.009 0.039
0.039 0.007 0.035
0.009 -0.003 0.039
0.013 -0.003 0.041
0.031 0.003 0.035
0.029 0.005 0.037
0.019 0.015 0.055
0.033 0.019 0.055
0.039 0.009 0.045
0.039 0.009 0.045
0.035 0.025 0.059
0.001 0.001 0.077
0.003 0.005 0.075
0.011 0.021 0.065
0.011 0.019 0.067
0.011 0.021 0.065
0.003 0.017 0.077
0.027 0.021 0.069
0.019 0.017 0.077
0.021 0.021 0.079
0.019 0.019 0.079
0.023 0.021 0.077
0.013 0.015 0.081
0.021 0.017 0.083
0.031 0.021 0.085
0.021 0.017 0.091
0.023 0.019 0.091
0.031 0.021 0.087
0.033 0.023 0.087
0.043 0.029 0.089
0.043 0.029 0.089
0.019 0.017 0.073
0.021 0.017 0.071
0.025 0.019 0.071
0.025 0.021 0.073
0.007 0.011 0.085
0.015 0.015 0.085
0.015 0.015 0.093
0.029 0.027 0.083
0.027 0.019 0.087
0.037 0.025 0.087
0.045 0.027 0.083
0.009 0.013 0.103
0.009 0.013 0.103
0.009 0.015 0.109
0.013 0.013 0.107
0.025 0.019 0.097
0.031 0.021 0.097
0.021 0.021 0.105
0.027 0.021 0.103
0.007 0.023 0.113
0.005 0.023 0.115
0.037 0.025 0.101
0.041 0.027 0.099
0.011 0.013 0.097
0.017 0.015 0.101
0.041 0.029 0.097
0.043 0.029 0.101
0.035 0.035 0.107
0.043 0.031 0.105
-0.007 -0.031 0.049
-0.005 -0.029 0.049
-0.013 -0.033 0.037
-0.017 -0.037 0.035
-0.021 -0.041 0.041
-0.021 -0.035 0.055
-0.025 -0.021 0.067
-0.015 -0.029 0.047
-0.003 -0.027 0.045
-0.017 -0.031 0.049
-0.011 -0.031 0.055
-0.011 -0.029 0.033
-0.011 -0.031 0.037
-0.003 -0.025 0.039
-0.003 -0.027 0.043
-0.003 -0.023 0.045
-0.003 -0.025 0.051
-0.005 -0.027 0.059
-0.003 -0.019 0.039
-0.003 -0.017 0.039
-0.019 -0.033 0.053
-0.019 -0.029 0.049
-0.025 -0.029 0.059
-0.029 -0.023 0.065
-0.005 -0.021 0.053
-0.005 -0.027 0.057
-0.005 -0.023 0.053
-0.011 -0.029 0.059
-0.015 -0.005 0.063
-0.007 -0.017 0.053
-0.013 -0.011 0.053
-0.013 -0.011 0.055
-0.033 -0.025 0.081
-0.029 -0.021 0.079
-0.031 -0.019 0.081
-0.023 -0.017 0.085
-0.019 -0.015 0.087
-0.019 -0.019 0.079
-0.011 -0.019 0.069
-0.011 -0.017 0.069
-0.019 -0.005 0.067
-0.015 -0.013 0.085
-0.021 -0.017 0.087
-0.015 -0.007 0.091
-0.015 -0.005 0.091
-0.013 -0.011 0.085
0.003 -0.017 0.033
0.005 -0.017 0.037
0.013 -0.003 0.043
-0.007 -0.011 0.049
-0.011 -0.003 0.053
0.015 0.007 0.049
0.021 0.009 0.051
0.001 -0.001 0.071
0.007 0.007 0.065
0.025 0.011 0.053
-0.001 0.005 0.081
-0.001 0.013 0.077
0.003 0.007 0.075
-0.009 -0.007 0.087
-0.011 0.003 0.091
-0.001 0.011 0.081
-0.001 0.011 0.081
-0.011 0.003 0.091
-0.009 0.005 0.091
-0.001 0.017 0.109
-0.007 0.015 0.113
0.021 -0.001 0.035
0.023 0.001 0.037
0.037 0.019 0.041
0.013 -0.003 0.043
0.011 -0.001 0.047
0.035 0.005 0.037
0.027 0.003 0.041
0.031 0.005 0.045
0.029 0.011 0.049
0.041 0.007 0.043
0.039 0.017 0.039
0.011 0.005 0.053
0.007 0.015 0.061
0.007 0.017 0.061
0.023 0.017 0.057
0.031 0.017 0.057
0.031 0.021 0.061
0.039 0.007 0.037
0.043 0.011 0.043
0.037 0.031 0.057
0.033 0.023 0.061
0.035 0.019 0.047
0.035 0.023 0.049
0.039 0.029 0.051
0.025 0.019 0.061
0.029 0.021 0.063
0.033 0.027 0.067
0.035 0.029 0.063
0.031 0.025 0.067
0.037 0.033 0.055
0.007 0.009 0.067
0.003 0.007 0.075
0.011 0.015 0.075
0.019 0.017 0.083
0.019 0.015 0.087
0.027 0.019 0.087
0.019 0.017 0.069
0.025 0.019 0.071
0.017 0.015 0.095
0.011 0.013 0.085
0.019 0.017 0.083
0.037 0.025 0.085
0.027 0.021 0.093
0.029 0.021 0.095
0.027 0.019 0.097
0.033 0.023 0.099
0.043 0.029 0.089
0.033 0.031 0.067
0.029 0.031 0.071
0.033 0.029 0.089
0.035 0.029 0.089
0.037 0.025 0.087
0.043 0.029 0.089
0.037 0.023 0.099
0.031 0.029 0.101
0.047 0.037 0.087
0.047 0.037 0.087
0.047 0.039 0.087
0.047 0.035 0.093
0.009 0.011 0.101
0.017 0.015 0.097
0.015 0.015 0.105
0.015 0.015 0.107
0.015 0.015 0.107
0.015 0.017 0.107
0.029 0.023 0.103
0.007 0.023 0.115
0.043 0.029 0.103
0.043 0.029 0.101
0.025 0.037 0.103
0.041 0.029 0.103
0.021 0.031 0.105
-0.035 -0.021 0.033
-0.027 -0.007 0.033
-0.035 0.007 0.035
-0.025 -0.027 0.049
-0.035 -0.029 0.055
-0.037 -0.029 0.061
-0.035 -0.025 0.035
-0.035 -0.019 0.037
-0.033 -0.027 0.039
-0.031 -0.009 0.049
-0.031 -0.007 0.053
-0.031 -0.015 0.043
-0.033 -0.007 0.047
-0.035 0.003 0.039
-0.029 0.009 0.041
-0.019 0.005 0.047
-0.025 -0.027 0.051
-0.033 -0.005 0.057
-0.035 -0.007 0.069
-0.031 -0.011 0.055
-0.031 -0.003 0.059
-0.029 -0.001 0.061
-0.037 -0.031 0.065
-0.033 -0.019 0.065
-0.039 -0.025 0.083
-0.035 -0.025 0.087
-0.033 -0.003 0.069
-0.031 -0.003 0.075
-0.031 -0.003 0.075
-0.031 -0.009 0.089
-0.031 -0.001 0.085
-0.027 -0.005 0.091
-0.029 -0.007 0.091
-0.027 -0.003 0.091
-0.023 0.003 0.091
-0.025 0.007 0.041
-0.009 0.009 0.047
-0.005 0.029 0.039
-0.003 0.031 0.037
-0.027 0.003 0.049
-0.025 0.005 0.049
-0.023 0.005 0.053
-0.021 0.003 0.055
-0.019 0.003 0.071
-0.011 0.017 0.065
-0.019 0.011 0.081
-0.017 0.011 0.083
-0.017 0.007 0.089
-0.017 0.003 0.093
0.001 0.033 0.039
-0.003 0.033 0.035
-0.001 0.013 0.035
-0.007 0.019 0.045
-0.007 0.023 0.047
-0.003 0.031 0.035
0.005 0.031 0.045
-0.009 0.019 0.057
-0.011 0.017 0.059
-0.013 0.017 0.063
-0.007 0.021 0.055
0.001 0.023 0.057
0.003 0.019 0.063
0.001 0.027 0.049
0.009 0.039 0.045
0.013 0.041 0.041
0.011 0.039 0.053
0.013 0.031 0.059
0.003 0.033 0.043
0.013 0.043 0.039
0.015 0.043 0.049
0.017 0.043 0.051
0.015 0.041 0.055
0.015 0.035 0.057
0.015 0.035 0.061
0.025 0.039 0.063
0.025 0.039 0.041
0.025 0.041 0.059
0.003 0.029 0.079
0.007 0.025 0.069
0.007 0.031 0.075
0.009 0.031 0.081
0.013 0.033 0.075
-0.001 0.021 0.085
0.001 0.031 0.087
0.003 0.033 0.087
0.005 0.031 0.085
0.017 0.037 0.085
0.013 0.035 0.091
0.015 0.037 0.097
0.025 0.039 0.085
0.011 0.033 0.071
0.015 0.035 0.071
0.015 0.035 0.083
0.017 0.037 0.085
0.003 0.023 0.103
0.001 0.023 0.105
0.001 0.033 0.107
0.003 0.035 0.105
0.023 0.039 0.103
0.035 0.043 0.097
0.035 0.039 0.105
