-0.015 -0.031 0.031
-0.025 -0.035 0.061
-0.005 -0.023 0.037
-0.013 -0.033 0.035
-0.009 -0.029 0.047
-0.003 -0.015 0.045
-0.007 -0.029 0.059
-0.035 -0.029 0.085
-0.031 -0.019 0.083
-0.023 -0.021 0.065
-0.027 -0.017 0.087
0.013 -0.003 0.043
-0.003 -0.025 0.041
-0.001 0.005 0.039
-0.003 -0.001 0.079
-0.005 -0.003 0.079
-0.011 -0.009 0.087
0.013 0.013 0.091
0.021 0.001 0.031
0.023 0.003 0.033
0.023 0.003 0.041
0.037 0.007 0.033
0.003 0.001 0.057
0.023 0.011 0.053
0.037 0.027 0.051
0.005 0.005 0.069
0.007 0.017 0.075
0.019 0.017 0.077
0.007 0.011 0.089
0.013 0.013 0.087
0.025 0.017 0.085
0.027 0.019 0.085
0.049 0.031 0.085
0.023 0.017 0.085
0.041 0.033 0.099
-0.011 -0.005 0.055
-0.011 -0.009 0.053
-0.015 -0.031 0.047
-0.001 -0.007 0.039
-0.019 -0.017 0.085
-0.015 -0.013 0.059
-0.033 -0.027 0.083
-0.031 -0.009 0.089
-0.025 -0.021 0.079
-0.005 -0.003 0.083
-0.029 -0.013 0.091
-0.019 -0.005 0.093
0.001 0.009 0.103
-0.001 0.027 0.101
0.015 0.013 0.095
0.019 0.001 0.041
0.025 0.013 0.055
0.019 0.015 0.091
0.031 0.021 0.061
0.029 0.023 0.099
0.015 0.025 0.105
0.005 0.025 0.115
0.045 0.035 0.093
0.019 0.039 0.101
-0.005 0.025 0.053
-0.001 0.019 0.063
-0.031 -0.001 0.049
-0.029 0.001 0.051
-0.005 0.025 0.047
-0.003 0.025 0.047
-0.011 0.017 0.055
-0.007 0.021 0.053
0.007 0.023 0.055
-0.005 0.021 0.063
0.015 0.035 0.067
-0.009 0.017 0.069
-0.019 0.011 0.077
-0.019 0.011 0.081
-0.027 0.003 0.087
0.023 0.041 0.047
-0.027 0.007 0.045
-0.003 0.025 0.051
-0.003 0.029 0.043
-0.007 0.021 0.061
-0.007 0.017 0.069
-0.023 0.007 0.087
-0.023 0.003 0.091
0.007 0.033 0.089
0.001 0.033 0.097
0.025 0.049 0.037
0.023 0.041 0.045
0.007 0.021 0.057
0.009 0.039 0.035
0.029 0.041 0.057
0.013 0.035 0.083
0.033 0.031 0.067
0.023 0.033 0.075
0.039 0.043 0.085
0.049 0.039 0.091
0.021 0.039 0.093
-0.015 -0.033 0.047
-0.025 -0.033 0.061
-0.015 -0.013 0.059
-0.003 -0.027 0.049
-0.003 -0.025 0.043
-0.003 -0.025 0.055
-0.001 -0.013 0.037
0.001 -0.009 0.039
0.003 -0.007 0.039
-0.009 -0.029 0.061
-0.007 -0.025 0.063
-0.039 -0.033 0.087
-0.039 -0.037 0.087
-0.039 -0.033 0.087
-0.003 -0.003 0.075
-0.013 -0.009 0.089
0.009 -0.001 0.043
0.009 0.015 0.059
0.003 0.013 0.073
-0.009 0.007 0.091
0.037 0.023 0.041
0.007 0.003 0.061
0.019 0.017 0.073
0.023 0.019 0.071
0.035 0.021 0.053
0.027 0.021 0.069
0.013 0.013 0.093
0.037 0.029 0.089
0.045 0.031 0.089
0.021 0.021 0.105
0.041 0.027 0.101
0.019 0.031 0.105
-0.005 -0.021 0.047
-0.003 -0.019 0.047
-0.015 -0.013 0.059
-0.007 -0.009 0.049
-0.033 -0.027 0.087
-0.017 -0.017 0.077
-0.005 -0.001 0.085
0.009 -0.013 0.035
0.031 0.007 0.047
0.037 0.035 0.051
0.023 0.029 0.077
0.041 0.039 0.083
0.027 0.031 0.073
0.045 0.033 0.091
-0.005 0.001 0.085
0.041 0.027 0.099
0.035 0.021 0.037
0.041 0.013 0.041
0.043 0.009 0.039
0.033 0.015 0.047
0.027 0.043 0.039
0.021 0.051 0.035
0.027 0.041 0.053
0.021 0.041 0.053
0.029 0.041 0.057
0.029 0.027 0.073
0.001 0.001 0.077
0.033 0.029 0.095
0.045 0.029 0.089
0.047 0.035 0.091
0.043 0.043 0.085
0.049 0.037 0.091
0.041 0.041 0.089
0.043 0.031 0.103
0.009 0.023 0.113
0.043 0.031 0.101
0.039 0.043 0.099
-0.035 -0.015 0.037
-0.037 -0.011 0.069
-0.029 0.001 0.051
-0.025 0.003 0.057
-0.015 0.013 0.063
-0.015 0.013 0.063
-0.029 0.001 0.053
-0.029 -0.003 0.067
-0.015 0.015 0.071
-0.037 -0.021 0.073
-0.029 -0.001 0.079
-0.019 0.001 0.095
-0.017 0.001 0.095
-0.035 0.007 0.035
-0.003 0.029 0.041
-0.007 0.023 0.047
-0.007 0.021 0.049
-0.011 0.017 0.059
-0.027 0.003 0.083
-0.007 0.027 0.089
0.029 0.041 0.047
0.009 0.019 0.059
0.007 0.029 0.069
0.011 0.025 0.053
0.013 0.033 0.063
0.033 0.039 0.057
0.003 0.031 0.085
0.005 0.029 0.081
0.005 0.033 0.089
0.007 0.033 0.089
0.007 0.033 0.085
0.019 0.039 0.093
0.033 0.043 0.095
0.023 0.037 0.085
0.027 0.041 0.095
0.047 0.037 0.087
0.001 0.033 0.109
-0.019 -0.041 0.043
-0.025 -0.037 0.059
-0.003 -0.027 0.053
-0.011 -0.027 0.033
-0.003 -0.017 0.047
-0.011 -0.001 0.035
-0.011 -0.017 0.063
-0.007 -0.013 0.051
-0.011 -0.023 0.067
-0.005 -0.005 0.077
-0.015 -0.003 0.091
-0.023 -0.007 0.095
0.005 -0.017 0.035
0.001 -0.001 0.059
0.037 0.007 0.043
0.031 0.025 0.069
0.041 0.009 0.037
0.037 0.027 0.039
0.037 0.023 0.053
0.039 0.029 0.047
0.037 0.031 0.045
0.037 0.033 0.053
0.033 0.039 0.045
0.025 0.047 0.039
0.033 0.035 0.063
0.003 0.001 0.067
0.005 0.013 0.069
0.019 0.015 0.085
0.021 0.017 0.083
0.031 0.025 0.089
0.033 0.021 0.097
0.029 0.021 0.087
0.031 0.025 0.089
0.029 0.029 0.073
0.043 0.031 0.091
0.043 0.029 0.101
0.033 0.021 0.097
0.025 0.029 0.105
-0.041 -0.037 0.087
-0.025 -0.037 0.059
-0.025 -0.035 0.061
-0.035 -0.007 0.039
-0.037 -0.013 0.075
-0.019 -0.031 0.051
-0.035 -0.019 0.081
-0.033 -0.019 0.085
-0.029 -0.029 0.069
-0.035 -0.005 0.073
-0.041 -0.033 0.087
-0.031 -0.007 0.089
-0.015 -0.007 0.091
-0.019 -0.017 0.085
-0.027 -0.003 0.091
-0.029 -0.001 0.087
-0.003 0.025 0.095
0.033 0.011 0.045
0.003 0.033 0.043
0.007 0.023 0.115
-0.003 0.021 0.109
-0.003 0.025 0.095
0.011 0.025 0.111
0.023 0.029 0.105
0.033 0.035 0.105
0.029 0.023 0.103
0.017 0.023 0.105
0.023 0.025 0.105
0.035 0.025 0.099
0.041 0.029 0.103
0.033 0.033 0.105
-0.007 -0.031 0.057
-0.015 -0.007 0.061
-0.017 -0.015 0.085
-0.013 -0.007 0.091
0.013 -0.005 0.037
0.013 0.003 0.045
-0.001 0.001 0.051
0.025 0.011 0.053
0.007 0.009 0.063
0.001 0.013 0.075
-0.003 0.009 0.083
0.021 0.017 0.087
0.031 0.003 0.033
0.041 0.007 0.043
0.037 0.023 0.047
0.027 0.019 0.067
0.011 0.011 0.093
0.033 0.037 0.093
0.047 0.035 0.091
0.047 0.035 0.089
0.017 0.019 0.105
0.031 0.021 0.097
-0.035 -0.027 0.033
-0.031 -0.023 0.041
-0.031 -0.037 0.061
-0.035 -0.009 0.063
-0.023 -0.025 0.047
-0.035 -0.007 0.037
-0.043 -0.031 0.083
-0.031 -0.003 0.079
-0.035 -0.013 0.083
-0.029 -0.011 0.093
-0.031 -0.013 0.089
-0.031 -0.011 0.055
-0.033 -0.013 0.059
-0.031 -0.001 0.049
-0.009 0.019 0.057
-0.031 -0.001 0.079
-0.019 0.007 0.089
-0.009 0.017 0.109
-0.011 0.015 0.111
-0.007 0.025 0.037
-0.027 0.003 0.053
-0.025 0.003 0.057
-0.037 -0.011 0.073
-0.035 -0.005 0.073
-0.035 -0.009 0.073
-0.013 0.015 0.057
0.015 0.047 0.039
0.007 0.031 0.049
0.009 0.039 0.049
0.003 0.025 0.073
0.001 0.027 0.081
0.003 0.013 0.091
-0.015 0.013 0.083
-0.005 0.027 0.101
0.001 0.025 0.099
0.003 0.021 0.101
-0.035 -0.007 0.037
-0.033 -0.035 0.047
-0.031 -0.035 0.043
-0.023 -0.021 0.045
-0.031 -0.013 0.043
-0.033 -0.005 0.047
-0.035 -0.015 0.065
-0.031 -0.011 0.055
-0.031 -0.003 0.059
-0.031 -0.003 0.061
-0.033 -0.003 0.067
-0.037 -0.023 0.085
-0.029 -0.009 0.091
-0.025 -0.005 0.093
-0.029 0.005 0.045
-0.035 0.001 0.037
-0.035 0.003 0.039
-0.021 0.005 0.053
-0.003 0.033 0.035
-0.013 0.009 0.089
-0.009 0.027 0.095
-0.023 0.009 0.041
0.001 0.009 0.035
-0.007 0.027 0.041
0.013 0.027 0.059
0.011 0.041 0.051
0.013 0.035 0.055
0.001 0.013 0.095
-0.001 0.019 0.083
-0.001 0.029 0.085
0.023 0.039 0.065
0.011 0.033 0.073
-0.009 0.027 0.103
0.001 0.031 0.103
-0.003 0.021 0.107
-0.033 -0.029 0.033
-0.029 -0.041 0.049
-0.033 -0.011 0.043
-0.017 -0.037 0.049
-0.027 -0.039 0.055
-0.005 -0.031 0.051
-0.013 -0.027 0.061
-0.017 -0.017 0.061
-0.035 -0.029 0.077
-0.031 -0.029 0.069
0.007 -0.015 0.037
-0.033 -0.035 0.051
-0.019 -0.037 0.051
-0.003 0.025 0.093
-0.011 -0.031 0.041
-0.007 -0.029 0.045
0.017 0.005 0.045
0.025 0.007 0.049
0.031 0.025 0.069
0.005 0.019 0.109
0.041 0.029 0.103
-0.015 -0.033 0.033
-0.031 -0.035 0.063
-0.025 -0.039 0.039
-0.023 -0.037 0.057
-0.017 -0.039 0.043
-0.007 -0.031 0.051
-0.007 -0.025 0.063
-0.021 -0.015 0.053
-0.023 -0.031 0.057
-0.033 -0.025 0.075
-0.037 -0.031 0.087
-0.013 -0.023 0.067
-0.013 -0.019 0.073
-0.017 -0.015 0.073
-0.015 -0.013 0.077
0.009 -0.013 0.035
-0.005 0.005 0.045
-0.011 -0.029 0.059
-0.007 0.005 0.049
-0.011 0.001 0.063
0.001 0.001 0.075
0.031 0.003 0.033
0.029 0.005 0.033
0.007 0.001 0.045
0.009 0.021 0.063
0.041 0.013 0.033
0.021 0.003 0.041
0.015 -0.001 0.043
0.027 0.007 0.037
0.033 0.005 0.037
0.031 0.005 0.041
0.017 0.019 0.063
0.021 0.015 0.055
0.039 0.029 0.051
0.003 0.017 0.077
0.009 0.013 0.085
0.023 0.019 0.091
0.027 0.019 0.087
0.029 0.023 0.093
0.029 0.023 0.093
0.033 0.023 0.095
0.025 0.019 0.091
0.009 0.023 0.113
0.039 0.025 0.099
0.041 0.029 0.097
-0.027 -0.029 0.065
-0.003 -0.027 0.047
-0.003 -0.027 0.043
-0.005 -0.027 0.061
-0.033 -0.027 0.079
-0.027 -0.021 0.073
-0.013 -0.011 0.083
-0.001 -0.001 0.067
-0.009 -0.005 0.049
-0.009 -0.007 0.079
0.003 0.013 0.071
0.029 0.015 0.057
0.037 0.031 0.053
0.037 0.035 0.047
0.017 0.017 0.071
0.025 0.027 0.075
0.029 0.029 0.073
0.033 0.031 0.089
0.047 0.031 0.089
0.049 0.031 0.087
0.005 0.009 0.101
0.009 0.011 0.101
0.025 0.023 0.105
-0.025 -0.027 0.047
-0.031 -0.027 0.055
-0.035 -0.007 0.037
-0.031 0.009 0.039
-0.035 -0.023 0.063
-0.031 -0.005 0.051
-0.031 -0.001 0.059
-0.043 -0.037 0.079
-0.043 -0.033 0.079
-0.035 -0.007 0.069
-0.029 -0.001 0.073
-0.035 -0.009 0.083
-0.013 0.003 0.039
-0.021 0.001 0.061
-0.023 0.007 0.087
-0.003 0.019 0.037
-0.003 0.025 0.047
-0.011 0.009 0.053
-0.011 0.013 0.053
0.003 0.033 0.043
0.013 0.041 0.043
0.005 0.035 0.033
-0.009 0.015 0.077
0.005 0.029 0.073
-0.009 0.027 0.095
0.029 0.043 0.097
0.001 0.019 0.099
-0.001 0.023 0.107
0.003 0.025 0.107
0.003 0.033 0.105
0.007 0.035 0.105
0.033 0.037 0.105
-0.031 0.009 0.039
-0.037 0.005 0.037
-0.035 -0.015 0.035
-0.031 -0.001 0.049
-0.013 0.003 0.047
-0.023 -0.001 0.073
-0.031 -0.001 0.081
-0.031 -0.003 0.087
-0.023 -0.003 0.095
-0.001 -0.003 0.035
-0.005 0.029 0.041
-0.009 0.017 0.049
-0.027 0.003 0.079
-0.013 0.015 0.077
-0.005 0.015 0.077
0.005 0.033 0.031
-0.007 0.023 0.043
0.003 0.023 0.055
0.011 0.041 0.047
0.013 0.041 0.051
0.017 0.043 0.041
0.023 0.041 0.057
0.001 0.023 0.079
-0.005 0.029 0.095
0.011 0.033 0.069
0.029 0.037 0.067
0.001 0.033 0.095
0.015 0.035 0.105
