-0.017 0.003 0.037
-0.017 -0.003 0.043
0.005 0.031 0.055
-0.007 -0.001 0.053
0.005 0.029 0.061
0.021 0.037 0.055
-0.015 -0.021 0.061
-0.013 -0.021 0.061
-0.031 -0.023 0.065
0.011 0.029 0.051
-0.029 -0.005 0.043
0.011 0.027 0.049
-0.017 -0.013 0.055
-0.015 -0.009 0.053
-0.011 -0.003 0.051
-0.045 -0.033 0.091
-0.033 -0.023 0.087
-0.027 -0.019 0.085
-0.025 -0.017 0.085
-0.041 -0.039 0.091
-0.005 -0.015 0.081
-0.009 -0.011 0.095
-0.003 -0.009 0.087
-0.001 -0.009 0.087
-0.035 -0.023 0.083
-0.033 -0.021 0.083
-0.039 -0.027 0.089
-0.027 -0.019 0.065
-0.023 -0.021 0.075
0.003 0.003 0.075
0.007 0.005 0.083
0.001 -0.009 0.101
0.001 -0.009 0.103
0.001 -0.017 0.107
-0.023 -0.017 0.097
-0.005 -0.009 0.101
0.021 0.037 0.055
0.013 0.023 0.055
0.015 0.013 0.061
0.029 0.035 0.063
0.021 0.019 0.075
0.027 0.021 0.077
0.027 0.019 0.081
0.005 -0.025 0.093
0.017 0.015 0.087
0.003 0.029 0.049
0.023 0.041 0.041
0.029 0.031 0.035
0.015 0.037 0.041
0.033 0.033 0.045
0.033 0.007 0.047
0.035 0.035 0.055
0.005 0.029 0.045
0.033 0.027 0.039
0.021 0.019 0.065
0.023 0.021 0.065
0.011 0.031 0.057
0.011 0.019 0.049
0.031 0.037 0.061
0.035 0.019 0.037
0.017 0.039 0.043
0.033 0.033 0.043
0.017 0.015 0.073
0.019 0.019 0.079
0.023 0.021 0.077
0.025 0.021 0.077
0.029 0.013 0.091
0.031 0.017 0.089
0.035 0.029 0.077
0.037 0.029 0.077
-0.037 -0.027 0.059
-0.029 -0.011 0.049
-0.035 -0.017 0.045
-0.023 -0.001 0.039
-0.031 -0.023 0.065
-0.023 -0.009 0.051
-0.015 -0.013 0.055
-0.031 -0.021 0.087
-0.033 -0.021 0.085
-0.011 -0.011 0.091
-0.003 -0.009 0.093
-0.039 -0.031 0.105
-0.025 -0.023 0.105
-0.015 -0.015 0.105
-0.011 -0.013 0.109
-0.009 -0.015 0.105
-0.001 -0.017 0.109
0.007 -0.001 0.057
0.017 0.017 0.069
-0.001 -0.003 0.079
0.005 0.001 0.085
0.003 -0.017 0.107
0.009 -0.027 0.097
0.005 -0.015 0.111
0.023 0.031 0.059
0.025 0.017 0.057
0.011 0.031 0.057
0.029 0.029 0.069
0.023 0.039 0.037
0.033 0.033 0.065
0.015 0.013 0.079
0.019 0.019 0.079
0.013 0.021 0.069
0.019 0.019 0.065
0.015 0.015 0.081
0.029 0.013 0.091
0.027 0.011 0.093
0.033 0.027 0.079
0.035 0.031 0.081
0.035 0.031 0.087
0.031 0.033 0.065
0.043 0.037 0.079
0.043 0.035 0.087
-0.003 -0.033 0.041
0.007 -0.019 0.047
-0.013 -0.041 0.043
-0.003 -0.035 0.039
-0.011 -0.031 0.053
0.013 -0.013 0.059
0.015 -0.011 0.061
0.007 -0.019 0.049
0.011 -0.011 0.055
-0.001 -0.021 0.061
0.009 -0.003 0.057
0.015 -0.003 0.065
0.019 -0.009 0.071
-0.011 -0.035 0.085
0.003 -0.031 0.095
-0.001 -0.031 0.103
-0.003 -0.019 0.073
-0.003 -0.027 0.077
-0.003 -0.025 0.077
-0.003 -0.023 0.075
0.001 -0.019 0.079
0.011 -0.017 0.073
0.001 -0.021 0.089
0.001 -0.017 0.083
0.001 -0.021 0.109
0.005 -0.027 0.043
0.029 -0.007 0.045
0.029 -0.001 0.045
0.017 -0.003 0.055
0.027 -0.001 0.061
0.017 -0.009 0.067
0.017 -0.003 0.069
0.027 -0.003 0.087
0.017 -0.011 0.069
0.015 -0.013 0.083
0.027 -0.003 0.055
0.035 0.023 0.035
0.035 0.013 0.037
0.029 0.019 0.041
0.013 0.025 0.045
0.035 0.025 0.035
0.031 0.025 0.043
0.033 0.007 0.059
0.035 0.007 0.065
0.037 0.023 0.065
0.035 0.017 0.073
0.031 0.019 0.059
0.037 0.031 0.061
0.035 0.035 0.057
0.033 0.005 0.085
0.025 0.005 0.093
0.031 0.015 0.089
0.033 0.017 0.087
0.035 0.007 0.077
0.039 0.023 0.069
0.035 0.015 0.081
0.037 0.023 0.085
0.039 0.029 0.087
-0.043 -0.039 0.091
-0.041 -0.043 0.087
-0.015 -0.049 0.037
-0.025 -0.041 0.045
-0.023 -0.045 0.041
-0.039 -0.031 0.105
-0.029 -0.015 0.057
-0.029 -0.013 0.055
-0.049 -0.033 0.087
-0.039 -0.043 0.103
-0.023 -0.039 0.101
-0.027 -0.035 0.101
-0.045 -0.031 0.089
-0.035 -0.025 0.099
-0.019 -0.029 0.105
-0.017 -0.025 0.105
-0.023 -0.025 0.105
-0.019 -0.033 0.105
-0.005 -0.033 0.107
-0.013 -0.019 0.105
-0.035 -0.041 0.101
-0.021 -0.035 0.103
-0.029 -0.031 0.105
-0.013 -0.019 0.105
-0.011 -0.017 0.107
0.003 -0.019 0.111
0.003 -0.017 0.111
-0.009 -0.025 0.113
-0.005 -0.023 0.115
-0.011 0.001 0.047
-0.009 0.011 0.035
-0.011 0.001 0.047
-0.005 -0.009 0.101
-0.005 -0.001 0.061
0.005 0.005 0.077
0.007 -0.001 0.089
0.017 0.017 0.067
0.023 0.025 0.049
0.001 0.001 0.077
0.005 0.003 0.083
0.009 0.007 0.083
0.013 0.005 0.091
0.009 0.019 0.065
0.021 0.009 0.091
0.027 0.027 0.063
0.015 0.013 0.087
0.017 0.017 0.081
0.027 0.019 0.083
0.019 0.037 0.051
0.027 0.033 0.063
0.013 -0.001 0.091
0.019 0.017 0.085
0.027 0.013 0.091
0.031 0.017 0.089
0.039 0.035 0.087
0.045 0.035 0.081
0.001 -0.033 0.031
-0.017 -0.037 0.061
-0.013 -0.041 0.049
-0.015 -0.033 0.059
-0.011 -0.029 0.063
0.009 -0.019 0.063
-0.021 -0.033 0.075
-0.011 -0.037 0.095
-0.017 -0.039 0.093
-0.019 -0.039 0.095
-0.011 -0.037 0.095
-0.011 -0.033 0.073
-0.003 -0.025 0.073
0.013 -0.017 0.071
0.005 -0.017 0.073
0.005 -0.017 0.075
0.017 -0.013 0.073
0.017 -0.013 0.077
-0.011 -0.035 0.085
0.003 -0.019 0.091
-0.001 -0.013 0.095
-0.023 -0.039 0.097
-0.019 -0.037 0.097
-0.013 -0.037 0.097
-0.001 -0.033 0.107
-0.001 -0.023 0.105
0.029 -0.007 0.043
0.029 -0.007 0.045
0.027 -0.003 0.051
0.027 -0.003 0.079
0.009 -0.009 0.089
0.035 0.019 0.033
0.031 -0.009 0.039
0.029 -0.003 0.043
0.031 0.011 0.047
0.035 0.005 0.039
0.033 0.007 0.047
0.023 0.019 0.045
0.025 0.017 0.045
0.031 0.025 0.043
0.031 0.001 0.057
0.033 0.007 0.057
0.035 0.001 0.039
0.033 0.017 0.063
0.033 0.037 0.049
0.033 0.035 0.049
0.033 0.003 0.073
0.025 0.007 0.095
0.035 0.017 0.067
0.039 0.025 0.069
0.039 0.021 0.075
0.043 0.033 0.079
-0.005 -0.037 0.037
-0.011 -0.041 0.045
-0.015 -0.039 0.055
-0.025 -0.041 0.051
-0.027 -0.039 0.065
-0.005 -0.023 0.055
0.003 -0.023 0.055
-0.009 -0.035 0.051
-0.013 -0.031 0.061
-0.005 -0.019 0.061
-0.039 -0.043 0.087
-0.019 -0.035 0.073
-0.019 -0.037 0.091
-0.041 -0.041 0.089
-0.017 -0.037 0.081
-0.015 -0.035 0.083
-0.009 -0.031 0.071
-0.007 -0.023 0.067
-0.007 -0.031 0.075
0.001 -0.015 0.075
0.001 -0.017 0.079
-0.021 -0.039 0.095
-0.033 -0.039 0.103
-0.011 -0.035 0.097
-0.001 -0.033 0.099
-0.033 -0.037 0.105
0.003 -0.031 0.101
0.001 -0.029 0.043
0.027 -0.007 0.043
0.005 -0.025 0.053
0.013 -0.015 0.059
0.019 -0.007 0.071
0.007 -0.029 0.095
0.005 -0.031 0.097
0.013 -0.007 0.093
0.003 -0.031 0.101
0.003 -0.025 0.049
0.007 -0.011 0.043
0.025 -0.007 0.045
0.029 0.001 0.049
0.031 0.001 0.061
0.031 0.001 0.055
0.021 0.001 0.063
0.023 -0.005 0.075
0.033 0.011 0.057
0.031 0.027 0.055
0.013 -0.015 0.077
0.021 -0.009 0.085
0.023 -0.005 0.089
0.023 0.003 0.095
0.023 0.001 0.093
0.035 0.017 0.079
0.033 0.007 0.085
-0.039 -0.009 0.033
-0.035 -0.025 0.037
-0.033 -0.003 0.035
-0.037 -0.033 0.041
-0.027 -0.043 0.039
-0.033 -0.039 0.043
-0.037 -0.027 0.047
-0.035 -0.027 0.037
-0.035 -0.021 0.053
-0.035 -0.029 0.063
-0.031 -0.031 0.033
-0.033 -0.023 0.059
-0.011 -0.017 0.057
-0.047 -0.033 0.089
-0.029 -0.037 0.067
-0.049 -0.031 0.085
-0.049 -0.031 0.085
-0.047 -0.029 0.087
-0.023 -0.033 0.093
-0.029 -0.025 0.071
-0.025 -0.019 0.069
-0.005 -0.007 0.069
-0.025 -0.017 0.085
-0.043 -0.027 0.087
-0.029 -0.021 0.089
-0.009 -0.011 0.087
-0.017 -0.015 0.089
-0.023 -0.017 0.097
-0.019 -0.017 0.103
-0.033 -0.015 0.047
-0.015 0.001 0.041
-0.001 -0.015 0.077
0.001 -0.005 0.081
-0.031 -0.023 0.089
-0.007 -0.011 0.085
-0.011 -0.015 0.109
-0.003 0.007 0.033
-0.005 0.017 0.037
-0.003 0.007 0.039
0.007 0.005 0.041
0.003 0.013 0.041
0.003 0.021 0.043
0.003 0.025 0.045
0.003 0.017 0.047
0.003 0.023 0.047
0.015 0.005 0.063
0.023 0.031 0.057
0.025 0.031 0.061
0.013 0.011 0.079
0.017 0.015 0.065
0.011 0.023 0.067
0.017 0.003 0.093
0.031 0.025 0.073
0.035 0.029 0.085
-0.025 -0.049 0.035
-0.019 -0.051 0.035
-0.023 -0.047 0.041
-0.015 -0.041 0.045
-0.017 -0.051 0.035
0.003 -0.033 0.033
-0.019 -0.039 0.043
-0.009 -0.039 0.045
-0.005 -0.037 0.035
-0.021 -0.039 0.057
-0.019 -0.043 0.051
-0.023 -0.041 0.053
-0.003 -0.027 0.049
-0.005 -0.021 0.059
-0.001 -0.019 0.063
-0.027 -0.035 0.071
-0.017 -0.031 0.079
-0.005 -0.027 0.071
-0.003 -0.017 0.067
-0.025 -0.041 0.093
-0.021 -0.039 0.093
-0.021 -0.037 0.091
-0.005 -0.031 0.083
-0.003 -0.029 0.083
-0.037 -0.045 0.099
-0.011 -0.035 0.099
-0.037 -0.045 0.101
-0.027 -0.041 0.097
-0.005 -0.033 0.101
-0.009 -0.035 0.101
-0.011 -0.035 0.103
-0.005 -0.035 0.103
0.001 -0.033 0.031
0.003 -0.031 0.031
0.029 -0.009 0.037
0.009 -0.019 0.055
0.013 -0.017 0.071
0.017 -0.013 0.069
0.017 -0.011 0.069
0.031 -0.005 0.035
0.033 -0.007 0.041
0.003 0.015 0.033
0.011 -0.001 0.037
0.011 -0.001 0.049
0.005 -0.021 0.061
0.013 -0.015 0.059
0.017 -0.001 0.059
0.015 -0.001 0.057
0.031 0.001 0.061
0.031 0.001 0.059
0.035 -0.001 0.039
0.033 0.005 0.057
0.027 -0.009 0.039
0.027 -0.003 0.055
0.013 -0.017 0.065
0.007 -0.015 0.079
0.015 -0.015 0.073
0.023 0.003 0.069
0.017 0.005 0.065
0.027 0.001 0.067
0.035 0.009 0.073
0.041 0.023 0.077
0.043 0.033 0.085
-0.041 -0.007 0.041
-0.041 -0.015 0.037
-0.041 -0.011 0.037
-0.037 -0.037 0.049
-0.037 -0.029 0.043
-0.037 -0.023 0.053
-0.037 -0.027 0.057
-0.037 -0.027 0.039
-0.037 -0.027 0.045
-0.041 -0.009 0.035
-0.037 -0.029 0.059
-0.037 -0.027 0.059
-0.035 -0.007 0.039
-0.019 -0.003 0.043
-0.025 -0.019 0.065
-0.011 -0.021 0.063
-0.029 -0.011 0.051
-0.049 -0.037 0.093
-0.033 -0.031 0.067
-0.027 -0.027 0.073
-0.049 -0.031 0.087
-0.047 -0.029 0.087
-0.047 -0.029 0.087
-0.037 -0.025 0.087
-0.029 -0.027 0.071
-0.015 -0.015 0.077
-0.009 -0.015 0.079
-0.027 -0.019 0.095
-0.021 -0.017 0.087
-0.009 -0.013 0.085
-0.041 -0.037 0.103
-0.033 -0.021 0.097
-0.021 -0.019 0.103
-0.017 -0.019 0.105
-0.011 0.001 0.047
0.005 0.005 0.043
0.003 0.011 0.041
-0.015 -0.009 0.053
0.005 0.003 0.069
0.001 -0.009 0.079
-0.011 -0.011 0.089
0.003 -0.007 0.083
0.003 -0.005 0.083
0.003 0.001 0.081
0.005 -0.005 0.087
0.009 -0.005 0.091
-0.007 0.015 0.035
-0.003 0.013 0.037
0.005 0.023 0.037
0.003 0.027 0.043
0.005 0.015 0.049
0.015 0.011 0.059
0.005 0.029 0.061
0.003 0.029 0.055
0.005 0.029 0.061
0.003 0.025 0.047
0.011 0.031 0.041
0.017 0.037 0.037
0.027 0.039 0.057
0.017 0.009 0.067
0.013 0.011 0.085
0.019 0.005 0.093
0.033 0.017 0.087
