-0.017 -0.009 0.051
-0.009 -0.005 0.059
-0.015 -0.007 0.051
-0.011 -0.001 0.049
0.017 0.017 0.081
-0.025 -0.019 0.071
-0.027 -0.023 0.073
-0.011 -0.019 0.067
-0.003 -0.017 0.075
0.001 -0.001 0.081
-0.019 -0.015 0.055
-0.021 -0.017 0.057
-0.013 -0.019 0.057
-0.015 -0.019 0.055
-0.003 -0.003 0.073
-0.021 -0.019 0.061
0.007 0.005 0.085
0.015 0.009 0.091
0.009 0.003 0.089
-0.003 -0.009 0.087
-0.019 -0.015 0.087
-0.033 -0.007 0.045
-0.031 -0.003 0.037
-0.031 -0.009 0.047
-0.033 -0.007 0.045
-0.035 -0.025 0.061
-0.031 -0.023 0.067
0.015 0.011 0.089
-0.029 -0.005 0.037
-0.025 -0.005 0.043
-0.023 -0.005 0.045
-0.007 -0.001 0.041
-0.011 0.001 0.045
-0.013 -0.003 0.051
-0.011 0.001 0.047
-0.003 -0.001 0.047
-0.027 -0.017 0.059
0.009 0.007 0.087
0.013 0.009 0.089
-0.015 -0.015 0.055
-0.013 -0.021 0.059
-0.001 -0.001 0.051
-0.001 0.001 0.061
-0.047 -0.029 0.087
-0.027 -0.021 0.103
-0.027 -0.029 0.105
-0.031 -0.023 0.099
-0.017 -0.015 0.089
-0.011 -0.011 0.093
-0.005 -0.009 0.095
-0.003 -0.009 0.097
-0.009 -0.011 0.099
-0.019 -0.019 0.103
-0.017 -0.015 0.105
-0.021 -0.027 0.105
-0.021 -0.027 0.105
-0.019 -0.025 0.105
-0.011 -0.015 0.109
-0.005 -0.019 0.109
-0.043 -0.027 0.085
-0.043 -0.027 0.087
-0.029 -0.021 0.067
-0.007 -0.011 0.097
-0.001 -0.009 0.087
0.001 -0.003 0.081
-0.009 -0.015 0.077
-0.001 -0.009 0.087
-0.017 -0.015 0.099
-0.013 -0.013 0.095
-0.029 -0.019 0.085
-0.029 -0.021 0.087
-0.017 -0.015 0.091
-0.015 -0.015 0.091
-0.017 -0.015 0.087
-0.017 -0.015 0.105
-0.009 -0.015 0.105
-0.011 -0.015 0.107
-0.013 -0.013 0.107
-0.015 -0.015 0.097
0.001 -0.007 0.095
-0.011 -0.011 0.093
-0.001 -0.007 0.095
-0.001 -0.007 0.095
-0.033 -0.033 0.105
-0.031 -0.033 0.103
-0.033 -0.033 0.105
-0.025 -0.023 0.105
-0.011 -0.023 0.109
-0.011 -0.015 0.109
-0.011 -0.013 0.103
0.023 0.015 0.089
0.019 0.017 0.081
0.019 0.017 0.085
0.007 -0.001 0.055
0.023 0.021 0.075
0.029 0.027 0.069
0.023 0.013 0.089
0.021 0.017 0.085
0.017 0.001 0.095
0.023 0.011 0.091
0.009 0.001 0.089
0.021 0.001 0.095
0.015 -0.001 0.095
0.015 -0.001 0.095
0.013 -0.003 0.093
0.031 0.007 0.089
0.027 0.003 0.091
0.007 -0.015 0.109
0.003 -0.017 0.109
0.003 -0.017 0.111
0.011 -0.013 0.113
-0.013 0.005 0.035
0.005 0.029 0.061
0.009 0.027 0.063
0.033 0.031 0.069
0.019 0.033 0.053
0.029 0.039 0.055
0.021 0.041 0.047
0.027 0.041 0.047
0.035 0.021 0.033
0.021 0.019 0.061
0.009 0.031 0.057
0.017 0.017 0.065
0.011 0.025 0.065
0.013 0.023 0.067
0.011 0.025 0.063
0.035 0.029 0.071
0.035 0.031 0.067
0.009 0.027 0.039
0.011 0.029 0.051
0.015 0.025 0.045
0.017 0.035 0.049
0.035 0.035 0.053
0.027 0.033 0.063
0.023 0.037 0.057
0.029 0.037 0.061
0.033 0.037 0.055
0.011 0.007 0.053
0.011 0.009 0.053
0.011 0.017 0.051
0.017 0.015 0.051
0.019 0.019 0.067
0.017 0.017 0.065
0.019 0.019 0.071
0.029 0.029 0.069
0.037 0.033 0.081
0.031 0.029 0.069
0.039 0.029 0.087
0.005 0.031 0.053
0.013 0.027 0.057
0.027 0.037 0.061
0.025 0.037 0.059
0.031 0.037 0.061
0.029 0.033 0.065
0.035 0.015 0.037
0.043 0.035 0.085
0.043 0.035 0.085
0.039 0.025 0.085
0.039 0.031 0.087
0.031 0.037 0.043
0.025 0.035 0.061
0.007 0.003 0.069
0.005 0.003 0.071
0.005 0.005 0.077
0.035 0.017 0.081
0.027 0.021 0.069
0.019 0.019 0.073
0.029 0.021 0.073
0.033 0.027 0.087
0.029 0.005 0.089
0.021 0.017 0.087
0.035 0.013 0.083
0.035 0.009 0.081
0.035 0.017 0.081
0.037 0.029 0.069
0.041 0.033 0.087
0.041 0.029 0.085
0.041 0.037 0.087
0.041 0.035 0.081
0.035 0.017 0.081
0.033 0.017 0.087
0.035 0.031 0.087
0.035 0.031 0.087
0.043 0.037 0.081
-0.017 -0.035 0.033
-0.015 -0.031 0.031
-0.017 -0.031 0.031
-0.015 -0.033 0.033
-0.001 -0.035 0.033
0.003 -0.031 0.033
0.003 -0.025 0.031
-0.031 -0.041 0.045
-0.017 -0.049 0.039
-0.009 -0.037 0.033
-0.013 -0.041 0.037
-0.001 -0.035 0.037
-0.011 -0.039 0.041
-0.003 -0.033 0.043
-0.025 -0.041 0.057
-0.007 -0.037 0.049
-0.013 -0.041 0.037
-0.015 -0.045 0.039
-0.013 -0.041 0.043
-0.013 -0.041 0.053
0.003 -0.033 0.035
0.003 -0.031 0.035
-0.001 -0.027 0.045
-0.013 -0.029 0.055
-0.015 -0.031 0.057
-0.007 -0.029 0.051
-0.009 -0.027 0.053
-0.005 -0.023 0.055
-0.009 -0.037 0.051
-0.047 -0.039 0.091
-0.037 -0.043 0.081
-0.041 -0.039 0.091
-0.045 -0.039 0.093
-0.019 -0.037 0.065
-0.017 -0.035 0.071
-0.021 -0.037 0.081
-0.017 -0.037 0.085
-0.021 -0.037 0.089
-0.017 -0.035 0.089
-0.029 -0.039 0.081
-0.033 -0.041 0.083
-0.035 -0.041 0.087
-0.023 -0.037 0.069
-0.007 -0.029 0.071
-0.005 -0.029 0.077
-0.001 -0.025 0.079
-0.003 -0.025 0.073
-0.001 -0.025 0.079
0.001 -0.019 0.067
0.011 -0.017 0.067
0.011 -0.017 0.073
-0.017 -0.037 0.085
-0.007 -0.031 0.083
-0.027 -0.033 0.089
-0.017 -0.037 0.087
-0.013 -0.035 0.091
-0.007 -0.033 0.089
-0.011 -0.035 0.085
-0.003 -0.031 0.083
-0.001 -0.027 0.083
-0.033 -0.043 0.097
-0.029 -0.041 0.099
-0.019 -0.039 0.101
-0.003 -0.035 0.105
-0.003 -0.035 0.107
-0.029 -0.043 0.095
-0.009 -0.035 0.103
0.003 -0.031 0.097
0.001 -0.023 0.107
0.007 -0.027 0.035
0.007 -0.025 0.039
0.007 -0.025 0.039
0.005 -0.029 0.041
0.007 -0.019 0.047
0.005 -0.015 0.039
0.017 -0.005 0.043
0.025 -0.009 0.043
0.005 -0.025 0.051
0.011 -0.017 0.055
0.011 -0.015 0.051
0.015 -0.013 0.061
0.015 -0.001 0.057
0.011 -0.017 0.071
0.015 -0.011 0.065
0.017 -0.013 0.075
0.021 -0.005 0.073
0.027 -0.003 0.079
0.005 -0.013 0.085
0.017 -0.011 0.083
0.009 -0.017 0.111
0.001 -0.009 0.103
0.011 -0.017 0.113
0.005 -0.027 0.033
0.001 0.005 0.037
-0.003 0.007 0.039
0.035 -0.005 0.033
0.035 0.015 0.031
0.013 0.001 0.033
0.017 -0.001 0.033
0.017 -0.005 0.039
0.017 -0.005 0.039
0.019 -0.005 0.039
0.019 -0.003 0.037
0.031 -0.009 0.039
0.011 -0.001 0.043
0.017 -0.005 0.047
0.023 -0.001 0.035
0.033 -0.007 0.035
0.037 -0.005 0.035
0.035 -0.001 0.035
0.033 0.001 0.043
0.033 0.005 0.045
0.033 0.005 0.045
0.029 -0.009 0.041
0.031 -0.009 0.041
0.029 -0.001 0.047
0.031 0.001 0.045
0.033 0.003 0.043
0.031 0.029 0.047
0.019 -0.001 0.061
0.031 0.003 0.053
0.033 0.007 0.057
0.033 0.007 0.059
0.025 -0.003 0.053
0.027 -0.001 0.061
0.027 -0.001 0.059
0.027 0.001 0.063
0.033 0.005 0.057
0.033 0.007 0.059
0.035 0.013 0.035
0.035 0.015 0.035
0.031 0.013 0.045
0.023 0.025 0.047
0.031 0.009 0.049
0.033 0.033 0.051
0.033 0.035 0.051
0.019 -0.011 0.077
0.027 0.001 0.067
0.033 0.003 0.071
0.033 0.005 0.075
0.035 0.005 0.073
0.031 0.003 0.087
0.021 0.001 0.093
0.027 0.005 0.091
0.025 0.005 0.093
0.031 0.001 0.085
0.035 0.007 0.069
0.037 0.023 0.067
0.035 0.019 0.075
0.039 0.021 0.073
0.041 0.029 0.075
0.033 0.005 0.083
0.033 0.013 0.085
0.035 0.025 0.087
0.039 0.029 0.087
0.037 0.025 0.067
-0.033 -0.005 0.039
-0.025 -0.005 0.035
-0.023 -0.003 0.035
-0.037 -0.035 0.049
-0.037 -0.023 0.041
-0.039 -0.029 0.051
-0.037 -0.031 0.045
-0.037 -0.023 0.053
-0.037 -0.025 0.047
-0.041 -0.013 0.043
-0.043 -0.009 0.041
-0.037 -0.025 0.055
-0.037 -0.031 0.059
-0.035 -0.023 0.057
-0.031 -0.023 0.067
-0.037 -0.019 0.043
-0.041 -0.009 0.039
-0.033 -0.007 0.045
-0.035 -0.025 0.035
-0.041 -0.009 0.037
-0.031 -0.013 0.051
-0.031 -0.007 0.047
-0.017 0.003 0.037
-0.013 -0.001 0.045
-0.033 -0.017 0.055
-0.031 -0.015 0.055
-0.031 -0.017 0.057
-0.025 -0.019 0.063
-0.029 -0.015 0.057
-0.005 -0.015 0.065
-0.007 -0.003 0.055
-0.005 -0.001 0.061
-0.047 -0.037 0.085
-0.047 -0.029 0.085
-0.043 -0.029 0.089
-0.041 -0.025 0.085
-0.035 -0.023 0.085
-0.031 -0.027 0.089
-0.033 -0.037 0.093
-0.029 -0.025 0.089
-0.035 -0.023 0.097
-0.047 -0.029 0.083
-0.027 -0.019 0.065
-0.005 -0.003 0.067
-0.001 -0.015 0.077
-0.033 -0.023 0.095
-0.033 -0.023 0.095
-0.027 -0.023 0.091
-0.031 -0.021 0.095
-0.027 -0.021 0.091
-0.025 -0.019 0.091
-0.025 -0.019 0.091
-0.021 -0.017 0.089
-0.021 -0.017 0.087
-0.009 -0.011 0.095
-0.009 -0.011 0.087
-0.009 -0.011 0.089
-0.039 -0.043 0.099
-0.041 -0.037 0.103
-0.043 -0.031 0.101
-0.041 -0.029 0.097
-0.039 -0.025 0.099
-0.023 -0.019 0.101
-0.013 -0.023 0.107
-0.039 -0.027 0.097
-0.043 -0.031 0.105
-0.035 -0.023 0.099
-0.025 -0.019 0.099
-0.027 -0.021 0.101
-0.023 -0.017 0.097
-0.025 -0.023 0.105
-0.023 -0.023 0.105
-0.021 -0.021 0.105
-0.017 -0.019 0.105
-0.013 -0.023 0.107
-0.011 -0.023 0.111
-0.005 -0.009 0.097
-0.023 -0.005 0.045
-0.021 -0.003 0.043
-0.019 -0.005 0.047
-0.015 -0.005 0.047
-0.015 0.001 0.043
0.009 0.001 0.045
0.005 0.007 0.041
0.005 0.007 0.047
0.005 0.009 0.047
-0.015 -0.009 0.053
-0.013 -0.007 0.055
-0.011 -0.013 0.057
-0.007 -0.005 0.063
0.011 0.001 0.051
-0.003 -0.001 0.065
0.011 0.007 0.053
0.013 0.009 0.059
0.003 0.013 0.043
0.005 0.015 0.041
0.005 0.011 0.047
-0.005 -0.013 0.067
-0.001 -0.007 0.079
-0.001 0.001 0.071
0.001 -0.001 0.079
-0.009 -0.013 0.085
-0.007 -0.011 0.085
-0.011 -0.011 0.093
0.005 -0.003 0.085
0.007 0.001 0.089
0.005 0.003 0.083
0.011 0.003 0.091
0.001 -0.017 0.107
0.003 -0.017 0.111
-0.019 0.003 0.033
-0.003 0.009 0.039
-0.007 0.013 0.037
-0.005 0.013 0.039
-0.005 0.013 0.039
0.015 0.031 0.031
-0.005 0.017 0.035
-0.003 0.017 0.035
-0.005 0.017 0.037
0.003 0.013 0.039
0.005 0.009 0.043
0.003 0.021 0.039
0.005 0.019 0.045
0.007 0.023 0.037
0.003 0.025 0.049
0.009 0.025 0.035
0.003 0.025 0.039
0.013 0.033 0.033
0.003 0.019 0.041
0.005 0.029 0.045
0.003 0.029 0.049
0.017 0.037 0.035
0.011 0.009 0.053
0.001 0.001 0.057
0.005 0.023 0.059
0.005 0.025 0.059
0.017 0.007 0.065
0.005 0.027 0.061
0.003 0.027 0.049
0.007 0.025 0.061
0.005 0.029 0.059
0.019 0.033 0.051
0.023 0.031 0.055
0.027 0.027 0.063
0.027 0.029 0.063
0.025 0.031 0.061
0.003 0.029 0.047
0.007 0.025 0.063
0.019 0.039 0.037
0.021 0.039 0.037
0.017 0.039 0.043
0.027 0.039 0.057
0.009 0.003 0.071
0.001 0.001 0.077
0.017 0.007 0.067
0.017 0.009 0.071
0.013 0.007 0.075
0.009 0.021 0.065
0.009 0.021 0.067
0.023 0.021 0.067
0.027 0.021 0.069
0.025 0.021 0.077
0.009 0.007 0.087
0.011 0.003 0.091
0.011 0.003 0.091
0.031 0.017 0.087
0.033 0.027 0.079
0.033 0.027 0.079
0.033 0.025 0.075
0.037 0.029 0.075
0.025 0.019 0.083
0.033 0.027 0.081
