-0.001 -0.035 0.033
0.001 -0.033 0.031
-0.001 -0.017 0.031
0.001 -0.019 0.033
-0.017 -0.041 0.047
-0.017 -0.043 0.051
-0.021 -0.039 0.061
-0.017 -0.051 0.037
-0.015 -0.045 0.035
-0.011 -0.039 0.035
-0.021 -0.043 0.041
-0.013 -0.041 0.037
-0.005 -0.037 0.037
-0.007 -0.037 0.039
-0.005 -0.035 0.041
-0.007 -0.037 0.045
-0.027 -0.041 0.051
-0.029 -0.041 0.055
-0.021 -0.041 0.053
-0.025 -0.039 0.061
-0.019 -0.039 0.059
-0.007 -0.037 0.049
-0.005 -0.029 0.045
-0.005 -0.029 0.047
0.007 -0.027 0.039
-0.001 -0.027 0.047
0.005 -0.025 0.045
0.005 -0.025 0.047
-0.013 -0.031 0.055
-0.013 -0.025 0.057
-0.015 -0.033 0.059
-0.001 -0.035 0.037
0.005 -0.029 0.037
0.003 -0.033 0.035
0.005 -0.029 0.037
0.007 -0.027 0.041
0.007 -0.013 0.043
-0.001 -0.009 0.033
0.003 -0.013 0.037
0.001 -0.005 0.039
-0.011 -0.023 0.057
-0.009 -0.021 0.063
0.001 -0.023 0.057
-0.001 -0.023 0.055
0.003 -0.023 0.055
-0.013 -0.027 0.057
0.003 -0.021 0.059
0.005 -0.021 0.063
-0.001 -0.023 0.057
0.011 -0.009 0.053
0.015 -0.009 0.065
-0.037 -0.043 0.085
-0.033 -0.041 0.083
-0.039 -0.043 0.087
-0.041 -0.037 0.091
-0.023 -0.037 0.087
-0.023 -0.037 0.087
-0.017 -0.037 0.081
-0.017 -0.037 0.085
-0.023 -0.039 0.091
-0.021 -0.039 0.093
-0.013 -0.035 0.085
-0.007 -0.033 0.091
-0.001 -0.033 0.093
-0.021 -0.037 0.083
-0.017 -0.037 0.085
-0.011 -0.035 0.087
-0.021 -0.037 0.089
-0.007 -0.025 0.067
-0.007 -0.023 0.069
-0.013 -0.033 0.075
-0.005 -0.027 0.073
-0.007 -0.023 0.069
-0.007 -0.023 0.069
-0.009 -0.031 0.075
-0.007 -0.031 0.075
-0.011 -0.033 0.077
-0.001 -0.023 0.077
-0.001 -0.019 0.077
0.001 -0.019 0.079
-0.011 -0.035 0.089
-0.011 -0.035 0.089
-0.009 -0.035 0.095
-0.011 -0.035 0.091
0.001 -0.031 0.089
0.005 -0.027 0.091
-0.007 -0.033 0.085
0.001 -0.023 0.091
0.001 -0.021 0.091
-0.005 -0.015 0.093
0.001 -0.019 0.089
-0.001 -0.011 0.089
-0.031 -0.043 0.099
-0.027 -0.037 0.099
-0.033 -0.037 0.105
-0.023 -0.039 0.103
-0.029 -0.041 0.099
-0.023 -0.039 0.097
-0.015 -0.035 0.105
-0.011 -0.035 0.097
0.005 -0.029 0.099
-0.001 -0.031 0.103
0.009 -0.027 0.103
-0.001 -0.033 0.107
-0.003 -0.015 0.097
-0.001 -0.019 0.099
-0.007 -0.017 0.101
-0.005 -0.015 0.101
0.003 -0.027 0.031
0.003 -0.029 0.041
0.005 -0.027 0.043
0.019 -0.005 0.047
0.033 -0.007 0.039
0.033 -0.007 0.039
0.031 -0.007 0.037
0.025 -0.007 0.041
0.005 -0.023 0.049
0.005 -0.025 0.053
0.009 -0.019 0.051
0.011 -0.015 0.051
0.011 -0.005 0.055
0.015 -0.009 0.061
0.013 -0.005 0.061
0.029 -0.001 0.053
0.029 -0.001 0.053
0.025 -0.003 0.057
0.025 -0.001 0.059
0.035 -0.007 0.033
0.035 -0.007 0.033
0.007 -0.017 0.075
0.007 -0.017 0.073
0.009 -0.015 0.079
0.013 -0.015 0.079
0.023 -0.005 0.075
0.023 -0.005 0.077
0.003 -0.031 0.095
0.009 -0.027 0.095
0.001 -0.019 0.089
0.009 -0.013 0.083
0.019 -0.011 0.083
0.013 -0.009 0.089
0.017 -0.007 0.089
0.019 -0.007 0.089
0.025 -0.005 0.081
0.025 -0.005 0.083
0.019 -0.005 0.091
0.023 -0.003 0.091
0.025 -0.003 0.089
0.007 -0.029 0.103
0.009 -0.027 0.101
0.009 -0.027 0.097
0.005 -0.019 0.107
0.005 -0.021 0.109
0.009 -0.017 0.109
0.009 -0.017 0.109
0.011 -0.015 0.111
-0.009 0.001 0.035
0.001 -0.005 0.039
0.033 -0.007 0.039
0.005 -0.005 0.043
0.035 -0.003 0.039
0.019 -0.009 0.071
0.035 -0.001 0.035
0.035 0.011 0.035
0.035 0.019 0.031
0.035 0.021 0.031
0.029 -0.009 0.037
0.031 -0.009 0.039
0.033 -0.007 0.035
0.031 -0.007 0.037
0.029 -0.003 0.043
0.035 -0.003 0.039
0.029 -0.007 0.045
0.031 0.007 0.035
0.035 0.013 0.033
0.031 0.009 0.047
0.035 0.003 0.037
0.035 0.017 0.037
0.031 0.011 0.047
0.025 0.015 0.047
0.033 0.009 0.041
0.035 0.021 0.035
0.023 0.021 0.045
0.031 0.001 0.051
0.025 -0.003 0.057
0.031 0.007 0.055
0.033 0.005 0.057
0.031 0.007 0.053
0.031 0.007 0.053
0.033 0.005 0.057
0.033 0.007 0.061
0.035 0.009 0.063
0.033 0.013 0.061
0.031 0.027 0.055
0.031 0.023 0.061
0.035 -0.001 0.037
0.033 0.007 0.041
0.033 0.029 0.035
0.035 0.023 0.063
0.035 0.027 0.057
0.037 0.029 0.061
0.033 0.027 0.039
0.033 0.029 0.037
0.033 0.029 0.039
0.031 0.033 0.039
0.031 0.033 0.039
0.031 0.039 0.047
0.031 0.027 0.055
0.035 0.029 0.057
0.035 0.035 0.061
0.019 -0.003 0.071
0.019 -0.001 0.071
0.019 -0.001 0.071
0.019 -0.009 0.073
0.023 -0.003 0.075
0.025 0.001 0.073
0.027 -0.003 0.079
0.027 0.001 0.067
0.031 0.003 0.075
0.033 0.003 0.077
0.033 0.005 0.075
0.035 0.005 0.071
0.035 0.007 0.071
0.039 0.023 0.069
0.037 0.013 0.075
0.035 0.017 0.077
0.035 0.017 0.079
0.023 -0.007 0.085
0.023 -0.003 0.091
0.027 -0.001 0.089
0.021 0.001 0.095
0.031 0.007 0.089
0.029 0.009 0.091
0.033 0.005 0.065
0.035 0.007 0.079
0.039 0.023 0.069
0.039 0.023 0.071
0.035 0.017 0.075
0.039 0.021 0.075
0.039 0.023 0.075
0.041 0.029 0.075
0.039 0.021 0.077
0.041 0.025 0.079
0.037 0.029 0.089
-0.041 -0.013 0.033
-0.039 -0.011 0.033
-0.041 -0.009 0.035
-0.025 -0.003 0.037
-0.035 -0.005 0.035
-0.033 -0.003 0.035
-0.023 -0.003 0.035
-0.023 -0.003 0.035
-0.023 -0.001 0.035
-0.037 -0.035 0.047
-0.037 -0.035 0.053
-0.037 -0.033 0.055
-0.037 -0.031 0.053
-0.037 -0.031 0.041
-0.037 -0.029 0.041
-0.037 -0.029 0.041
-0.039 -0.029 0.045
-0.035 -0.023 0.037
-0.037 -0.027 0.039
-0.037 -0.025 0.043
-0.043 -0.011 0.043
-0.037 -0.023 0.047
-0.033 -0.017 0.051
-0.031 -0.013 0.051
-0.037 -0.033 0.057
-0.035 -0.033 0.061
-0.035 -0.031 0.061
-0.035 -0.035 0.061
-0.035 -0.025 0.061
-0.041 -0.009 0.039
-0.043 -0.009 0.043
-0.033 -0.021 0.059
-0.041 -0.013 0.037
-0.041 -0.009 0.037
-0.033 -0.005 0.041
-0.029 -0.009 0.047
-0.021 -0.009 0.051
-0.031 -0.003 0.037
-0.023 -0.001 0.035
-0.023 -0.001 0.039
-0.027 -0.003 0.041
-0.031 -0.005 0.045
-0.021 -0.003 0.043
-0.023 -0.005 0.047
-0.019 -0.005 0.045
-0.021 -0.005 0.047
-0.015 0.003 0.041
-0.019 -0.001 0.041
-0.031 -0.015 0.055
-0.027 -0.013 0.055
-0.021 -0.015 0.055
-0.013 -0.017 0.055
-0.009 -0.013 0.061
-0.031 -0.013 0.049
-0.025 -0.007 0.049
-0.027 -0.015 0.057
-0.009 -0.003 0.055
-0.047 -0.029 0.083
-0.049 -0.031 0.087
-0.047 -0.027 0.085
-0.047 -0.035 0.091
-0.041 -0.029 0.089
-0.027 -0.027 0.073
-0.029 -0.023 0.069
-0.041 -0.025 0.085
-0.033 -0.021 0.083
-0.033 -0.021 0.085
-0.039 -0.025 0.097
-0.025 -0.031 0.089
-0.027 -0.027 0.091
-0.033 -0.023 0.095
-0.029 -0.021 0.087
-0.023 -0.021 0.093
-0.027 -0.019 0.097
-0.043 -0.027 0.087
-0.043 -0.025 0.083
-0.039 -0.025 0.083
-0.033 -0.029 0.089
-0.031 -0.025 0.069
-0.021 -0.019 0.065
-0.025 -0.019 0.071
-0.023 -0.025 0.077
-0.021 -0.021 0.079
-0.021 -0.017 0.067
-0.023 -0.019 0.071
-0.021 -0.017 0.073
-0.017 -0.017 0.069
-0.015 -0.019 0.067
-0.003 -0.017 0.071
-0.003 -0.009 0.075
-0.033 -0.021 0.085
-0.031 -0.021 0.087
-0.029 -0.019 0.083
-0.029 -0.019 0.083
-0.029 -0.019 0.083
-0.033 -0.025 0.089
-0.033 -0.023 0.095
-0.027 -0.023 0.091
-0.027 -0.019 0.095
-0.031 -0.021 0.095
-0.027 -0.019 0.095
-0.023 -0.019 0.083
-0.019 -0.015 0.087
-0.007 -0.015 0.081
-0.013 -0.013 0.097
-0.017 -0.015 0.087
-0.007 -0.015 0.083
-0.013 -0.013 0.091
-0.011 -0.011 0.091
-0.005 -0.009 0.089
-0.009 -0.011 0.095
-0.041 -0.041 0.101
-0.043 -0.031 0.105
-0.037 -0.031 0.103
-0.029 -0.029 0.103
-0.015 -0.027 0.105
-0.037 -0.023 0.099
-0.037 -0.031 0.105
-0.037 -0.023 0.099
-0.031 -0.023 0.099
-0.021 -0.019 0.103
-0.027 -0.027 0.105
-0.021 -0.021 0.105
-0.021 -0.019 0.103
-0.019 -0.017 0.103
-0.013 -0.013 0.101
-0.017 -0.015 0.105
-0.007 -0.011 0.097
-0.005 -0.009 0.097
-0.003 -0.009 0.099
-0.031 -0.005 0.041
-0.031 -0.005 0.045
-0.027 -0.009 0.049
-0.015 -0.007 0.051
-0.013 -0.005 0.051
-0.011 0.001 0.047
-0.011 0.001 0.047
0.005 0.007 0.047
0.007 0.005 0.047
0.003 0.015 0.047
-0.009 -0.009 0.061
-0.007 -0.003 0.057
0.003 -0.001 0.051
0.011 0.001 0.053
0.003 0.001 0.063
0.013 0.009 0.055
0.013 0.009 0.057
0.015 0.003 0.061
0.003 0.013 0.041
-0.001 -0.011 0.075
0.007 0.003 0.069
-0.003 -0.011 0.073
0.001 -0.009 0.079
0.001 -0.001 0.079
0.005 0.003 0.073
0.003 0.001 0.079
-0.013 -0.013 0.089
-0.013 -0.013 0.089
-0.013 -0.013 0.087
0.003 -0.001 0.083
0.007 -0.003 0.089
0.007 0.003 0.087
0.009 0.005 0.087
0.009 0.003 0.089
0.009 0.007 0.087
-0.001 -0.017 0.109
0.011 -0.013 0.113
-0.015 0.005 0.035
-0.013 0.003 0.043
-0.003 0.017 0.033
-0.001 0.017 0.037
0.009 0.027 0.037
0.013 0.033 0.035
0.015 0.035 0.035
0.017 0.033 0.031
-0.003 0.017 0.037
-0.001 0.013 0.037
-0.003 0.017 0.037
0.009 0.001 0.047
0.003 0.015 0.045
0.003 0.023 0.037
0.003 0.025 0.039
0.009 0.027 0.039
0.009 0.027 0.039
0.003 0.027 0.051
0.003 0.029 0.049
0.003 0.029 0.051
0.003 0.023 0.037
0.009 0.025 0.041
0.011 0.029 0.039
0.003 0.023 0.047
0.003 0.025 0.043
0.003 0.025 0.049
0.005 0.029 0.045
0.013 0.033 0.043
0.007 0.029 0.047
0.009 0.023 0.035
0.017 0.039 0.041
0.013 0.029 0.045
0.007 0.031 0.049
0.009 0.029 0.047
0.015 0.033 0.047
0.005 0.017 0.051
0.003 0.023 0.051
0.015 0.013 0.053
0.005 0.001 0.063
0.015 0.013 0.059
0.005 0.021 0.057
0.003 0.027 0.055
0.005 0.025 0.059
0.015 0.011 0.063
0.009 0.021 0.063
0.009 0.019 0.065
0.005 0.021 0.053
0.005 0.031 0.051
0.009 0.031 0.051
0.009 0.023 0.063
0.009 0.029 0.061
0.019 0.031 0.051
0.009 0.023 0.063
0.027 0.029 0.063
0.003 0.019 0.047
0.013 0.035 0.041
0.015 0.037 0.043
0.019 0.039 0.049
0.007 0.025 0.063
0.023 0.035 0.059
0.025 0.037 0.059
0.027 0.029 0.063
0.015 0.037 0.039
0.015 0.037 0.041
0.017 0.039 0.043
0.023 0.041 0.043
0.019 0.037 0.051
0.023 0.041 0.051
0.025 0.041 0.051
0.029 0.041 0.049
0.027 0.039 0.055
0.005 0.003 0.079
0.009 0.005 0.073
0.009 0.007 0.079
0.017 0.007 0.067
0.013 0.017 0.073
0.009 0.021 0.067
0.019 0.019 0.069
0.023 0.021 0.067
0.029 0.025 0.065
0.023 0.021 0.073
0.031 0.025 0.073
0.009 0.005 0.087
0.013 0.011 0.085
0.011 0.007 0.089
0.015 0.013 0.087
0.023 0.017 0.087
0.019 0.007 0.093
0.019 0.009 0.091
0.023 0.015 0.089
0.023 0.015 0.089
0.027 0.019 0.083
0.019 0.019 0.071
0.017 0.017 0.077
0.033 0.025 0.079
0.033 0.025 0.079
0.025 0.015 0.089
0.033 0.027 0.083
0.033 0.027 0.085
0.031 0.033 0.065
0.039 0.037 0.087
