-0.033 -0.033 0.035
-0.017 -0.049 0.039
-0.019 -0.039 0.059
-0.037 -0.025 0.041
-0.041 -0.015 0.039
-0.039 -0.011 0.043
-0.035 -0.031 0.061
-0.017 -0.037 0.067
-0.033 -0.035 0.063
-0.047 -0.039 0.091
-0.031 -0.033 0.069
-0.049 -0.033 0.085
-0.033 -0.043 0.099
-0.033 -0.025 0.089
-0.039 -0.045 0.101
-0.037 -0.035 0.107
-0.007 -0.035 0.103
0.001 -0.031 0.041
0.009 -0.017 0.071
-0.001 -0.033 0.091
0.003 -0.031 0.099
-0.033 -0.039 0.057
-0.031 -0.039 0.059
-0.023 -0.041 0.055
0.003 -0.019 0.065
-0.023 -0.037 0.081
0.023 -0.009 0.041
-0.037 -0.043 0.081
-0.031 -0.039 0.087
-0.001 -0.033 0.099
-0.023 -0.033 0.031
-0.015 -0.043 0.035
-0.001 -0.035 0.035
-0.001 -0.035 0.033
0.005 -0.017 0.039
0.001 -0.025 0.049
-0.001 -0.021 0.061
-0.009 -0.031 0.077
-0.011 -0.033 0.073
-0.005 -0.029 0.075
-0.005 -0.029 0.081
-0.031 -0.043 0.099
-0.035 -0.039 0.103
-0.001 -0.023 0.109
-0.001 -0.011 0.101
0.005 -0.025 0.033
0.007 -0.023 0.043
0.005 -0.013 0.039
0.023 -0.001 0.061
0.019 -0.005 0.071
0.015 -0.009 0.087
0.029 -0.001 0.083
0.035 0.011 0.033
0.029 -0.001 0.047
0.025 -0.005 0.049
0.027 -0.003 0.047
0.027 -0.003 0.049
0.029 0.001 0.061
0.035 0.023 0.063
0.033 0.031 0.049
0.035 0.029 0.055
0.035 0.007 0.073
0.019 -0.011 0.081
0.029 0.003 0.089
0.025 0.005 0.093
-0.045 -0.043 0.085
-0.047 -0.029 0.087
-0.035 -0.013 0.045
-0.031 -0.017 0.057
-0.029 -0.021 0.067
-0.013 -0.005 0.049
-0.027 -0.021 0.071
-0.021 -0.009 0.051
-0.017 -0.013 0.055
-0.043 -0.037 0.093
-0.039 -0.025 0.097
-0.031 -0.023 0.099
-0.027 -0.033 0.105
-0.021 -0.033 0.105
-0.021 -0.021 0.105
-0.021 -0.017 0.099
-0.017 -0.015 0.095
-0.015 -0.015 0.107
-0.031 -0.043 0.099
-0.037 -0.035 0.107
-0.025 -0.037 0.101
-0.017 -0.023 0.105
-0.039 -0.031 0.089
-0.029 -0.025 0.101
-0.005 -0.007 0.067
-0.019 -0.029 0.105
-0.015 -0.027 0.105
-0.001 -0.009 0.103
0.001 -0.019 0.111
0.003 0.019 0.041
0.005 0.015 0.051
0.005 0.007 0.041
0.003 0.019 0.047
0.003 0.023 0.047
0.019 0.021 0.047
0.001 0.001 0.075
0.017 0.015 0.073
0.023 0.035 0.059
0.001 0.001 0.075
0.021 0.015 0.089
0.021 0.015 0.089
0.033 0.021 0.081
0.035 0.023 0.083
-0.027 -0.019 0.063
-0.009 -0.001 0.047
0.007 0.029 0.061
-0.007 -0.003 0.055
0.011 0.025 0.065
-0.039 -0.007 0.039
-0.021 -0.001 0.039
-0.017 0.001 0.039
0.007 0.029 0.045
-0.001 0.001 0.063
0.001 0.001 0.059
-0.037 -0.033 0.089
-0.013 -0.017 0.069
-0.015 -0.015 0.091
-0.003 -0.009 0.087
-0.029 -0.019 0.085
-0.023 -0.019 0.095
-0.017 -0.015 0.087
-0.027 -0.023 0.103
-0.001 -0.019 0.099
-0.003 -0.021 0.103
-0.009 -0.015 0.105
-0.009 -0.021 0.105
-0.007 -0.011 0.101
0.017 0.015 0.055
0.017 0.015 0.055
0.033 0.033 0.049
0.021 0.019 0.063
0.021 0.017 0.059
0.013 0.011 0.087
0.017 0.003 0.093
-0.013 0.005 0.037
0.031 0.011 0.045
0.005 0.025 0.035
0.005 0.025 0.041
0.021 0.039 0.051
0.033 0.025 0.039
0.033 0.023 0.039
0.023 0.041 0.051
0.021 0.019 0.069
0.007 0.005 0.083
0.015 0.013 0.085
0.033 0.011 0.087
0.037 0.031 0.087
0.029 0.017 0.043
0.007 -0.023 0.043
0.005 -0.023 0.049
0.029 0.011 0.049
0.029 -0.007 0.043
0.027 0.015 0.053
0.033 0.015 0.063
0.031 0.013 0.057
0.001 -0.019 0.097
0.007 -0.027 0.089
-0.007 -0.029 0.069
0.025 -0.005 0.079
0.033 0.005 0.077
0.001 -0.021 0.105
0.005 -0.027 0.103
-0.009 -0.015 0.107
-0.003 -0.013 0.101
-0.001 -0.021 0.099
-0.001 -0.009 0.103
0.033 -0.007 0.041
0.029 -0.003 0.045
0.033 0.005 0.067
0.001 -0.021 0.083
0.031 0.005 0.087
0.007 -0.025 0.097
0.033 0.031 0.049
0.035 0.033 0.063
0.035 0.031 0.055
0.035 0.013 0.035
0.035 0.035 0.055
0.039 0.023 0.069
0.037 0.029 0.067
0.041 0.031 0.073
-0.023 -0.005 0.047
-0.031 -0.021 0.063
-0.015 -0.021 0.059
-0.037 -0.007 0.045
-0.007 -0.009 0.067
-0.037 -0.027 0.089
-0.043 -0.031 0.091
-0.023 -0.017 0.097
-0.023 -0.021 0.103
-0.009 -0.019 0.071
-0.011 -0.017 0.071
-0.021 -0.017 0.095
-0.037 -0.033 0.107
-0.003 -0.021 0.103
-0.005 -0.023 0.115
0.009 0.003 0.089
0.013 -0.001 0.091
0.013 -0.001 0.091
0.003 0.027 0.055
0.005 0.031 0.055
0.013 0.023 0.067
0.035 0.033 0.063
0.023 0.021 0.075
0.005 0.003 0.083
0.025 0.007 0.095
0.021 0.017 0.087
0.037 0.029 0.073
-0.023 -0.045 0.041
-0.021 -0.043 0.041
-0.023 -0.041 0.055
-0.025 -0.041 0.095
-0.045 -0.031 0.089
-0.043 -0.033 0.105
-0.023 -0.031 0.105
-0.029 -0.023 0.103
-0.019 -0.035 0.103
-0.035 -0.027 0.101
-0.025 -0.023 0.105
-0.017 -0.025 0.105
-0.025 -0.021 0.103
-0.003 -0.027 0.101
-0.009 -0.019 0.103
-0.019 -0.023 0.105
-0.011 -0.035 0.103
0.005 -0.015 0.111
0.001 -0.023 0.107
-0.001 -0.001 0.077
0.009 0.019 0.055
0.007 -0.007 0.089
0.025 0.027 0.055
0.017 -0.007 0.089
0.011 0.003 0.091
0.019 0.033 0.053
0.023 0.005 0.095
0.039 0.023 0.083
0.035 0.029 0.087
-0.001 -0.009 0.033
-0.017 -0.051 0.035
-0.017 -0.049 0.039
-0.013 -0.041 0.053
0.005 -0.029 0.041
0.005 -0.025 0.047
0.001 -0.033 0.037
0.005 -0.019 0.039
0.009 -0.009 0.049
-0.011 -0.025 0.063
-0.001 -0.027 0.049
-0.011 -0.025 0.061
-0.025 -0.039 0.083
-0.015 -0.035 0.067
-0.019 -0.037 0.091
-0.011 -0.035 0.085
0.007 -0.029 0.087
-0.021 -0.037 0.103
-0.005 -0.035 0.103
0.005 -0.021 0.039
0.005 -0.023 0.051
0.015 -0.009 0.061
0.005 -0.019 0.069
0.007 -0.029 0.095
0.025 -0.005 0.083
0.005 -0.029 0.103
0.035 -0.003 0.035
0.035 0.009 0.035
0.035 0.005 0.039
0.035 0.007 0.037
0.023 0.023 0.047
0.029 0.015 0.055
0.031 0.015 0.059
0.029 0.029 0.049
0.031 0.029 0.045
0.033 0.033 0.045
0.021 -0.007 0.077
0.023 -0.007 0.079
0.039 0.023 0.083
0.045 0.035 0.081
-0.023 -0.049 0.039
-0.033 -0.037 0.063
-0.037 -0.023 0.051
-0.029 -0.011 0.051
-0.041 -0.043 0.101
-0.029 -0.021 0.089
-0.039 -0.027 0.095
-0.023 -0.017 0.097
-0.039 -0.041 0.105
-0.007 -0.035 0.105
-0.009 -0.027 0.111
-0.031 -0.015 0.055
-0.039 -0.027 0.095
-0.011 -0.011 0.093
-0.001 -0.007 0.095
-0.027 -0.009 0.051
-0.013 -0.005 0.049
-0.003 0.011 0.039
-0.009 -0.009 0.061
0.007 0.021 0.061
0.017 0.011 0.069
0.009 0.019 0.065
0.003 0.017 0.047
0.009 0.021 0.067
0.017 0.013 0.067
0.015 0.013 0.077
0.015 0.013 0.085
0.007 0.003 0.087
0.031 0.027 0.071
0.035 0.023 0.085
-0.035 -0.021 0.037
-0.033 -0.039 0.043
-0.031 -0.041 0.049
-0.031 -0.041 0.053
-0.035 -0.037 0.053
-0.037 -0.035 0.053
-0.035 -0.021 0.053
-0.023 -0.005 0.047
-0.025 -0.003 0.039
-0.045 -0.043 0.085
-0.045 -0.027 0.083
-0.025 -0.019 0.069
-0.001 -0.001 0.077
-0.021 -0.017 0.095
-0.015 -0.015 0.107
-0.013 -0.003 0.047
-0.005 -0.015 0.067
0.003 -0.011 0.083
-0.003 0.009 0.037
-0.005 0.017 0.037
0.003 0.025 0.035
0.005 0.019 0.043
0.003 0.017 0.047
0.007 0.031 0.049
0.005 0.023 0.059
0.015 0.037 0.045
0.011 0.019 0.069
0.013 0.005 0.091
0.015 0.011 0.089
0.011 0.017 0.069
0.007 0.005 0.083
0.003 -0.027 0.101
0.007 -0.027 0.101
0.007 -0.027 0.101
0.015 0.007 0.091
-0.029 -0.017 0.057
-0.025 -0.025 0.105
-0.001 -0.021 0.109
-0.005 -0.017 0.097
-0.023 -0.037 0.103
-0.001 -0.031 0.107
-0.039 -0.031 0.105
-0.033 -0.023 0.099
-0.027 -0.025 0.105
-0.017 -0.021 0.105
-0.007 -0.023 0.115
0.007 -0.025 0.039
0.005 -0.027 0.043
0.025 0.005 0.093
0.015 -0.013 0.083
0.019 -0.009 0.087
0.023 -0.007 0.085
0.019 -0.005 0.091
0.025 0.017 0.087
0.033 0.001 0.043
0.041 0.029 0.083
0.043 0.033 0.081
0.029 0.007 0.091
0.037 0.013 0.075
0.037 0.013 0.075
0.013 0.021 0.063
0.033 0.011 0.043
0.033 0.019 0.039
0.025 0.037 0.059
0.033 0.037 0.059
0.023 0.017 0.087
0.037 0.011 0.075
0.039 0.031 0.087
-0.015 -0.049 0.035
-0.009 -0.039 0.041
-0.017 -0.045 0.039
-0.025 -0.041 0.059
-0.019 -0.039 0.057
-0.033 -0.039 0.093
-0.025 -0.041 0.093
-0.009 -0.033 0.087
-0.035 -0.041 0.089
-0.035 -0.041 0.087
-0.029 -0.037 0.087
-0.021 -0.037 0.087
-0.015 -0.035 0.105
0.005 -0.025 0.049
-0.003 -0.027 0.049
-0.003 -0.021 0.057
0.023 -0.005 0.051
0.003 -0.017 0.071
0.027 -0.003 0.081
-0.005 -0.035 0.103
-0.017 -0.041 0.045
-0.003 -0.025 0.051
0.025 -0.003 0.057
0.007 -0.021 0.055
0.015 -0.005 0.043
0.013 -0.017 0.065
0.025 0.001 0.065
0.009 -0.017 0.071
0.011 -0.015 0.079
0.003 -0.017 0.071
-0.021 -0.051 0.037
-0.015 -0.043 0.049
-0.023 -0.041 0.051
-0.017 -0.043 0.051
-0.043 -0.041 0.089
-0.027 -0.039 0.065
-0.007 -0.033 0.089
-0.015 -0.033 0.077
-0.011 -0.033 0.069
-0.005 -0.017 0.065
-0.003 -0.033 0.099
-0.011 -0.035 0.103
0.025 -0.005 0.049
0.003 -0.029 0.103
0.003 -0.017 0.069
0.005 0.005 0.037
0.027 0.007 0.033
0.015 0.005 0.063
0.017 0.001 0.061
0.025 -0.001 0.063
0.031 0.001 0.059
0.037 -0.005 0.035
0.033 0.001 0.043
0.033 0.005 0.063
0.033 0.001 0.043
0.031 0.001 0.055
0.025 0.001 0.073
0.037 0.023 0.065
0.037 0.011 0.073
0.039 0.021 0.079
0.041 0.025 0.079
-0.019 -0.049 0.039
-0.011 -0.041 0.039
-0.007 -0.039 0.035
-0.013 -0.029 0.057
-0.009 -0.021 0.057
-0.029 -0.043 0.097
-0.013 -0.033 0.075
-0.023 -0.039 0.083
-0.027 -0.041 0.093
-0.001 -0.023 0.077
-0.005 -0.035 0.097
0.003 -0.029 0.103
-0.023 -0.039 0.101
-0.001 -0.031 0.103
-0.003 -0.025 0.105
0.007 -0.021 0.043
0.005 -0.015 0.041
0.009 -0.015 0.047
0.009 -0.017 0.049
0.019 -0.005 0.049
0.005 -0.021 0.063
0.023 -0.005 0.075
0.007 -0.011 0.087
0.009 -0.017 0.113
0.035 0.015 0.037
0.029 0.001 0.065
0.033 0.005 0.057
0.025 0.023 0.043
0.025 0.023 0.043
0.027 0.027 0.053
0.033 0.033 0.049
0.035 0.017 0.069
0.037 0.021 0.079
-0.039 -0.011 0.031
-0.017 0.005 0.035
-0.035 -0.025 0.061
-0.025 -0.005 0.035
-0.017 -0.019 0.063
-0.027 -0.009 0.049
-0.007 -0.011 0.063
-0.039 -0.027 0.095
-0.033 -0.029 0.067
-0.021 -0.021 0.079
-0.035 -0.025 0.087
-0.033 -0.023 0.095
-0.039 -0.025 0.085
-0.031 -0.021 0.083
-0.033 -0.023 0.095
-0.029 -0.025 0.101
-0.009 -0.021 0.109
0.007 0.001 0.063
0.009 0.027 0.063
-0.005 -0.005 0.069
-0.005 -0.011 0.087
0.011 0.009 0.087
0.001 -0.017 0.109
0.003 0.015 0.045
0.003 0.025 0.045
0.003 0.025 0.047
0.003 0.025 0.041
0.015 0.035 0.047
0.023 0.017 0.053
0.013 0.025 0.063
0.021 0.041 0.041
0.021 0.041 0.041
0.013 0.033 0.033
0.027 0.041 0.045
0.013 0.011 0.079
0.021 0.015 0.089
0.023 0.017 0.087
0.035 0.027 0.075
0.041 0.037 0.087
