-0.039 -0.009 0.045
-0.037 -0.007 0.045
-0.037 -0.007 0.037
-0.027 -0.007 0.045
-0.025 -0.007 0.047
-0.019 -0.013 0.053
-0.033 -0.007 0.045
-0.025 -0.007 0.045
-0.017 0.001 0.039
-0.019 0.001 0.037
-0.017 0.003 0.037
-0.011 0.001 0.047
-0.015 0.001 0.043
-0.015 0.003 0.039
-0.035 -0.023 0.057
-0.037 -0.029 0.059
-0.035 -0.029 0.063
-0.033 -0.031 0.065
-0.029 -0.021 0.063
-0.033 -0.017 0.055
-0.029 -0.015 0.057
-0.025 -0.017 0.059
-0.021 -0.015 0.055
-0.021 -0.019 0.063
-0.021 -0.019 0.061
-0.029 -0.021 0.067
-0.033 -0.025 0.065
-0.021 -0.017 0.073
-0.031 -0.021 0.063
-0.033 -0.023 0.061
-0.033 -0.023 0.061
-0.031 -0.023 0.065
-0.013 -0.019 0.057
-0.013 -0.021 0.059
-0.015 -0.017 0.055
-0.011 -0.017 0.057
-0.009 -0.013 0.061
-0.017 -0.017 0.071
-0.013 -0.017 0.069
-0.031 -0.031 0.069
-0.031 -0.031 0.069
-0.033 -0.021 0.083
-0.031 -0.031 0.069
-0.017 -0.017 0.079
-0.019 -0.015 0.085
-0.015 -0.015 0.077
-0.019 -0.015 0.085
-0.035 -0.023 0.049
-0.035 -0.021 0.053
-0.037 -0.009 0.045
-0.033 -0.011 0.045
-0.035 -0.021 0.053
-0.041 -0.007 0.041
-0.039 -0.007 0.041
-0.039 -0.007 0.039
-0.033 -0.011 0.045
-0.041 -0.007 0.043
-0.037 -0.023 0.053
-0.037 -0.025 0.055
-0.037 -0.027 0.059
-0.033 -0.021 0.057
-0.033 -0.017 0.055
-0.035 -0.025 0.059
-0.033 -0.027 0.067
-0.033 -0.025 0.063
-0.033 -0.025 0.065
-0.033 -0.021 0.059
-0.025 -0.011 0.053
-0.033 -0.009 0.045
-0.025 -0.009 0.051
-0.021 -0.009 0.051
-0.023 -0.007 0.049
-0.021 -0.007 0.049
-0.007 -0.009 0.067
-0.005 -0.013 0.065
-0.029 -0.005 0.043
-0.027 -0.007 0.045
-0.019 -0.005 0.047
-0.023 -0.005 0.047
-0.029 -0.005 0.041
-0.029 -0.005 0.037
-0.029 -0.005 0.043
-0.025 -0.005 0.043
-0.021 -0.001 0.039
-0.031 -0.005 0.045
-0.027 -0.005 0.045
-0.015 -0.005 0.047
-0.017 -0.003 0.043
-0.009 0.001 0.045
-0.003 -0.001 0.047
-0.015 -0.003 0.043
-0.003 -0.001 0.049
-0.005 -0.001 0.051
-0.005 -0.001 0.049
-0.003 -0.001 0.047
-0.029 -0.015 0.057
-0.017 -0.019 0.057
-0.031 -0.019 0.059
-0.029 -0.019 0.061
-0.031 -0.017 0.057
-0.025 -0.019 0.063
-0.023 -0.019 0.063
-0.009 -0.019 0.059
-0.015 -0.017 0.071
-0.005 -0.009 0.071
-0.007 -0.019 0.061
-0.011 -0.017 0.057
-0.017 -0.017 0.077
-0.013 -0.021 0.061
-0.009 -0.015 0.059
-0.009 -0.019 0.067
-0.007 -0.015 0.063
-0.029 -0.011 0.053
-0.031 -0.013 0.053
-0.025 -0.013 0.055
-0.025 -0.011 0.053
-0.017 -0.009 0.053
-0.017 -0.011 0.053
-0.017 -0.007 0.049
-0.013 -0.009 0.055
-0.011 -0.015 0.057
-0.005 -0.001 0.059
-0.007 -0.007 0.065
-0.041 -0.027 0.099
-0.047 -0.039 0.093
-0.047 -0.037 0.093
-0.043 -0.029 0.103
-0.039 -0.027 0.101
-0.037 -0.025 0.101
-0.023 -0.019 0.091
-0.019 -0.015 0.091
-0.015 -0.013 0.095
-0.027 -0.021 0.103
-0.027 -0.021 0.103
-0.021 -0.019 0.103
-0.025 -0.019 0.099
-0.023 -0.019 0.101
-0.021 -0.019 0.103
-0.025 -0.031 0.105
-0.027 -0.025 0.105
-0.031 -0.023 0.099
-0.017 -0.023 0.105
-0.015 -0.025 0.105
-0.011 -0.021 0.105
-0.049 -0.031 0.087
-0.045 -0.027 0.085
-0.041 -0.025 0.085
-0.033 -0.023 0.087
-0.033 -0.021 0.085
-0.037 -0.023 0.099
-0.035 -0.023 0.099
-0.031 -0.023 0.067
-0.027 -0.023 0.073
-0.025 -0.021 0.073
-0.025 -0.019 0.071
-0.019 -0.017 0.069
-0.021 -0.017 0.095
-0.023 -0.017 0.087
-0.017 -0.017 0.077
-0.023 -0.017 0.087
-0.019 -0.015 0.087
-0.019 -0.017 0.077
-0.019 -0.015 0.087
-0.015 -0.015 0.089
-0.013 -0.013 0.091
-0.011 -0.013 0.085
-0.011 -0.011 0.091
-0.011 -0.011 0.089
-0.011 -0.013 0.095
-0.009 -0.011 0.093
-0.009 -0.011 0.101
-0.007 -0.011 0.097
-0.007 -0.011 0.095
-0.005 -0.011 0.087
-0.007 -0.015 0.079
-0.003 -0.017 0.075
-0.005 -0.009 0.091
-0.005 -0.007 0.071
-0.005 -0.005 0.069
-0.001 -0.001 0.073
-0.001 -0.003 0.079
-0.001 -0.001 0.077
-0.029 -0.021 0.097
-0.027 -0.019 0.097
-0.019 -0.017 0.097
-0.031 -0.021 0.085
-0.031 -0.023 0.089
-0.029 -0.019 0.085
-0.023 -0.017 0.087
-0.023 -0.019 0.101
-0.019 -0.017 0.103
-0.023 -0.019 0.099
-0.021 -0.021 0.105
-0.021 -0.019 0.101
-0.031 -0.021 0.097
-0.027 -0.019 0.097
-0.025 -0.019 0.097
-0.025 -0.019 0.099
-0.025 -0.019 0.099
-0.021 -0.017 0.091
-0.023 -0.019 0.099
-0.023 -0.017 0.097
-0.021 -0.017 0.097
-0.017 -0.015 0.099
-0.007 -0.011 0.101
-0.013 -0.013 0.089
-0.003 -0.009 0.095
-0.005 -0.009 0.101
-0.009 -0.011 0.089
-0.007 -0.011 0.089
-0.037 -0.033 0.107
-0.039 -0.037 0.105
-0.033 -0.033 0.105
-0.035 -0.031 0.105
-0.043 -0.035 0.105
-0.039 -0.037 0.105
-0.031 -0.035 0.103
-0.029 -0.037 0.101
-0.021 -0.029 0.105
-0.019 -0.031 0.105
-0.019 -0.037 0.103
-0.017 -0.037 0.103
-0.009 -0.021 0.109
-0.007 -0.021 0.109
-0.007 -0.025 0.115
-0.039 -0.031 0.103
-0.043 -0.031 0.105
-0.029 -0.029 0.103
-0.023 -0.021 0.103
-0.021 -0.025 0.105
-0.019 -0.025 0.105
-0.007 -0.023 0.113
-0.009 -0.021 0.109
-0.009 -0.015 0.105
-0.001 -0.019 0.105
-0.005 -0.013 0.103
-0.005 -0.019 0.105
-0.009 -0.023 0.111
-0.015 -0.017 0.107
-0.013 -0.017 0.107
-0.005 -0.019 0.109
-0.003 -0.019 0.109
-0.007 -0.011 0.103
-0.001 -0.009 0.097
-0.007 -0.011 0.103
-0.007 -0.015 0.103
-0.011 -0.013 0.109
-0.005 -0.003 0.065
-0.003 -0.001 0.065
-0.003 -0.005 0.071
-0.005 -0.001 0.061
-0.001 -0.001 0.075
-0.003 -0.003 0.073
0.001 0.001 0.077
0.001 0.001 0.063
0.001 0.001 0.067
0.003 0.001 0.065
0.003 -0.001 0.053
0.017 0.017 0.071
0.017 0.017 0.075
0.015 0.009 0.063
0.017 0.013 0.067
0.017 0.013 0.069
0.017 0.017 0.071
0.019 0.019 0.079
0.017 0.017 0.077
-0.003 -0.007 0.073
0.001 -0.001 0.079
0.003 0.001 0.081
0.003 0.001 0.079
-0.003 -0.007 0.075
0.005 0.005 0.077
0.001 -0.001 0.051
0.001 0.001 0.059
0.003 0.001 0.061
0.009 -0.001 0.059
0.007 0.005 0.085
0.009 0.007 0.085
0.005 0.001 0.065
0.007 0.005 0.075
0.009 0.007 0.077
0.009 0.007 0.083
0.017 0.017 0.081
0.017 0.017 0.081
0.019 0.017 0.081
0.017 0.015 0.085
0.019 0.017 0.085
0.019 0.015 0.087
0.021 0.019 0.077
0.023 0.021 0.077
0.003 -0.005 0.083
0.001 -0.007 0.081
0.005 -0.003 0.087
0.005 -0.007 0.085
0.009 0.007 0.079
-0.001 -0.009 0.087
0.015 0.009 0.091
0.017 0.007 0.091
-0.003 -0.019 0.099
0.003 -0.025 0.093
-0.003 -0.013 0.101
0.001 -0.019 0.097
-0.001 -0.017 0.109
0.003 -0.025 0.095
-0.001 -0.009 0.101
0.001 -0.019 0.097
0.003 -0.011 0.085
0.001 -0.011 0.081
0.007 -0.007 0.089
0.007 -0.007 0.089
0.007 -0.009 0.089
0.009 -0.005 0.091
0.007 -0.011 0.089
0.011 -0.005 0.093
0.013 -0.003 0.093
0.011 -0.003 0.091
0.015 0.001 0.093
0.015 -0.001 0.095
0.017 0.001 0.095
0.019 -0.001 0.095
0.023 0.005 0.095
-0.001 -0.017 0.109
0.003 -0.029 0.103
0.001 -0.019 0.097
0.001 -0.017 0.109
0.003 -0.017 0.111
0.007 -0.017 0.113
-0.013 0.005 0.037
-0.015 0.005 0.035
-0.011 0.005 0.039
-0.017 0.005 0.035
-0.009 0.003 0.039
-0.015 0.005 0.035
-0.015 0.003 0.041
-0.005 0.013 0.039
-0.001 0.013 0.037
-0.007 0.015 0.037
-0.007 0.015 0.037
-0.001 0.001 0.061
0.009 0.027 0.063
0.013 0.033 0.045
0.023 0.035 0.057
0.023 0.037 0.057
0.015 0.037 0.043
0.017 0.039 0.045
0.025 0.035 0.061
0.005 0.023 0.061
0.005 0.027 0.061
0.005 0.007 0.047
0.007 0.009 0.049
0.009 0.005 0.049
0.009 0.007 0.049
0.005 0.019 0.051
0.007 0.025 0.063
0.019 0.015 0.051
0.025 0.017 0.051
0.021 0.019 0.063
0.013 0.027 0.055
0.023 0.027 0.051
0.023 0.021 0.077
0.027 0.019 0.057
0.029 0.019 0.057
0.003 0.029 0.055
0.003 0.027 0.047
0.005 0.031 0.055
0.005 0.031 0.055
0.005 0.031 0.055
0.013 0.035 0.043
0.009 0.027 0.039
0.007 0.029 0.045
0.003 0.027 0.055
0.003 0.027 0.055
0.011 0.029 0.059
0.005 0.031 0.053
0.007 0.031 0.053
0.015 0.029 0.047
0.017 0.023 0.045
0.019 0.023 0.047
0.023 0.029 0.053
0.023 0.033 0.059
0.023 0.033 0.059
0.025 0.037 0.059
0.025 0.039 0.053
0.027 0.039 0.057
0.021 0.021 0.047
0.023 0.027 0.051
0.023 0.025 0.049
0.023 0.031 0.059
0.023 0.031 0.055
0.021 0.029 0.051
0.021 0.027 0.049
0.023 0.035 0.059
0.023 0.037 0.057
0.023 0.035 0.059
0.011 0.005 0.055
0.005 0.013 0.049
0.007 0.017 0.053
0.011 0.021 0.069
0.001 0.001 0.061
0.001 0.001 0.065
0.023 0.021 0.073
0.023 0.021 0.073
0.013 0.023 0.065
0.025 0.021 0.065
0.025 0.021 0.067
0.015 0.013 0.079
0.027 0.021 0.073
0.005 0.023 0.055
0.005 0.023 0.061
0.009 0.025 0.065
0.007 0.025 0.063
0.007 0.025 0.063
0.005 0.029 0.059
0.005 0.029 0.057
0.009 0.031 0.057
0.007 0.021 0.061
0.005 0.023 0.061
0.011 0.025 0.063
0.009 0.023 0.065
0.007 0.025 0.063
0.013 0.027 0.061
0.011 0.025 0.063
0.021 0.019 0.061
0.019 0.031 0.051
0.029 0.021 0.061
0.029 0.021 0.067
0.025 0.021 0.067
0.029 0.025 0.069
0.029 0.029 0.069
0.027 0.027 0.063
0.025 0.031 0.061
0.029 0.029 0.067
0.025 0.021 0.065
0.025 0.021 0.067
0.027 0.029 0.065
0.025 0.031 0.061
0.027 0.021 0.065
0.025 0.021 0.071
0.027 0.035 0.061
0.027 0.037 0.061
0.027 0.037 0.059
0.027 0.033 0.063
0.029 0.021 0.079
0.031 0.031 0.067
0.035 0.031 0.069
0.021 0.041 0.049
0.025 0.041 0.051
0.029 0.041 0.049
0.029 0.041 0.049
0.023 0.041 0.047
0.025 0.041 0.047
0.019 0.037 0.051
0.035 0.033 0.065
0.001 0.001 0.069
0.009 0.001 0.067
0.003 0.003 0.077
0.007 0.005 0.081
0.013 0.011 0.085
0.021 0.017 0.087
0.025 0.017 0.087
0.017 0.013 0.089
0.017 0.015 0.085
0.023 0.011 0.091
0.025 0.011 0.093
0.015 0.015 0.081
0.013 0.019 0.073
0.019 0.019 0.073
0.021 0.019 0.075
0.019 0.019 0.079
0.021 0.019 0.079
0.029 0.019 0.081
0.027 0.021 0.079
0.029 0.021 0.079
0.031 0.025 0.073
0.009 0.005 0.087
0.013 0.011 0.083
0.011 0.009 0.087
0.013 0.001 0.091
0.023 0.007 0.095
0.017 0.005 0.091
0.017 0.001 0.095
0.021 0.005 0.095
0.023 0.011 0.091
0.025 0.011 0.093
0.027 0.013 0.091
0.023 0.017 0.085
0.025 0.017 0.087
0.029 0.017 0.087
0.027 0.017 0.087
0.029 0.015 0.089
0.033 0.019 0.085
0.033 0.019 0.083
0.035 0.031 0.083
0.035 0.031 0.069
0.037 0.029 0.069
0.033 0.021 0.081
0.037 0.029 0.075
0.039 0.037 0.087
0.031 0.017 0.089
0.033 0.011 0.087
0.033 0.025 0.085
0.033 0.027 0.087
0.037 0.031 0.089
0.037 0.033 0.085
0.037 0.031 0.089
0.039 0.031 0.087
0.039 0.029 0.087
0.041 0.033 0.087
0.037 0.029 0.089
0.033 0.033 0.067
0.039 0.035 0.087
0.041 0.037 0.087
