0.015 0.013 0.087
-0.033 -0.005 0.043
-0.029 -0.005 0.041
-0.031 -0.005 0.039
-0.011 -0.007 0.057
-0.013 -0.003 0.051
0.013 0.011 0.079
0.003 0.001 0.061
-0.029 -0.005 0.037
-0.023 -0.019 0.065
-0.023 -0.021 0.077
-0.029 -0.023 0.071
0.001 -0.009 0.081
0.003 -0.001 0.083
-0.019 -0.019 0.061
-0.015 -0.021 0.057
-0.017 -0.019 0.057
-0.021 -0.017 0.057
0.001 -0.001 0.079
-0.017 -0.017 0.071
-0.019 -0.017 0.067
-0.019 -0.017 0.069
-0.011 -0.021 0.063
0.007 0.001 0.089
0.009 0.007 0.087
0.011 0.007 0.089
0.015 0.011 0.089
0.005 0.001 0.085
0.009 0.001 0.089
0.015 0.011 0.089
-0.011 -0.013 0.085
-0.009 -0.011 0.087
-0.001 -0.009 0.089
-0.013 -0.013 0.087
-0.019 -0.015 0.085
-0.021 -0.019 0.077
-0.003 -0.009 0.089
0.001 -0.011 0.081
-0.027 -0.013 0.055
-0.029 -0.011 0.053
-0.033 -0.011 0.045
-0.029 -0.015 0.057
-0.035 -0.013 0.045
-0.031 -0.013 0.053
-0.037 -0.007 0.045
-0.041 -0.007 0.043
-0.041 -0.007 0.041
-0.039 -0.007 0.043
-0.033 -0.005 0.043
-0.039 -0.007 0.033
-0.039 -0.007 0.035
-0.033 -0.005 0.037
-0.033 -0.003 0.035
-0.031 -0.011 0.047
-0.031 -0.005 0.045
-0.031 -0.013 0.053
-0.031 -0.023 0.067
-0.033 -0.025 0.065
-0.011 -0.007 0.055
-0.023 -0.009 0.051
0.003 0.003 0.071
0.015 0.011 0.089
-0.027 -0.005 0.043
-0.021 -0.005 0.045
-0.021 -0.005 0.045
-0.023 -0.005 0.047
-0.019 -0.005 0.047
-0.017 -0.005 0.045
-0.017 0.001 0.039
-0.021 -0.003 0.043
0.011 0.021 0.071
-0.005 -0.003 0.039
0.011 0.021 0.071
-0.013 0.001 0.045
-0.009 -0.001 0.047
-0.003 -0.001 0.047
-0.007 -0.001 0.045
-0.001 -0.001 0.049
-0.031 -0.019 0.059
-0.019 -0.019 0.061
-0.001 -0.005 0.079
0.001 -0.005 0.081
-0.001 -0.003 0.079
-0.015 -0.017 0.055
-0.009 -0.019 0.067
-0.013 -0.021 0.059
-0.009 -0.019 0.067
-0.029 -0.011 0.053
-0.029 -0.013 0.055
-0.029 -0.013 0.055
-0.027 -0.011 0.053
-0.025 -0.011 0.053
-0.015 -0.009 0.053
-0.009 -0.001 0.051
-0.013 -0.007 0.055
-0.003 -0.001 0.051
-0.007 -0.001 0.053
-0.005 -0.001 0.053
-0.005 -0.001 0.055
-0.009 -0.005 0.059
0.003 0.001 0.081
-0.001 -0.001 0.077
-0.001 -0.001 0.073
-0.001 0.001 0.059
0.001 0.001 0.065
-0.033 -0.025 0.099
-0.029 -0.025 0.103
-0.033 -0.021 0.097
-0.033 -0.021 0.097
-0.027 -0.021 0.101
-0.031 -0.023 0.099
-0.025 -0.021 0.103
-0.025 -0.023 0.105
-0.035 -0.027 0.101
-0.027 -0.027 0.105
-0.011 -0.011 0.093
-0.019 -0.015 0.087
-0.015 -0.015 0.091
-0.015 -0.013 0.095
-0.009 -0.011 0.095
-0.003 -0.009 0.097
-0.001 -0.007 0.095
-0.003 -0.009 0.097
-0.003 -0.009 0.101
-0.013 -0.015 0.103
-0.013 -0.013 0.107
-0.017 -0.015 0.101
-0.007 -0.011 0.103
-0.007 -0.015 0.103
-0.025 -0.029 0.105
-0.023 -0.021 0.103
-0.019 -0.025 0.105
-0.017 -0.023 0.105
-0.021 -0.023 0.105
-0.019 -0.023 0.105
-0.015 -0.021 0.105
-0.003 -0.019 0.099
-0.005 -0.013 0.103
-0.001 -0.017 0.109
-0.041 -0.025 0.085
-0.039 -0.025 0.085
-0.045 -0.027 0.083
-0.045 -0.029 0.089
-0.033 -0.025 0.089
-0.037 -0.025 0.087
-0.031 -0.023 0.089
-0.035 -0.023 0.085
-0.037 -0.027 0.089
-0.033 -0.023 0.087
-0.031 -0.023 0.089
-0.045 -0.029 0.089
-0.027 -0.023 0.073
-0.025 -0.021 0.073
-0.019 -0.015 0.087
-0.013 -0.013 0.093
-0.019 -0.017 0.077
-0.001 -0.011 0.087
-0.001 -0.009 0.089
-0.001 -0.007 0.095
-0.003 -0.017 0.079
-0.009 -0.019 0.067
-0.015 -0.017 0.071
-0.005 -0.019 0.071
-0.007 -0.019 0.071
0.001 -0.017 0.085
0.001 -0.017 0.089
0.005 0.001 0.085
0.001 -0.001 0.081
0.001 -0.001 0.081
-0.023 -0.017 0.097
-0.021 -0.017 0.091
-0.009 -0.011 0.101
-0.009 -0.011 0.095
-0.011 -0.013 0.097
-0.011 -0.013 0.095
-0.007 -0.011 0.103
-0.029 -0.019 0.083
-0.031 -0.021 0.085
-0.029 -0.021 0.089
-0.017 -0.015 0.087
-0.019 -0.015 0.091
-0.023 -0.019 0.099
-0.017 -0.015 0.101
-0.017 -0.015 0.101
-0.001 -0.009 0.103
0.001 -0.009 0.101
0.001 -0.019 0.095
0.001 -0.019 0.093
0.001 -0.019 0.097
0.001 -0.025 0.093
0.001 -0.019 0.093
-0.001 -0.017 0.085
-0.001 -0.017 0.091
-0.013 -0.015 0.081
-0.011 -0.011 0.089
-0.011 -0.011 0.089
-0.011 -0.011 0.093
-0.011 -0.011 0.091
-0.013 -0.013 0.097
-0.009 -0.011 0.093
-0.003 -0.009 0.091
-0.001 -0.009 0.089
-0.039 -0.031 0.103
-0.035 -0.031 0.105
-0.033 -0.031 0.103
-0.031 -0.037 0.103
-0.037 -0.035 0.107
-0.035 -0.035 0.107
-0.021 -0.029 0.105
-0.021 -0.027 0.105
-0.021 -0.027 0.105
-0.023 -0.029 0.105
-0.023 -0.027 0.105
-0.021 -0.027 0.105
-0.017 -0.027 0.105
-0.017 -0.029 0.105
-0.009 -0.023 0.113
0.005 -0.019 0.111
-0.003 -0.031 0.107
-0.037 -0.025 0.101
-0.035 -0.031 0.105
-0.025 -0.021 0.103
-0.021 -0.017 0.099
-0.017 -0.015 0.099
-0.017 -0.017 0.105
-0.019 -0.029 0.105
-0.017 -0.025 0.105
-0.001 -0.021 0.109
0.003 -0.017 0.111
0.003 -0.019 0.111
-0.001 -0.017 0.109
0.001 -0.017 0.109
-0.007 -0.013 0.103
-0.001 -0.021 0.099
-0.003 -0.019 0.097
-0.009 -0.023 0.113
-0.001 -0.019 0.109
-0.013 -0.021 0.105
-0.009 -0.021 0.109
-0.009 -0.023 0.111
0.001 -0.017 0.109
-0.001 -0.019 0.109
0.001 -0.017 0.107
-0.017 -0.015 0.101
-0.013 -0.013 0.099
-0.013 -0.015 0.103
-0.003 -0.009 0.103
-0.007 -0.013 0.103
-0.007 -0.011 0.103
0.001 -0.009 0.103
-0.011 -0.013 0.109
-0.007 -0.023 0.115
0.019 0.013 0.089
0.021 0.015 0.089
0.019 0.017 0.085
0.023 0.017 0.087
0.017 0.017 0.081
0.019 0.017 0.085
0.019 0.017 0.085
0.023 0.017 0.087
0.023 0.017 0.087
0.023 0.021 0.069
0.019 0.019 0.079
0.019 0.019 0.073
0.039 0.029 0.087
0.043 0.035 0.085
0.037 0.031 0.089
0.027 0.021 0.079
0.037 0.031 0.089
0.043 0.035 0.087
0.041 0.033 0.087
0.015 0.011 0.089
0.017 0.009 0.091
0.019 0.013 0.089
0.021 0.015 0.089
0.021 0.015 0.089
0.019 0.007 0.093
0.013 0.007 0.091
0.015 0.007 0.091
0.021 0.013 0.089
0.021 0.017 0.085
0.007 -0.003 0.051
0.023 0.021 0.077
0.023 0.015 0.089
0.023 0.013 0.089
0.021 0.017 0.087
0.027 0.021 0.079
0.033 0.025 0.087
0.025 0.019 0.083
0.029 0.019 0.081
0.037 0.023 0.085
0.037 -0.005 0.037
0.037 -0.005 0.035
0.017 0.007 0.091
0.019 0.007 0.093
0.015 0.001 0.093
0.025 0.009 0.095
0.021 0.007 0.093
0.021 0.017 0.087
0.021 0.015 0.089
0.007 -0.001 0.089
0.023 0.007 0.095
0.015 -0.001 0.095
0.003 0.003 0.077
0.027 0.011 0.093
0.025 0.011 0.091
0.027 0.013 0.091
0.027 0.013 0.091
0.027 0.013 0.091
0.027 0.011 0.093
0.005 -0.009 0.087
0.001 -0.017 0.085
0.001 -0.017 0.085
0.005 -0.025 0.093
0.003 -0.025 0.095
0.007 -0.025 0.097
0.007 -0.003 0.089
0.019 0.001 0.095
0.017 -0.001 0.095
0.001 -0.007 0.095
0.011 0.001 0.091
0.023 0.005 0.095
0.021 0.003 0.095
0.023 0.003 0.095
0.031 0.003 0.087
0.019 0.001 0.095
0.023 0.005 0.095
0.007 -0.017 0.113
0.005 -0.015 0.109
0.003 -0.017 0.111
0.011 -0.015 0.113
-0.015 0.005 0.033
-0.019 0.001 0.037
-0.015 0.003 0.037
-0.009 0.003 0.039
0.007 0.029 0.061
0.009 0.027 0.063
0.003 0.029 0.053
0.005 0.029 0.061
-0.011 0.001 0.047
-0.001 0.001 0.057
-0.001 0.001 0.067
0.021 0.017 0.049
0.017 0.025 0.045
0.025 0.035 0.061
0.015 0.029 0.047
0.023 0.039 0.053
0.021 0.039 0.051
0.019 0.039 0.049
0.029 0.039 0.055
0.023 0.041 0.051
0.023 0.041 0.049
0.031 0.035 0.041
0.011 0.027 0.061
0.011 0.027 0.061
0.017 0.015 0.049
0.013 0.017 0.047
0.011 0.027 0.061
0.011 0.029 0.059
0.013 0.023 0.061
0.011 0.023 0.067
0.011 0.025 0.065
0.037 0.029 0.067
0.035 0.035 0.061
0.033 0.035 0.061
0.041 0.037 0.087
0.041 0.035 0.079
0.021 0.017 0.049
0.037 0.029 0.067
0.033 0.031 0.069
0.009 0.031 0.053
0.011 0.025 0.045
0.015 0.029 0.047
0.013 0.027 0.045
0.011 0.027 0.043
0.017 0.037 0.049
0.021 0.039 0.053
0.017 0.039 0.045
0.013 0.033 0.045
0.013 0.035 0.043
0.015 0.019 0.047
0.011 0.025 0.047
0.013 0.029 0.045
0.013 0.031 0.045
0.013 0.033 0.045
0.015 0.033 0.047
0.011 0.029 0.051
0.009 0.031 0.049
0.017 0.033 0.049
0.027 0.037 0.061
0.027 0.037 0.059
0.027 0.039 0.057
0.035 0.035 0.061
0.023 0.041 0.051
0.031 0.039 0.047
0.025 0.033 0.061
0.029 0.033 0.065
0.029 0.035 0.063
0.033 0.037 0.059
0.035 0.035 0.059
0.031 0.033 0.065
0.023 0.035 0.059
0.035 0.035 0.055
0.033 0.037 0.053
0.031 0.037 0.059
0.033 0.037 0.053
0.015 0.013 0.053
0.013 0.025 0.063
0.013 0.023 0.065
0.017 0.017 0.063
0.019 0.019 0.077
0.039 0.029 0.087
0.039 0.031 0.087
0.019 0.017 0.059
0.033 0.029 0.071
0.023 0.019 0.083
0.023 0.021 0.079
0.011 0.025 0.063
0.011 0.027 0.061
0.013 0.027 0.057
0.007 0.031 0.049
0.011 0.027 0.051
0.009 0.025 0.065
0.013 0.023 0.067
0.013 0.025 0.063
0.011 0.025 0.063
0.021 0.037 0.055
0.031 0.037 0.061
0.031 0.037 0.061
0.029 0.035 0.063
0.031 0.035 0.063
0.031 0.027 0.071
0.029 0.033 0.065
0.043 0.037 0.081
0.035 0.011 0.037
0.043 0.037 0.081
0.041 0.029 0.085
0.039 0.025 0.085
0.041 0.029 0.085
0.035 0.033 0.065
0.037 0.031 0.063
0.017 0.039 0.045
0.015 0.037 0.045
0.023 0.041 0.041
0.031 0.035 0.041
0.029 0.037 0.041
0.025 0.041 0.043
0.021 0.037 0.055
0.023 0.037 0.057
0.025 0.041 0.051
0.021 0.039 0.051
0.021 0.039 0.053
0.025 0.039 0.057
0.027 0.039 0.057
0.033 0.035 0.049
0.033 0.037 0.049
0.033 0.035 0.063
0.003 0.003 0.073
0.003 0.003 0.077
0.001 0.001 0.077
0.013 0.011 0.083
0.019 0.015 0.087
0.027 0.017 0.085
0.023 0.019 0.081
0.023 0.015 0.089
0.023 0.019 0.083
0.033 0.017 0.087
0.035 0.013 0.083
0.021 0.019 0.079
0.023 0.017 0.087
0.013 0.021 0.071
0.019 0.019 0.071
0.033 0.029 0.071
0.019 0.019 0.079
0.007 0.005 0.085
0.017 0.003 0.093
0.029 0.007 0.091
0.033 0.011 0.087
0.019 0.017 0.083
0.019 0.003 0.095
0.023 0.007 0.095
0.027 0.007 0.093
0.031 0.009 0.089
0.023 0.013 0.089
0.021 0.011 0.091
0.025 0.011 0.093
0.025 0.017 0.085
0.035 0.013 0.077
0.039 0.031 0.087
0.037 0.013 0.075
0.039 0.023 0.083
0.039 0.037 0.087
0.043 0.035 0.087
0.033 0.031 0.069
0.043 0.033 0.085
0.039 0.029 0.087
0.041 0.035 0.083
0.035 0.031 0.085
0.041 0.035 0.083
0.043 0.035 0.085
0.043 0.035 0.087
0.033 0.017 0.085
0.035 0.025 0.087
0.037 0.033 0.085
0.033 0.027 0.087
0.043 0.035 0.087
0.043 0.035 0.085
0.043 0.035 0.075
0.043 0.037 0.079
0.037 0.033 0.085
0.045 0.035 0.081
0.043 0.037 0.081
