0.011 -0.017 0.059
0.009 -0.019 0.057
0.009 -0.019 0.051
0.011 -0.015 0.053
0.009 -0.017 0.047
0.007 -0.023 0.041
0.005 -0.021 0.037
0.023 -0.003 0.059
0.001 -0.017 0.033
0.035 0.007 0.079
0.035 0.007 0.073
0.015 -0.013 0.083
0.001 -0.021 0.085
-0.015 -0.045 0.039
-0.007 -0.037 0.047
-0.009 -0.037 0.051
-0.007 -0.035 0.049
-0.005 -0.027 0.051
0.007 -0.021 0.061
-0.011 -0.031 0.053
-0.005 -0.031 0.045
0.007 -0.021 0.061
0.001 -0.025 0.051
-0.015 -0.035 0.057
-0.009 -0.037 0.051
-0.007 -0.035 0.049
-0.013 -0.031 0.055
-0.007 -0.037 0.043
0.005 -0.025 0.053
0.005 -0.025 0.049
-0.005 -0.035 0.045
-0.007 -0.035 0.047
-0.007 -0.037 0.049
-0.003 -0.033 0.043
-0.007 -0.033 0.047
-0.015 -0.039 0.055
-0.015 -0.039 0.055
-0.005 -0.027 0.071
-0.007 -0.031 0.075
-0.001 -0.027 0.081
0.001 -0.023 0.087
-0.011 -0.031 0.065
-0.009 -0.039 0.051
-0.007 -0.037 0.049
-0.007 -0.037 0.049
0.027 -0.003 0.085
0.027 -0.001 0.087
0.033 0.007 0.087
0.031 0.003 0.087
0.029 0.003 0.089
0.025 0.001 0.091
0.031 0.013 0.089
0.031 0.017 0.089
0.031 0.017 0.089
0.029 0.011 0.093
0.027 0.007 0.093
0.027 0.009 0.093
0.027 0.011 0.093
0.029 0.015 0.089
0.019 -0.005 0.091
0.019 -0.001 0.095
0.019 -0.001 0.095
0.015 -0.009 0.063
0.031 0.003 0.083
0.033 0.005 0.085
0.015 -0.007 0.063
0.033 0.003 0.077
0.005 -0.027 0.043
0.005 -0.027 0.043
0.005 -0.023 0.051
0.033 0.011 0.085
0.033 0.011 0.085
0.033 0.011 0.087
0.035 0.007 0.079
0.035 0.009 0.077
0.033 0.017 0.087
0.035 0.013 0.079
0.035 0.017 0.081
0.029 0.011 0.093
0.029 0.011 0.093
0.029 0.013 0.091
0.033 0.015 0.085
0.033 0.003 0.073
0.035 0.009 0.075
0.035 0.009 0.075
0.031 0.001 0.063
0.037 0.011 0.075
0.035 0.015 0.075
0.037 0.011 0.075
0.037 0.013 0.075
0.035 0.015 0.081
0.035 0.015 0.081
0.035 0.013 0.081
0.019 -0.001 0.095
0.017 -0.013 0.075
0.013 -0.017 0.067
0.021 -0.009 0.081
0.017 -0.013 0.071
0.021 -0.009 0.077
0.013 -0.015 0.077
-0.007 -0.027 0.069
0.023 -0.007 0.087
0.025 -0.005 0.085
0.025 0.005 0.093
0.025 0.007 0.095
0.027 0.007 0.093
0.027 0.003 0.091
0.031 0.007 0.089
0.033 0.009 0.087
0.033 0.015 0.085
0.033 0.013 0.085
0.029 0.005 0.089
0.027 -0.001 0.087
0.027 -0.001 0.089
0.031 0.007 0.089
0.033 0.011 0.087
0.031 0.009 0.089
-0.007 -0.029 0.103
-0.007 -0.027 0.107
-0.005 -0.025 0.109
-0.005 -0.029 0.103
-0.009 -0.021 0.107
-0.003 -0.025 0.107
-0.017 -0.033 0.105
-0.019 -0.021 0.105
-0.003 -0.023 0.109
-0.001 -0.023 0.109
0.003 -0.025 0.087
0.001 -0.023 0.087
-0.001 -0.027 0.081
-0.007 -0.031 0.075
0.003 -0.025 0.089
-0.001 -0.027 0.083
-0.003 -0.029 0.079
0.001 -0.025 0.097
0.003 -0.025 0.095
-0.005 -0.029 0.103
-0.005 -0.025 0.109
-0.001 -0.025 0.099
-0.001 -0.027 0.101
-0.003 -0.031 0.107
-0.001 -0.031 0.107
0.005 -0.027 0.103
0.005 -0.027 0.099
-0.001 -0.029 0.103
0.007 -0.029 0.103
-0.005 -0.013 0.103
-0.013 -0.019 0.105
-0.009 -0.015 0.105
-0.001 -0.017 0.107
-0.011 -0.017 0.105
-0.001 -0.009 0.103
-0.003 -0.009 0.103
-0.005 -0.013 0.103
-0.001 -0.017 0.109
-0.011 -0.015 0.109
0.001 -0.017 0.091
0.001 -0.019 0.093
-0.003 -0.015 0.089
-0.001 -0.011 0.089
-0.001 -0.011 0.087
0.013 -0.005 0.093
0.001 -0.019 0.093
0.001 -0.021 0.091
0.001 -0.021 0.093
-0.007 -0.029 0.069
0.019 -0.009 0.087
0.015 -0.007 0.089
0.017 -0.005 0.091
-0.001 -0.027 0.081
0.001 -0.023 0.083
0.013 -0.011 0.087
0.013 -0.011 0.087
0.019 -0.009 0.087
-0.001 -0.023 0.077
0.009 -0.011 0.087
0.027 0.001 0.089
0.023 -0.005 0.089
0.025 0.001 0.091
0.029 0.007 0.091
0.029 0.011 0.091
0.027 0.007 0.093
0.027 0.007 0.093
0.013 -0.005 0.093
0.011 -0.005 0.093
-0.001 -0.011 0.087
0.019 -0.007 0.089
0.021 -0.003 0.091
0.013 -0.007 0.093
0.001 -0.021 0.095
-0.001 -0.009 0.103
-0.003 -0.015 0.097
0.013 -0.015 0.113
0.013 -0.015 0.113
-0.009 -0.015 0.107
-0.005 -0.015 0.101
0.007 -0.027 0.089
0.005 -0.027 0.089
0.009 -0.027 0.095
0.009 -0.027 0.101
-0.001 -0.017 0.091
-0.001 -0.009 0.089
-0.001 -0.011 0.089
-0.001 -0.011 0.089
-0.001 -0.009 0.097
-0.001 -0.009 0.101
-0.003 -0.009 0.091
0.001 -0.007 0.095
-0.033 -0.041 0.101
-0.027 -0.033 0.105
-0.007 -0.025 0.115
-0.031 -0.035 0.103
-0.029 -0.031 0.105
-0.041 -0.033 0.105
-0.015 -0.035 0.105
-0.005 -0.025 0.115
-0.005 -0.023 0.115
-0.001 -0.031 0.105
-0.001 -0.029 0.103
-0.003 -0.031 0.107
-0.011 -0.031 0.105
-0.013 -0.031 0.105
-0.003 -0.033 0.109
-0.023 -0.023 0.105
-0.025 -0.021 0.103
-0.037 -0.023 0.099
-0.027 -0.025 0.105
-0.027 -0.029 0.105
-0.037 -0.025 0.101
-0.037 -0.025 0.101
-0.021 -0.023 0.105
-0.011 -0.015 0.109
-0.009 -0.015 0.109
-0.025 -0.027 0.105
-0.021 -0.021 0.105
-0.019 -0.023 0.105
-0.017 -0.023 0.105
-0.001 -0.023 0.109
0.001 -0.025 0.097
-0.001 -0.029 0.103
0.005 -0.021 0.109
0.011 -0.017 0.113
-0.001 -0.017 0.109
-0.005 -0.031 0.105
-0.011 -0.017 0.107
-0.009 -0.015 0.109
0.009 -0.015 0.113
0.011 -0.017 0.113
-0.005 -0.019 0.109
0.001 -0.009 0.103
-0.007 -0.013 0.103
-0.003 -0.013 0.101
-0.003 -0.011 0.103
-0.009 -0.015 0.107
-0.011 -0.013 0.109
0.003 -0.031 0.037
0.007 -0.027 0.035
0.007 -0.023 0.039
0.007 -0.025 0.037
0.007 -0.025 0.039
0.001 -0.019 0.033
0.005 -0.015 0.039
0.005 -0.021 0.037
0.009 -0.017 0.047
0.007 -0.021 0.049
0.007 -0.015 0.043
0.033 0.005 0.069
0.033 0.005 0.059
0.033 0.007 0.059
0.035 0.009 0.067
0.033 0.005 0.061
0.033 -0.007 0.041
0.031 -0.005 0.041
0.029 -0.005 0.043
0.029 -0.007 0.045
0.007 -0.021 0.053
0.011 -0.017 0.057
0.013 -0.017 0.065
0.013 -0.015 0.061
0.013 -0.015 0.057
0.011 -0.017 0.057
0.017 -0.013 0.075
0.011 -0.011 0.051
0.035 0.005 0.073
0.035 0.007 0.079
0.015 -0.013 0.061
0.033 0.003 0.077
0.033 0.005 0.079
0.031 0.001 0.063
0.033 0.003 0.067
0.031 0.001 0.055
0.029 -0.001 0.055
0.031 0.001 0.059
0.035 0.005 0.073
0.031 0.001 0.063
0.037 -0.005 0.035
0.035 -0.001 0.035
0.017 -0.013 0.075
0.019 -0.011 0.081
0.017 -0.013 0.079
0.017 -0.013 0.079
0.023 -0.005 0.089
0.017 -0.013 0.075
0.033 0.003 0.081
0.033 0.007 0.085
0.033 0.005 0.085
0.019 -0.009 0.087
0.019 -0.007 0.089
0.021 -0.003 0.091
0.021 -0.009 0.085
0.021 -0.009 0.083
0.021 -0.009 0.083
0.023 0.005 0.095
0.017 -0.009 0.067
0.017 -0.013 0.069
0.019 -0.011 0.079
0.031 0.001 0.081
0.033 0.005 0.083
0.001 -0.019 0.087
0.007 -0.027 0.089
0.009 -0.027 0.101
0.007 -0.027 0.093
0.013 -0.009 0.089
0.015 -0.009 0.087
0.017 -0.005 0.091
0.017 -0.005 0.091
0.019 -0.001 0.095
0.025 -0.003 0.089
0.027 -0.001 0.087
0.027 -0.001 0.089
0.009 -0.027 0.103
0.011 -0.015 0.111
0.013 -0.015 0.113
0.035 0.019 0.081
0.039 0.021 0.079
0.039 0.021 0.075
0.039 0.023 0.071
0.041 0.023 0.077
0.043 0.031 0.077
0.031 0.009 0.049
0.033 0.007 0.041
0.033 0.011 0.043
0.033 0.011 0.039
0.033 0.015 0.041
0.033 0.013 0.039
0.031 0.037 0.043
0.033 0.015 0.061
0.033 0.011 0.057
0.033 0.013 0.061
0.037 0.025 0.065
0.037 0.025 0.063
0.037 0.021 0.069
0.031 0.017 0.059
0.035 0.017 0.067
0.035 0.013 0.065
0.033 0.011 0.041
0.035 0.009 0.039
0.033 0.005 0.047
0.033 0.005 0.045
0.031 0.013 0.045
0.025 0.017 0.045
0.033 0.015 0.041
0.033 0.003 0.043
0.033 0.005 0.049
0.031 0.013 0.045
0.031 0.009 0.049
0.031 0.009 0.047
0.037 0.029 0.061
0.037 0.031 0.063
0.037 0.031 0.065
0.025 0.023 0.043
0.035 0.033 0.061
0.035 0.033 0.065
0.035 0.031 0.053
0.035 0.033 0.061
0.043 0.033 0.079
0.043 0.035 0.075
0.043 0.037 0.079
0.035 0.033 0.065
0.035 0.035 0.061
0.031 0.027 0.043
0.033 0.021 0.039
0.031 0.025 0.041
0.033 0.033 0.049
0.033 0.029 0.037
0.031 0.031 0.035
0.037 0.027 0.061
0.029 0.023 0.043
0.031 0.027 0.043
0.035 0.031 0.055
0.035 0.031 0.053
0.035 0.019 0.073
0.041 0.023 0.079
0.035 0.019 0.073
0.039 0.021 0.073
0.035 0.017 0.075
0.035 0.011 0.077
0.035 0.009 0.077
0.035 0.015 0.077
0.035 0.015 0.079
0.035 0.017 0.079
0.031 0.005 0.053
0.031 0.009 0.053
0.031 0.007 0.051
0.033 0.005 0.057
0.031 0.005 0.053
0.033 0.007 0.057
0.039 0.023 0.069
0.033 0.013 0.059
0.029 0.015 0.055
0.035 0.007 0.077
0.035 0.007 0.071
0.033 0.005 0.063
0.043 0.033 0.083
0.043 0.029 0.081
0.043 0.029 0.077
0.043 0.031 0.077
0.043 0.031 0.079
0.041 0.031 0.085
0.039 0.031 0.087
0.041 0.029 0.083
0.039 0.037 0.087
0.041 0.033 0.087
0.025 0.017 0.051
0.035 0.033 0.059
0.035 0.031 0.053
0.033 0.019 0.063
0.039 0.023 0.073
0.039 0.025 0.069
0.035 0.003 0.041
0.035 0.007 0.039
0.033 0.011 0.039
0.035 0.019 0.037
0.033 0.013 0.061
0.037 0.027 0.063
0.037 0.031 0.063
0.031 0.039 0.053
0.031 0.039 0.057
0.027 0.041 0.045
0.031 0.037 0.043
0.031 0.035 0.043
0.031 0.039 0.049
0.023 0.041 0.045
0.023 0.041 0.049
0.025 0.041 0.047
0.031 0.037 0.061
0.027 0.039 0.057
0.025 0.039 0.057
0.031 0.037 0.059
0.025 0.009 0.095
0.029 0.011 0.091
0.029 0.011 0.093
0.035 0.009 0.077
0.035 0.011 0.079
0.035 0.011 0.081
0.035 0.005 0.073
0.035 0.005 0.073
0.033 0.011 0.087
0.033 0.013 0.085
0.035 0.007 0.079
0.033 0.005 0.081
0.037 0.031 0.089
0.039 0.029 0.087
0.023 0.021 0.079
0.033 0.027 0.087
0.037 0.023 0.085
0.039 0.025 0.085
0.041 0.025 0.075
0.041 0.025 0.077
0.041 0.025 0.077
0.043 0.029 0.077
0.043 0.033 0.077
0.043 0.029 0.081
0.037 0.023 0.085
0.023 0.019 0.081
0.027 0.019 0.081
0.041 0.029 0.083
0.017 0.009 0.091
0.019 0.003 0.095
0.021 0.005 0.095
0.015 0.009 0.091
0.031 0.003 0.085
0.031 0.005 0.087
0.025 0.007 0.095
0.029 0.003 0.089
0.027 0.005 0.091
0.019 0.011 0.091
0.031 0.013 0.089
0.037 0.011 0.069
0.035 0.005 0.073
0.035 0.007 0.075
0.033 0.005 0.079
0.037 0.013 0.073
0.039 0.021 0.073
0.041 0.025 0.075
0.039 0.025 0.069
0.041 0.023 0.079
0.039 0.021 0.079
0.039 0.023 0.081
0.041 0.025 0.081
0.043 0.029 0.081
0.035 0.013 0.081
0.035 0.013 0.083
0.033 0.009 0.087
0.033 0.013 0.085
0.033 0.015 0.087
0.039 0.023 0.083
0.039 0.027 0.085
0.039 0.031 0.087
0.043 0.031 0.083
0.045 0.035 0.081
0.043 0.037 0.079
