-0.007 -0.037 0.033
-0.013 -0.031 0.031
0.001 -0.033 0.031
0.005 -0.029 0.033
-0.033 -0.039 0.041
-0.021 -0.051 0.037
-0.017 -0.051 0.035
-0.015 -0.049 0.037
-0.015 -0.043 0.037
-0.017 -0.043 0.041
-0.015 -0.043 0.037
-0.029 -0.041 0.055
-0.025 -0.041 0.055
-0.015 -0.045 0.037
-0.015 -0.043 0.035
-0.013 -0.043 0.039
-0.011 -0.041 0.039
-0.013 -0.041 0.043
-0.009 -0.039 0.047
-0.019 -0.043 0.051
-0.019 -0.041 0.053
-0.013 -0.041 0.053
-0.005 -0.037 0.035
-0.007 -0.039 0.035
-0.003 -0.035 0.035
-0.001 -0.033 0.039
0.003 -0.033 0.035
0.005 -0.029 0.033
-0.001 -0.027 0.045
-0.007 -0.037 0.039
-0.003 -0.029 0.043
0.005 -0.027 0.043
0.005 -0.029 0.035
0.007 -0.027 0.037
-0.013 -0.025 0.055
-0.013 -0.031 0.059
-0.013 -0.031 0.059
-0.011 -0.031 0.053
-0.009 -0.021 0.055
-0.013 -0.029 0.057
-0.013 -0.031 0.061
-0.007 -0.029 0.051
-0.013 -0.027 0.055
-0.005 -0.023 0.055
0.011 -0.017 0.053
-0.031 -0.039 0.087
-0.023 -0.039 0.083
-0.021 -0.037 0.089
-0.023 -0.041 0.095
-0.023 -0.041 0.093
-0.019 -0.039 0.095
-0.009 -0.033 0.085
-0.011 -0.035 0.087
-0.037 -0.043 0.083
-0.033 -0.041 0.085
-0.027 -0.039 0.083
-0.023 -0.041 0.093
-0.023 -0.037 0.067
-0.011 -0.031 0.065
-0.011 -0.033 0.069
-0.011 -0.033 0.071
-0.011 -0.033 0.075
-0.007 -0.025 0.067
-0.003 -0.021 0.071
-0.011 -0.033 0.073
-0.005 -0.029 0.073
-0.005 -0.029 0.075
-0.007 -0.031 0.081
-0.009 -0.033 0.085
-0.013 -0.035 0.089
-0.011 -0.035 0.089
-0.011 -0.035 0.089
0.001 -0.023 0.083
-0.037 -0.043 0.103
-0.035 -0.037 0.107
-0.023 -0.039 0.101
-0.031 -0.035 0.103
-0.019 -0.039 0.101
-0.017 -0.037 0.103
-0.007 -0.035 0.103
-0.001 -0.033 0.097
-0.023 -0.041 0.095
-0.025 -0.039 0.097
-0.019 -0.037 0.097
-0.019 -0.037 0.103
-0.001 -0.033 0.101
-0.007 -0.035 0.103
0.003 -0.031 0.101
0.007 -0.025 0.037
0.007 -0.013 0.045
0.015 -0.005 0.041
0.031 -0.007 0.037
0.023 -0.009 0.043
0.011 -0.017 0.055
0.003 -0.021 0.059
0.009 -0.019 0.057
0.013 -0.011 0.057
0.013 -0.011 0.057
0.013 -0.011 0.059
0.023 -0.005 0.053
0.035 -0.007 0.035
0.015 -0.015 0.071
0.015 -0.013 0.065
0.015 -0.011 0.065
0.017 -0.011 0.067
0.019 -0.005 0.071
0.027 -0.003 0.079
0.007 -0.029 0.087
0.003 -0.031 0.091
0.007 -0.013 0.081
0.019 -0.009 0.087
0.005 -0.029 0.099
0.003 -0.021 0.107
0.001 0.005 0.037
0.017 -0.001 0.033
0.019 0.003 0.031
0.035 -0.007 0.033
0.035 0.015 0.031
0.003 0.005 0.039
0.011 -0.001 0.037
0.013 -0.003 0.039
0.023 -0.001 0.035
0.015 -0.005 0.045
0.019 -0.005 0.047
0.035 -0.005 0.037
0.033 -0.007 0.035
0.031 -0.007 0.037
0.033 -0.007 0.041
0.029 -0.001 0.047
0.031 0.003 0.049
0.035 -0.007 0.035
0.035 -0.005 0.037
0.029 0.029 0.045
0.013 -0.003 0.049
0.019 -0.005 0.049
0.021 -0.005 0.049
0.013 -0.015 0.059
0.031 0.005 0.055
0.031 0.001 0.055
0.033 0.005 0.049
0.025 -0.001 0.063
0.027 -0.003 0.055
0.029 -0.001 0.051
0.029 0.001 0.053
0.031 0.001 0.055
0.029 -0.001 0.059
0.031 0.001 0.057
0.023 0.025 0.049
0.031 0.001 0.059
0.033 0.009 0.057
0.033 0.007 0.061
0.035 0.009 0.061
0.033 0.015 0.061
0.035 0.027 0.059
0.033 0.033 0.047
0.023 0.025 0.049
0.029 0.029 0.051
0.035 0.031 0.053
0.035 0.031 0.055
0.025 -0.005 0.079
0.021 0.003 0.067
0.023 0.001 0.065
0.025 0.001 0.065
0.029 0.001 0.079
0.021 -0.009 0.081
0.021 -0.007 0.087
0.019 -0.005 0.091
0.023 0.003 0.095
0.029 0.007 0.091
0.029 0.011 0.091
0.033 0.003 0.081
0.031 0.001 0.085
0.035 0.015 0.067
0.037 0.029 0.065
0.035 0.017 0.075
0.035 0.017 0.077
0.037 0.021 0.077
0.033 0.003 0.081
0.033 0.005 0.083
0.037 0.021 0.081
0.039 0.023 0.081
-0.029 -0.003 0.035
-0.031 -0.003 0.035
-0.023 -0.001 0.037
-0.023 -0.001 0.035
-0.035 -0.031 0.061
-0.035 -0.029 0.063
-0.037 -0.035 0.043
-0.037 -0.033 0.043
-0.037 -0.029 0.039
-0.035 -0.037 0.041
-0.037 -0.033 0.041
-0.037 -0.031 0.039
-0.039 -0.017 0.039
-0.043 -0.009 0.043
-0.037 -0.011 0.045
-0.037 -0.035 0.051
-0.031 -0.019 0.057
-0.037 -0.027 0.039
-0.041 -0.009 0.035
-0.037 -0.007 0.035
-0.037 -0.007 0.045
-0.039 -0.029 0.049
-0.035 -0.023 0.055
-0.033 -0.019 0.055
-0.037 -0.027 0.057
-0.035 -0.027 0.061
-0.041 -0.009 0.037
-0.029 -0.011 0.049
-0.017 -0.003 0.043
-0.023 -0.001 0.035
-0.021 0.001 0.037
-0.011 0.001 0.047
-0.003 -0.001 0.045
-0.031 -0.019 0.059
-0.027 -0.017 0.059
-0.023 -0.017 0.061
-0.029 -0.015 0.057
-0.021 -0.019 0.063
-0.029 -0.015 0.057
-0.013 -0.003 0.049
-0.005 -0.001 0.057
-0.045 -0.027 0.085
-0.047 -0.027 0.085
-0.047 -0.031 0.089
-0.021 -0.027 0.079
-0.047 -0.027 0.083
-0.041 -0.029 0.089
-0.039 -0.025 0.097
-0.025 -0.029 0.091
-0.033 -0.027 0.067
-0.049 -0.031 0.085
-0.037 -0.025 0.095
-0.021 -0.019 0.065
-0.021 -0.017 0.067
-0.023 -0.025 0.077
-0.023 -0.019 0.073
-0.023 -0.019 0.073
-0.003 -0.001 0.069
-0.031 -0.021 0.087
-0.025 -0.019 0.087
-0.033 -0.023 0.095
-0.025 -0.019 0.091
-0.019 -0.017 0.093
-0.013 -0.013 0.097
-0.013 -0.013 0.095
-0.003 -0.009 0.087
-0.039 -0.037 0.099
-0.039 -0.037 0.099
-0.043 -0.029 0.101
-0.037 -0.027 0.101
-0.029 -0.027 0.103
-0.027 -0.021 0.103
-0.039 -0.025 0.097
-0.039 -0.025 0.099
-0.021 -0.021 0.105
-0.019 -0.017 0.103
-0.015 -0.015 0.103
-0.021 -0.021 0.105
-0.017 -0.017 0.105
-0.005 -0.009 0.101
-0.027 -0.009 0.051
0.011 0.001 0.049
0.007 0.005 0.047
-0.007 -0.007 0.061
-0.005 -0.003 0.067
0.003 -0.001 0.055
0.011 0.001 0.053
-0.003 -0.001 0.063
-0.005 -0.003 0.067
-0.001 0.001 0.065
0.003 0.001 0.063
0.015 0.003 0.061
0.015 0.007 0.061
0.015 0.005 0.063
0.003 0.013 0.043
0.005 0.017 0.043
0.005 0.003 0.075
-0.017 -0.015 0.091
-0.013 -0.013 0.097
0.001 -0.013 0.081
0.009 -0.009 0.091
0.011 0.001 0.091
0.017 0.001 0.095
-0.017 -0.015 0.099
-0.013 -0.013 0.101
-0.011 -0.013 0.103
0.001 -0.017 0.107
0.003 -0.017 0.111
-0.019 0.003 0.035
-0.009 0.013 0.035
-0.003 0.011 0.039
-0.003 0.017 0.033
-0.001 0.001 0.065
-0.003 0.009 0.039
0.001 0.009 0.039
0.001 0.019 0.037
0.003 0.017 0.045
0.005 0.019 0.043
0.003 0.023 0.041
0.005 0.019 0.051
0.003 0.023 0.035
0.005 0.025 0.035
0.009 0.027 0.039
0.003 0.027 0.043
0.009 0.025 0.035
0.011 0.027 0.035
0.009 0.027 0.037
0.013 0.035 0.037
0.003 0.029 0.047
0.013 0.033 0.045
0.013 0.011 0.055
0.005 0.021 0.057
0.005 0.025 0.057
0.003 0.027 0.055
0.005 0.031 0.053
0.007 0.031 0.051
0.005 0.031 0.055
0.005 0.023 0.061
0.027 0.029 0.063
0.003 0.027 0.047
0.011 0.029 0.043
0.017 0.035 0.033
0.019 0.039 0.039
0.019 0.041 0.043
0.021 0.035 0.053
0.025 0.039 0.057
0.007 0.003 0.071
0.011 0.001 0.069
0.017 0.007 0.073
0.017 0.009 0.071
0.007 0.003 0.085
0.007 0.001 0.087
0.007 0.001 0.089
0.013 0.007 0.091
0.019 0.017 0.085
0.025 0.015 0.089
0.019 0.017 0.085
0.023 0.021 0.071
0.021 0.019 0.075
0.023 0.021 0.075
0.039 0.031 0.073
0.037 0.031 0.079
0.039 0.033 0.087
0.037 0.033 0.081
-0.001 -0.001 0.051
0.033 0.029 0.071
0.035 0.033 0.065
0.017 0.017 0.079
0.039 0.025 0.085
0.041 0.031 0.085
0.041 0.027 0.081
0.041 0.025 0.079
0.045 0.035 0.081
0.035 0.011 0.065
0.031 0.017 0.087
0.029 0.017 0.087
0.031 0.017 0.089
0.027 0.013 0.091
-0.027 -0.009 0.051
-0.029 -0.005 0.041
-0.039 -0.009 0.045
-0.023 -0.017 0.059
0.013 0.023 0.065
0.011 0.025 0.065
0.013 0.021 0.063
0.013 0.023 0.061
0.041 0.023 0.077
0.005 0.029 0.059
0.009 0.029 0.061
-0.025 -0.003 0.041
0.013 0.019 0.061
-0.023 -0.017 0.059
0.041 0.029 0.085
0.019 0.019 0.079
0.033 0.025 0.087
0.025 0.017 0.087
0.029 0.017 0.085
-0.025 -0.009 0.051
-0.027 -0.011 0.053
0.013 0.017 0.073
0.013 0.019 0.065
0.019 0.019 0.065
0.013 0.017 0.073
0.019 0.019 0.079
0.013 0.019 0.073
-0.005 -0.009 0.101
-0.023 -0.017 0.097
-0.009 -0.011 0.101
-0.007 -0.011 0.103
0.019 0.009 0.091
0.027 0.013 0.091
-0.001 -0.009 0.097
-0.003 -0.009 0.101
0.001 -0.009 0.101
-0.005 -0.019 0.105
-0.009 -0.019 0.103
-0.007 -0.015 0.103
-0.001 -0.011 0.103
-0.001 -0.017 0.091
0.001 -0.019 0.095
0.003 -0.027 0.097
-0.023 -0.017 0.087
-0.025 -0.019 0.069
-0.023 -0.019 0.067
-0.001 -0.001 0.077
0.029 0.017 0.087
0.017 0.001 0.095
-0.023 -0.017 0.087
-0.027 -0.019 0.089
-0.025 -0.019 0.087
-0.023 -0.019 0.091
-0.021 -0.017 0.097
0.021 0.001 0.095
-0.001 -0.017 0.091
-0.003 -0.013 0.089
-0.011 -0.013 0.109
-0.009 -0.015 0.107
-0.003 -0.019 0.107
-0.001 -0.017 0.109
-0.009 -0.021 0.109
-0.023 -0.023 0.105
-0.009 -0.015 0.109
-0.003 -0.011 0.103
-0.007 -0.023 0.111
-0.001 -0.017 0.107
0.007 -0.015 0.109
-0.001 -0.011 0.099
-0.001 -0.009 0.101
-0.011 -0.013 0.109
0.035 0.009 0.065
0.035 0.009 0.061
0.035 0.011 0.067
0.033 0.015 0.061
0.037 0.025 0.065
0.037 0.025 0.065
0.031 0.003 0.051
0.031 0.007 0.051
0.031 0.007 0.051
0.035 0.015 0.079
0.035 0.015 0.079
0.035 0.013 0.081
0.035 -0.001 0.035
0.019 0.017 0.085
0.019 0.015 0.087
0.035 0.011 0.081
0.035 0.009 0.083
0.035 0.009 0.083
0.001 -0.021 0.089
0.005 -0.025 0.095
0.025 0.007 0.095
0.011 0.029 0.051
0.031 0.023 0.041
0.031 0.039 0.051
0.035 0.023 0.035
0.033 0.037 0.059
0.031 0.039 0.057
0.031 0.039 0.053
0.033 0.031 0.049
0.031 0.009 0.049
0.031 0.039 0.055
0.023 0.041 0.045
0.027 0.039 0.057
0.029 0.037 0.059
0.031 0.037 0.059
0.031 0.037 0.061
0.033 0.035 0.047
0.031 0.023 0.041
0.031 0.031 0.035
0.043 0.035 0.075
0.031 0.029 0.069
0.029 0.027 0.069
0.025 0.037 0.059
0.013 0.025 0.057
0.013 0.023 0.061
0.011 0.025 0.065
0.011 0.027 0.061
0.033 0.029 0.071
0.037 0.029 0.069
0.033 0.035 0.063
0.035 0.031 0.069
0.035 0.011 0.061
0.037 0.031 0.063
0.023 0.041 0.051
0.025 0.037 0.037
0.023 0.041 0.041
0.021 0.041 0.045
0.017 0.039 0.045
0.023 0.041 0.045
0.025 0.039 0.055
0.037 0.031 0.089
0.039 0.029 0.087
0.007 0.005 0.079
0.037 0.031 0.089
0.021 0.017 0.087
0.035 0.015 0.075
0.039 0.035 0.083
0.013 0.017 0.071
0.033 0.033 0.067
0.025 0.021 0.075
0.017 0.015 0.087
0.023 0.015 0.089
0.029 0.015 0.089
0.025 0.019 0.083
0.023 0.019 0.083
0.027 0.017 0.085
0.035 0.009 0.075
0.043 0.029 0.077
0.043 0.033 0.077
0.039 0.029 0.087
0.041 0.037 0.087
0.043 0.035 0.085
