-0.039 -0.007 0.033
-0.037 -0.009 0.031
-0.023 -0.001 0.037
-0.021 0.001 0.037
-0.019 0.001 0.037
-0.019 0.003 0.035
-0.017 0.005 0.035
-0.021 -0.013 0.031
-0.023 -0.003 0.033
-0.021 0.001 0.033
-0.023 -0.001 0.035
-0.017 0.005 0.035
-0.039 -0.029 0.047
-0.037 -0.027 0.047
-0.039 -0.029 0.047
-0.037 -0.029 0.053
-0.043 -0.009 0.043
-0.037 -0.007 0.045
-0.043 -0.011 0.041
-0.039 -0.007 0.043
-0.037 -0.007 0.045
-0.041 -0.007 0.043
-0.035 -0.007 0.039
-0.037 -0.027 0.049
-0.031 -0.013 0.049
-0.033 -0.013 0.047
-0.031 -0.009 0.047
-0.029 -0.011 0.051
-0.027 -0.011 0.053
-0.025 -0.007 0.047
-0.027 -0.009 0.049
-0.037 -0.023 0.053
-0.031 -0.017 0.057
-0.035 -0.025 0.059
-0.033 -0.023 0.061
-0.033 -0.025 0.063
-0.027 -0.013 0.055
-0.023 -0.011 0.053
-0.025 -0.017 0.057
-0.021 -0.015 0.055
-0.021 -0.019 0.063
-0.023 -0.019 0.065
-0.041 -0.009 0.037
-0.043 -0.011 0.043
-0.037 -0.025 0.047
-0.037 -0.019 0.043
-0.039 -0.007 0.035
-0.033 -0.005 0.033
-0.039 -0.007 0.039
-0.041 -0.007 0.043
-0.039 -0.007 0.043
-0.039 -0.029 0.049
-0.037 -0.029 0.055
-0.037 -0.025 0.055
-0.033 -0.019 0.051
-0.035 -0.021 0.053
-0.037 -0.029 0.059
-0.035 -0.025 0.057
-0.035 -0.027 0.061
-0.035 -0.025 0.061
-0.033 -0.025 0.063
-0.039 -0.007 0.039
-0.033 -0.005 0.037
-0.025 -0.003 0.039
-0.023 -0.001 0.039
-0.017 0.001 0.039
-0.017 0.001 0.039
-0.013 0.005 0.037
-0.013 -0.003 0.047
-0.017 -0.009 0.051
-0.029 -0.005 0.037
-0.025 -0.003 0.037
-0.025 -0.005 0.035
-0.029 -0.005 0.043
-0.023 -0.005 0.047
-0.021 -0.005 0.047
-0.011 0.005 0.039
-0.019 0.003 0.035
-0.011 0.001 0.047
-0.003 -0.001 0.047
-0.031 -0.023 0.063
-0.027 -0.019 0.061
-0.027 -0.019 0.061
-0.023 -0.017 0.057
-0.023 -0.017 0.057
-0.017 -0.009 0.053
-0.017 -0.013 0.055
-0.019 -0.011 0.053
-0.017 -0.013 0.055
-0.015 -0.011 0.055
-0.009 -0.017 0.059
-0.013 -0.021 0.063
-0.009 -0.009 0.059
-0.009 -0.009 0.061
-0.009 -0.013 0.059
-0.007 -0.009 0.063
-0.019 -0.007 0.049
-0.019 -0.009 0.051
-0.021 -0.015 0.055
-0.013 -0.003 0.051
-0.011 -0.003 0.051
-0.009 -0.005 0.055
-0.009 -0.011 0.061
-0.009 -0.011 0.059
-0.009 -0.007 0.059
-0.005 -0.001 0.059
-0.049 -0.031 0.087
-0.045 -0.029 0.087
-0.047 -0.029 0.085
-0.049 -0.031 0.087
-0.041 -0.025 0.081
-0.041 -0.025 0.085
-0.049 -0.037 0.091
-0.047 -0.031 0.089
-0.047 -0.035 0.091
-0.041 -0.029 0.089
-0.041 -0.029 0.089
-0.033 -0.037 0.093
-0.033 -0.037 0.093
-0.033 -0.029 0.067
-0.029 -0.027 0.071
-0.029 -0.025 0.071
-0.025 -0.019 0.069
-0.025 -0.021 0.073
-0.023 -0.021 0.075
-0.037 -0.025 0.085
-0.035 -0.023 0.085
-0.029 -0.019 0.085
-0.031 -0.021 0.087
-0.033 -0.023 0.095
-0.027 -0.035 0.093
-0.029 -0.021 0.089
-0.029 -0.021 0.089
-0.027 -0.019 0.089
-0.031 -0.021 0.095
-0.031 -0.021 0.095
-0.019 -0.015 0.085
-0.017 -0.015 0.089
-0.023 -0.021 0.093
-0.023 -0.017 0.097
-0.021 -0.017 0.095
-0.017 -0.015 0.093
-0.015 -0.015 0.093
-0.049 -0.031 0.085
-0.045 -0.027 0.083
-0.047 -0.029 0.087
-0.041 -0.025 0.083
-0.035 -0.023 0.085
-0.033 -0.021 0.083
-0.031 -0.027 0.069
-0.031 -0.027 0.069
-0.029 -0.025 0.071
-0.029 -0.023 0.071
-0.021 -0.017 0.071
-0.021 -0.017 0.069
-0.027 -0.023 0.073
-0.023 -0.019 0.073
-0.019 -0.017 0.075
-0.021 -0.023 0.079
-0.013 -0.021 0.065
-0.013 -0.017 0.069
-0.009 -0.019 0.071
-0.017 -0.017 0.081
-0.013 -0.015 0.079
-0.007 -0.017 0.075
-0.003 -0.017 0.073
-0.009 -0.015 0.077
-0.007 -0.007 0.065
-0.007 -0.009 0.067
-0.005 -0.013 0.069
-0.003 -0.001 0.069
-0.011 -0.015 0.077
-0.003 -0.013 0.073
-0.003 -0.009 0.073
-0.001 -0.015 0.075
-0.003 -0.005 0.075
-0.003 -0.007 0.073
-0.033 -0.021 0.085
-0.029 -0.019 0.085
-0.029 -0.019 0.085
-0.029 -0.019 0.085
-0.033 -0.021 0.083
-0.033 -0.021 0.085
-0.021 -0.017 0.083
-0.023 -0.017 0.087
-0.031 -0.023 0.089
-0.027 -0.019 0.095
-0.023 -0.019 0.091
-0.025 -0.019 0.091
-0.021 -0.019 0.093
-0.019 -0.017 0.083
-0.009 -0.013 0.085
-0.017 -0.015 0.083
-0.005 -0.011 0.087
-0.009 -0.011 0.095
-0.017 -0.015 0.093
-0.015 -0.015 0.089
-0.013 -0.013 0.089
-0.015 -0.013 0.095
-0.007 -0.011 0.089
-0.007 -0.011 0.091
-0.041 -0.033 0.099
-0.039 -0.027 0.097
-0.041 -0.027 0.099
-0.041 -0.027 0.099
-0.039 -0.025 0.101
-0.043 -0.029 0.101
-0.039 -0.031 0.105
-0.037 -0.023 0.097
-0.023 -0.019 0.099
-0.021 -0.019 0.103
-0.015 -0.015 0.103
-0.013 -0.013 0.101
-0.015 -0.015 0.105
-0.039 -0.025 0.097
-0.039 -0.025 0.097
-0.041 -0.027 0.099
-0.039 -0.031 0.103
-0.033 -0.021 0.097
-0.035 -0.023 0.099
-0.043 -0.031 0.105
-0.029 -0.023 0.103
-0.029 -0.023 0.099
-0.027 -0.019 0.097
-0.029 -0.023 0.103
-0.027 -0.021 0.103
-0.025 -0.019 0.099
-0.023 -0.023 0.105
-0.023 -0.023 0.105
-0.025 -0.023 0.105
-0.007 -0.011 0.097
-0.009 -0.011 0.101
-0.011 -0.015 0.107
-0.017 -0.015 0.105
-0.009 -0.015 0.107
-0.009 -0.015 0.109
-0.003 -0.019 0.109
-0.017 -0.015 0.097
-0.013 -0.013 0.099
-0.007 -0.011 0.099
-0.005 -0.009 0.099
-0.005 -0.009 0.097
-0.005 -0.009 0.101
-0.013 -0.013 0.107
-0.007 -0.023 0.115
-0.015 0.003 0.037
-0.013 0.005 0.037
-0.007 0.001 0.043
-0.011 0.003 0.043
-0.011 -0.003 0.051
-0.005 -0.001 0.051
-0.007 0.001 0.043
-0.003 -0.001 0.045
0.001 -0.003 0.045
-0.003 -0.003 0.041
0.003 0.027 0.045
0.003 0.025 0.039
0.003 0.027 0.045
0.003 0.029 0.047
0.003 0.029 0.049
0.003 0.029 0.053
-0.011 -0.007 0.055
-0.009 -0.005 0.057
-0.003 -0.001 0.057
-0.001 -0.001 0.055
-0.007 -0.003 0.059
-0.005 -0.005 0.065
0.003 -0.001 0.051
0.005 -0.001 0.057
0.007 -0.001 0.055
0.005 0.001 0.061
0.007 0.001 0.063
0.007 0.001 0.065
0.005 -0.001 0.057
0.007 0.001 0.063
0.011 -0.003 0.061
0.005 0.015 0.051
0.005 0.023 0.057
0.013 0.003 0.057
0.005 0.029 0.061
0.007 0.025 0.063
0.009 0.019 0.063
0.009 0.021 0.065
0.011 0.029 0.041
0.013 0.031 0.045
-0.005 -0.005 0.069
-0.005 -0.007 0.071
-0.001 0.001 0.067
0.007 0.001 0.067
0.007 0.003 0.069
0.005 0.001 0.065
0.007 0.001 0.065
0.013 -0.003 0.065
0.001 -0.015 0.079
0.003 0.003 0.075
0.011 0.001 0.067
0.009 0.007 0.077
-0.009 -0.011 0.089
-0.009 -0.011 0.089
-0.001 -0.017 0.081
-0.009 -0.011 0.091
-0.007 -0.011 0.093
-0.007 -0.011 0.091
0.003 -0.009 0.083
0.005 -0.007 0.085
0.001 -0.003 0.081
0.001 -0.001 0.081
0.005 -0.001 0.087
0.007 -0.007 0.089
0.009 -0.005 0.091
0.007 0.001 0.089
0.011 0.003 0.091
0.011 0.007 0.089
0.017 0.013 0.089
-0.007 -0.011 0.097
-0.007 -0.011 0.097
-0.007 -0.011 0.099
-0.005 -0.009 0.099
-0.001 -0.017 0.107
0.001 -0.017 0.107
-0.001 -0.017 0.109
0.003 -0.017 0.111
0.005 -0.015 0.111
0.005 -0.015 0.111
0.011 -0.013 0.111
-0.019 0.003 0.031
-0.021 0.001 0.033
-0.013 0.005 0.037
-0.005 0.013 0.039
-0.007 0.013 0.037
-0.013 0.001 0.045
-0.011 0.001 0.047
-0.005 0.017 0.037
0.003 0.025 0.035
0.011 0.027 0.035
0.011 0.027 0.031
0.013 0.029 0.031
0.013 0.033 0.035
0.017 0.037 0.035
0.015 0.031 0.031
0.017 0.035 0.033
0.017 0.037 0.037
0.017 0.033 0.031
-0.005 0.017 0.037
-0.001 0.011 0.039
0.003 0.013 0.041
0.001 0.019 0.037
0.003 0.017 0.039
0.007 0.023 0.037
0.003 0.011 0.043
0.003 0.011 0.041
0.003 0.011 0.045
0.005 0.009 0.047
0.003 0.015 0.045
0.007 0.025 0.041
0.007 0.025 0.041
0.007 0.027 0.043
0.007 0.029 0.045
0.011 0.029 0.043
0.013 0.031 0.043
0.011 0.031 0.037
0.013 0.027 0.045
0.003 0.025 0.035
0.003 0.023 0.039
0.005 0.025 0.039
0.009 0.027 0.037
0.003 0.019 0.041
0.003 0.025 0.043
0.003 0.017 0.047
0.003 0.023 0.045
0.003 0.027 0.047
0.007 0.029 0.045
0.003 0.029 0.047
0.005 0.029 0.047
0.007 0.029 0.047
0.003 0.025 0.041
0.003 0.025 0.047
0.005 0.029 0.045
0.011 0.029 0.041
0.007 0.029 0.045
0.005 0.029 0.047
0.011 0.031 0.037
0.011 0.031 0.037
0.013 0.033 0.035
0.013 0.033 0.035
0.015 0.035 0.035
0.021 0.039 0.037
0.023 0.039 0.039
0.013 0.029 0.045
0.015 0.025 0.045
0.019 0.021 0.047
0.019 0.023 0.047
0.017 0.033 0.049
0.015 0.035 0.047
0.019 0.039 0.045
0.019 0.039 0.047
0.021 0.041 0.047
0.007 0.009 0.049
0.011 0.005 0.055
0.005 0.019 0.051
0.005 0.017 0.051
0.003 0.025 0.053
0.011 0.009 0.053
-0.001 0.001 0.061
0.013 0.003 0.059
0.011 0.031 0.057
0.023 0.017 0.053
0.025 0.017 0.057
0.025 0.017 0.055
0.021 0.019 0.061
0.009 0.025 0.065
0.019 0.019 0.065
0.009 0.027 0.063
0.025 0.017 0.059
0.025 0.019 0.061
0.003 0.027 0.055
0.005 0.031 0.055
0.003 0.029 0.055
0.005 0.031 0.053
0.007 0.031 0.057
0.005 0.029 0.059
0.005 0.027 0.059
0.009 0.027 0.063
0.009 0.029 0.059
0.009 0.027 0.063
0.025 0.017 0.053
0.019 0.033 0.051
0.021 0.033 0.055
0.023 0.035 0.057
0.013 0.025 0.063
0.013 0.023 0.065
0.029 0.021 0.063
0.027 0.031 0.063
0.011 0.031 0.041
0.019 0.041 0.043
0.019 0.041 0.043
0.025 0.037 0.035
0.019 0.041 0.043
0.025 0.039 0.055
0.025 0.037 0.059
0.029 0.033 0.065
0.017 0.035 0.033
0.021 0.037 0.035
0.017 0.039 0.039
0.017 0.039 0.043
0.017 0.039 0.045
0.017 0.037 0.047
0.025 0.041 0.043
0.027 0.041 0.045
0.027 0.041 0.045
0.017 0.037 0.049
0.019 0.033 0.051
0.019 0.033 0.053
0.021 0.037 0.055
0.027 0.041 0.051
0.023 0.033 0.059
0.025 0.037 0.059
0.027 0.033 0.063
0.031 0.039 0.053
0.001 0.001 0.067
0.005 0.003 0.069
0.009 0.003 0.071
0.003 0.001 0.079
0.011 0.005 0.073
0.019 0.019 0.073
0.019 0.019 0.073
0.015 0.005 0.073
0.021 0.019 0.081
0.027 0.031 0.065
0.029 0.031 0.067
0.021 0.019 0.073
0.027 0.021 0.073
0.005 0.003 0.083
0.007 0.005 0.081
0.011 0.005 0.089
0.011 0.007 0.089
0.019 0.017 0.083
0.017 0.003 0.093
0.019 0.007 0.093
0.021 0.007 0.093
0.023 0.007 0.095
0.019 0.013 0.089
0.021 0.015 0.089
0.023 0.015 0.089
0.027 0.011 0.093
0.021 0.019 0.083
0.023 0.017 0.085
0.029 0.021 0.075
0.029 0.029 0.069
0.031 0.025 0.071
0.033 0.031 0.069
0.031 0.027 0.071
0.031 0.027 0.073
0.033 0.025 0.075
0.033 0.025 0.077
0.035 0.027 0.077
0.035 0.027 0.075
0.037 0.029 0.075
0.035 0.029 0.077
0.037 0.029 0.077
0.023 0.017 0.085
0.033 0.025 0.081
0.033 0.027 0.081
0.033 0.027 0.083
0.035 0.031 0.083
0.035 0.031 0.085
0.035 0.031 0.087
0.037 0.031 0.087
0.035 0.031 0.087
0.037 0.033 0.081
0.043 0.035 0.077
0.039 0.035 0.083
