-0.041 -0.011 0.037
-0.041 -0.015 0.037
-0.043 -0.009 0.039
-0.041 -0.009 0.035
-0.039 -0.007 0.037
-0.041 -0.009 0.039
-0.035 -0.007 0.039
-0.025 -0.003 0.037
-0.023 -0.001 0.037
-0.033 -0.003 0.035
-0.019 0.003 0.033
-0.037 -0.035 0.049
-0.037 -0.031 0.057
-0.037 -0.031 0.041
-0.037 -0.035 0.043
-0.027 -0.043 0.037
-0.037 -0.025 0.041
-0.035 -0.029 0.037
-0.037 -0.035 0.047
-0.037 -0.023 0.053
-0.037 -0.027 0.045
-0.037 -0.023 0.047
-0.037 -0.025 0.043
-0.043 -0.009 0.043
-0.043 -0.009 0.043
-0.037 -0.021 0.043
-0.035 -0.015 0.045
-0.033 -0.013 0.047
-0.031 -0.015 0.049
-0.031 -0.013 0.051
-0.037 -0.033 0.051
-0.037 -0.025 0.055
-0.037 -0.033 0.051
-0.037 -0.027 0.059
-0.035 -0.029 0.061
-0.033 -0.025 0.065
-0.033 -0.021 0.055
-0.033 -0.017 0.055
-0.033 -0.021 0.059
-0.031 -0.021 0.063
-0.035 -0.027 0.037
-0.035 -0.023 0.037
-0.037 -0.027 0.039
-0.037 -0.025 0.039
-0.041 -0.015 0.037
-0.043 -0.009 0.039
-0.035 -0.021 0.047
-0.035 -0.017 0.045
-0.039 -0.011 0.033
-0.039 -0.007 0.035
-0.043 -0.009 0.043
-0.033 -0.013 0.047
-0.033 -0.017 0.053
-0.033 -0.017 0.055
-0.035 -0.025 0.059
-0.035 -0.025 0.035
-0.041 -0.009 0.039
-0.043 -0.009 0.039
-0.039 -0.007 0.039
-0.033 -0.005 0.039
-0.041 -0.007 0.041
-0.039 -0.007 0.043
-0.031 -0.005 0.041
-0.033 -0.005 0.039
-0.031 -0.009 0.047
-0.031 -0.005 0.045
-0.013 0.003 0.043
-0.027 -0.019 0.061
-0.023 -0.017 0.059
-0.025 -0.017 0.057
-0.015 -0.017 0.055
-0.011 -0.015 0.057
-0.017 -0.019 0.063
-0.017 -0.019 0.065
-0.007 -0.019 0.061
-0.007 -0.017 0.063
-0.007 -0.015 0.063
-0.031 -0.013 0.049
-0.021 -0.009 0.051
-0.015 -0.007 0.051
-0.005 -0.001 0.051
-0.005 -0.001 0.053
-0.011 -0.013 0.057
-0.011 -0.013 0.057
-0.007 -0.011 0.063
-0.007 -0.003 0.059
-0.007 -0.003 0.061
-0.007 -0.007 0.063
-0.005 -0.001 0.061
-0.049 -0.037 0.091
-0.047 -0.035 0.087
-0.049 -0.033 0.087
-0.047 -0.029 0.085
-0.047 -0.029 0.085
-0.047 -0.027 0.085
-0.047 -0.035 0.089
-0.043 -0.031 0.091
-0.033 -0.037 0.093
-0.033 -0.027 0.067
-0.023 -0.029 0.077
-0.027 -0.023 0.073
-0.023 -0.025 0.077
-0.021 -0.023 0.079
-0.041 -0.027 0.087
-0.037 -0.025 0.087
-0.033 -0.039 0.093
-0.041 -0.029 0.097
-0.039 -0.029 0.095
-0.027 -0.039 0.091
-0.039 -0.029 0.095
-0.035 -0.025 0.095
-0.035 -0.023 0.097
-0.033 -0.023 0.095
-0.027 -0.019 0.087
-0.027 -0.019 0.089
-0.025 -0.019 0.089
-0.023 -0.019 0.089
-0.033 -0.021 0.097
-0.043 -0.027 0.087
-0.041 -0.025 0.085
-0.037 -0.025 0.083
-0.043 -0.027 0.087
-0.037 -0.025 0.085
-0.033 -0.023 0.087
-0.033 -0.021 0.083
-0.033 -0.021 0.083
-0.031 -0.023 0.065
-0.029 -0.029 0.071
-0.021 -0.017 0.067
-0.021 -0.017 0.069
-0.029 -0.027 0.073
-0.029 -0.029 0.073
-0.029 -0.027 0.073
-0.025 -0.021 0.073
-0.021 -0.017 0.069
-0.019 -0.017 0.069
-0.009 -0.021 0.065
-0.015 -0.017 0.071
-0.005 -0.015 0.065
-0.007 -0.019 0.071
-0.005 -0.017 0.069
-0.021 -0.023 0.081
-0.019 -0.019 0.081
-0.017 -0.017 0.081
-0.017 -0.017 0.073
-0.003 -0.017 0.075
-0.007 -0.011 0.065
-0.005 -0.007 0.071
-0.005 -0.003 0.065
-0.003 -0.003 0.069
-0.005 -0.007 0.071
-0.015 -0.015 0.075
-0.003 -0.009 0.073
-0.035 -0.023 0.085
-0.035 -0.023 0.085
-0.031 -0.021 0.087
-0.031 -0.021 0.087
-0.029 -0.019 0.083
-0.031 -0.021 0.087
-0.029 -0.019 0.085
-0.027 -0.019 0.085
-0.025 -0.017 0.085
-0.037 -0.027 0.089
-0.029 -0.021 0.089
-0.037 -0.023 0.097
-0.027 -0.021 0.093
-0.027 -0.023 0.091
-0.027 -0.019 0.095
-0.033 -0.023 0.095
-0.025 -0.019 0.095
-0.019 -0.015 0.085
-0.005 -0.015 0.081
-0.017 -0.015 0.085
-0.015 -0.015 0.087
-0.011 -0.013 0.085
-0.011 -0.013 0.087
-0.015 -0.015 0.089
-0.015 -0.013 0.095
-0.011 -0.011 0.093
-0.009 -0.011 0.091
-0.009 -0.011 0.091
-0.005 -0.009 0.089
-0.005 -0.009 0.089
-0.009 -0.011 0.093
-0.007 -0.011 0.095
-0.003 -0.009 0.093
-0.003 -0.009 0.095
-0.039 -0.043 0.099
-0.041 -0.041 0.101
-0.041 -0.041 0.101
-0.043 -0.031 0.101
-0.043 -0.031 0.103
-0.043 -0.029 0.103
-0.041 -0.029 0.099
-0.043 -0.029 0.101
-0.041 -0.027 0.099
-0.041 -0.027 0.099
-0.039 -0.025 0.101
-0.029 -0.027 0.101
-0.029 -0.027 0.103
-0.025 -0.019 0.099
-0.023 -0.019 0.101
-0.021 -0.019 0.103
-0.011 -0.027 0.109
-0.041 -0.027 0.101
-0.039 -0.025 0.099
-0.041 -0.027 0.101
-0.037 -0.025 0.101
-0.027 -0.019 0.097
-0.027 -0.021 0.103
-0.025 -0.023 0.105
-0.025 -0.021 0.103
-0.015 -0.015 0.103
-0.013 -0.013 0.099
-0.011 -0.013 0.099
-0.015 -0.015 0.103
-0.021 -0.021 0.105
-0.017 -0.017 0.105
-0.015 -0.015 0.107
-0.013 -0.013 0.107
-0.017 -0.015 0.101
-0.015 -0.015 0.103
-0.013 -0.015 0.103
-0.009 -0.013 0.103
-0.009 -0.011 0.099
-0.005 -0.009 0.099
-0.011 -0.013 0.101
-0.013 -0.015 0.105
-0.015 -0.015 0.107
-0.011 -0.013 0.109
-0.007 -0.023 0.115
-0.005 -0.023 0.115
-0.027 -0.003 0.041
-0.025 -0.007 0.047
-0.019 -0.005 0.045
-0.025 -0.009 0.051
-0.015 0.001 0.043
0.001 0.007 0.039
-0.013 -0.001 0.047
-0.013 0.001 0.045
-0.011 0.001 0.047
-0.009 -0.001 0.051
-0.011 0.001 0.047
-0.005 0.013 0.039
0.003 0.011 0.041
0.003 0.015 0.043
0.003 0.013 0.043
0.009 0.003 0.043
0.009 0.003 0.049
0.011 0.005 0.051
0.003 0.015 0.047
-0.017 -0.009 0.053
-0.013 -0.007 0.055
-0.009 -0.009 0.059
-0.003 -0.001 0.055
0.001 -0.001 0.053
0.011 -0.001 0.051
0.011 -0.001 0.049
0.003 -0.001 0.055
0.013 -0.001 0.055
-0.005 -0.001 0.061
-0.003 -0.001 0.059
-0.003 -0.001 0.061
-0.005 -0.003 0.065
-0.001 0.001 0.057
-0.001 0.001 0.061
0.007 -0.001 0.057
-0.001 0.001 0.059
0.001 0.001 0.059
0.003 0.001 0.063
0.011 0.003 0.053
0.011 0.003 0.053
0.013 0.003 0.059
0.013 0.005 0.059
0.015 0.007 0.061
0.015 0.009 0.061
0.005 0.011 0.047
0.003 0.017 0.045
0.005 0.013 0.047
-0.003 -0.005 0.073
-0.003 -0.013 0.073
0.003 0.001 0.067
0.005 0.003 0.069
0.007 0.003 0.069
0.001 -0.007 0.081
-0.001 -0.003 0.079
0.001 -0.005 0.081
-0.001 0.001 0.071
0.007 0.003 0.071
0.001 0.001 0.077
0.009 0.007 0.077
0.011 0.009 0.081
-0.019 -0.015 0.087
-0.015 -0.015 0.097
-0.013 -0.013 0.097
-0.011 -0.013 0.097
-0.011 -0.011 0.093
0.003 -0.011 0.085
0.003 -0.005 0.083
0.005 -0.005 0.085
0.001 -0.005 0.081
0.003 0.001 0.081
0.009 -0.009 0.091
0.007 -0.007 0.089
0.007 -0.001 0.089
0.003 -0.001 0.083
0.005 0.001 0.085
0.007 0.005 0.083
0.007 0.005 0.085
0.011 0.009 0.083
0.017 0.001 0.095
-0.019 -0.017 0.101
-0.013 -0.013 0.101
-0.015 -0.015 0.103
-0.011 -0.013 0.099
0.001 -0.019 0.105
0.001 -0.009 0.101
0.005 -0.015 0.109
-0.017 0.005 0.033
-0.021 0.001 0.037
-0.017 0.003 0.037
-0.015 0.003 0.037
-0.013 0.003 0.041
-0.009 0.013 0.033
-0.007 0.015 0.037
-0.005 0.013 0.039
-0.013 0.003 0.043
-0.001 0.001 0.069
-0.001 0.019 0.035
0.001 0.021 0.035
0.005 0.025 0.035
0.011 0.027 0.035
0.013 0.033 0.033
-0.007 0.013 0.037
-0.005 0.017 0.037
-0.001 0.019 0.035
0.003 0.013 0.039
0.003 0.013 0.039
0.003 0.023 0.039
0.003 0.023 0.041
0.005 0.007 0.041
0.005 0.007 0.043
0.005 0.005 0.043
0.009 0.001 0.047
0.003 0.017 0.047
0.003 0.021 0.041
0.003 0.017 0.045
0.003 0.021 0.043
0.005 0.023 0.037
0.003 0.025 0.043
0.003 0.027 0.043
0.009 0.025 0.037
0.009 0.027 0.039
0.003 0.025 0.045
0.003 0.029 0.049
0.001 0.021 0.035
0.003 0.019 0.039
0.003 0.025 0.035
0.009 0.025 0.037
0.005 0.025 0.035
0.009 0.025 0.035
0.003 0.023 0.043
0.003 0.023 0.043
0.005 0.019 0.045
0.003 0.025 0.045
0.005 0.029 0.045
0.003 0.025 0.047
0.003 0.029 0.049
0.005 0.029 0.049
0.007 0.029 0.047
0.009 0.025 0.037
0.011 0.029 0.043
0.015 0.037 0.037
0.015 0.037 0.037
0.003 0.029 0.051
0.007 0.031 0.049
0.007 0.031 0.049
0.015 0.031 0.047
0.013 0.033 0.045
0.017 0.037 0.047
0.011 0.005 0.051
0.005 0.013 0.049
0.005 0.015 0.049
0.005 0.017 0.051
0.013 0.011 0.053
0.015 0.013 0.057
0.015 0.013 0.055
0.005 0.023 0.061
0.005 0.023 0.055
0.005 0.027 0.057
0.005 0.029 0.059
0.015 0.003 0.061
0.015 0.005 0.063
0.015 0.005 0.063
0.015 0.013 0.063
0.015 0.009 0.065
0.005 0.027 0.061
0.005 0.029 0.061
0.005 0.021 0.051
0.003 0.025 0.049
0.003 0.025 0.055
0.003 0.027 0.051
0.003 0.029 0.049
0.005 0.029 0.057
0.005 0.027 0.061
0.005 0.027 0.061
0.009 0.023 0.063
0.009 0.023 0.065
0.005 0.027 0.059
0.007 0.031 0.057
0.007 0.029 0.059
0.005 0.029 0.057
0.005 0.029 0.059
0.017 0.033 0.049
0.019 0.037 0.051
0.021 0.037 0.053
0.023 0.031 0.055
0.007 0.025 0.061
0.009 0.023 0.065
0.029 0.025 0.063
0.023 0.033 0.059
0.023 0.031 0.057
0.027 0.027 0.063
0.007 0.027 0.043
0.003 0.023 0.049
0.003 0.025 0.051
0.009 0.021 0.067
0.021 0.037 0.055
0.025 0.033 0.061
0.027 0.037 0.061
0.029 0.035 0.063
0.029 0.035 0.063
0.015 0.037 0.037
0.015 0.037 0.039
0.017 0.037 0.035
0.019 0.037 0.035
0.019 0.039 0.037
0.017 0.039 0.039
0.021 0.041 0.041
0.019 0.041 0.043
0.021 0.041 0.043
0.027 0.041 0.049
0.027 0.041 0.047
0.029 0.041 0.047
0.021 0.041 0.049
0.019 0.033 0.053
0.021 0.039 0.053
0.021 0.039 0.053
0.023 0.035 0.059
0.025 0.037 0.059
0.025 0.035 0.061
0.025 0.039 0.055
-0.001 0.001 0.069
0.007 0.003 0.071
0.015 0.009 0.065
0.001 0.001 0.077
0.009 0.005 0.073
0.009 0.007 0.077
0.009 0.007 0.079
0.015 0.013 0.079
0.019 0.005 0.067
0.017 0.007 0.067
0.017 0.007 0.069
0.017 0.009 0.073
0.013 0.007 0.075
0.015 0.011 0.077
0.009 0.021 0.067
0.011 0.021 0.069
0.023 0.021 0.067
0.029 0.025 0.067
0.029 0.029 0.067
0.027 0.031 0.065
0.019 0.019 0.079
0.027 0.021 0.075
0.023 0.021 0.079
0.027 0.021 0.079
0.011 0.009 0.081
0.009 0.007 0.087
0.015 0.013 0.085
0.017 0.015 0.087
0.017 0.003 0.093
0.019 0.007 0.093
0.019 0.003 0.095
0.021 0.007 0.093
0.021 0.007 0.093
0.015 0.009 0.091
0.023 0.009 0.093
0.017 0.009 0.091
0.025 0.011 0.093
0.023 0.019 0.081
0.021 0.019 0.083
0.019 0.017 0.085
0.023 0.021 0.067
0.023 0.021 0.071
0.017 0.015 0.075
0.023 0.021 0.075
0.033 0.029 0.071
0.039 0.031 0.075
0.039 0.031 0.075
0.033 0.027 0.079
0.037 0.029 0.075
0.039 0.033 0.079
0.037 0.033 0.081
0.017 0.015 0.087
0.021 0.019 0.083
0.025 0.015 0.089
0.033 0.027 0.081
0.035 0.031 0.083
0.035 0.029 0.085
0.035 0.031 0.085
0.037 0.033 0.083
0.039 0.035 0.085
