-0.023 -0.011 0.053
-0.031 -0.017 0.057
-0.023 -0.001 0.037
-0.007 0.001 0.043
-0.009 0.001 0.045
0.009 0.007 0.087
-0.009 -0.021 0.105
-0.013 -0.013 0.093
-0.021 -0.019 0.077
0.001 -0.017 0.085
-0.003 -0.003 0.073
0.001 -0.001 0.081
-0.005 -0.009 0.089
-0.043 -0.031 0.105
-0.037 -0.027 0.101
-0.007 -0.023 0.111
0.023 0.009 0.093
0.007 -0.001 0.089
0.011 -0.013 0.111
0.021 0.001 0.095
0.023 0.041 0.051
0.037 0.027 0.063
0.033 0.037 0.059
0.013 0.015 0.049
0.045 0.035 0.081
0.041 0.031 0.085
-0.013 -0.041 0.043
-0.037 -0.029 0.041
-0.035 -0.031 0.063
-0.039 -0.031 0.049
-0.035 -0.035 0.061
-0.035 -0.029 0.061
-0.039 -0.043 0.099
-0.029 -0.043 0.097
-0.035 -0.039 0.105
-0.021 -0.027 0.105
-0.025 -0.033 0.105
-0.021 -0.037 0.065
-0.001 -0.033 0.089
-0.025 -0.041 0.093
-0.037 -0.033 0.057
-0.033 -0.031 0.067
-0.017 -0.037 0.067
-0.019 -0.037 0.083
0.023 -0.005 0.051
-0.033 -0.031 0.065
-0.031 -0.033 0.069
-0.029 -0.041 0.099
0.001 -0.031 0.085
-0.009 -0.035 0.099
-0.019 -0.035 0.033
-0.015 -0.043 0.041
-0.003 -0.033 0.041
-0.011 -0.029 0.061
-0.035 -0.041 0.081
-0.013 -0.033 0.065
-0.011 -0.033 0.077
-0.001 -0.025 0.079
-0.003 -0.013 0.101
0.007 -0.027 0.041
0.007 -0.021 0.057
0.003 -0.031 0.091
0.009 -0.013 0.083
0.023 -0.005 0.089
0.007 -0.029 0.097
0.015 -0.005 0.041
0.033 0.005 0.045
0.027 -0.009 0.037
0.033 0.009 0.035
0.033 0.007 0.085
0.029 0.003 0.089
0.031 0.003 0.087
0.041 0.023 0.079
-0.037 -0.033 0.041
-0.043 -0.009 0.039
-0.037 -0.027 0.041
-0.031 -0.005 0.041
-0.031 -0.021 0.061
-0.029 -0.025 0.071
-0.047 -0.027 0.085
-0.041 -0.027 0.101
-0.033 -0.031 0.103
-0.039 -0.029 0.089
-0.005 -0.011 0.069
-0.005 -0.009 0.089
-0.017 -0.019 0.105
-0.009 -0.021 0.107
-0.019 -0.015 0.055
-0.001 0.001 0.061
-0.013 -0.013 0.097
0.007 -0.007 0.089
0.005 0.007 0.043
0.009 0.003 0.045
0.007 0.013 0.051
0.007 0.031 0.053
0.005 0.015 0.049
0.007 0.025 0.063
0.017 0.009 0.067
0.011 0.023 0.067
0.019 0.007 0.093
-0.037 -0.027 0.043
-0.025 -0.007 0.047
-0.043 -0.041 0.089
-0.045 -0.033 0.091
-0.031 -0.005 0.045
-0.011 -0.005 0.053
-0.007 -0.003 0.057
-0.039 -0.043 0.087
-0.037 -0.037 0.107
-0.035 -0.037 0.107
-0.025 -0.019 0.099
-0.027 -0.023 0.103
-0.021 -0.021 0.105
-0.013 -0.031 0.105
-0.003 -0.009 0.103
0.017 -0.009 0.087
0.007 -0.019 0.111
0.007 0.007 0.047
0.005 0.005 0.077
0.013 0.035 0.039
0.007 0.027 0.061
0.021 0.001 0.095
-0.005 0.015 0.037
-0.025 -0.017 0.059
-0.021 -0.017 0.057
-0.005 -0.003 0.065
-0.027 -0.009 0.049
-0.021 -0.003 0.041
-0.011 0.005 0.039
-0.045 -0.035 0.093
-0.017 -0.017 0.069
-0.019 -0.017 0.075
-0.009 -0.011 0.095
-0.011 -0.013 0.095
-0.003 -0.009 0.091
0.001 -0.019 0.097
-0.007 -0.011 0.087
-0.005 -0.011 0.101
0.015 0.013 0.055
0.033 0.007 0.047
0.027 0.015 0.089
-0.005 0.013 0.039
0.031 0.037 0.043
0.005 0.027 0.043
0.023 0.041 0.051
0.019 0.017 0.057
0.013 0.015 0.049
0.035 0.035 0.055
0.037 0.029 0.065
0.011 0.019 0.051
0.033 0.033 0.065
0.033 0.005 0.057
0.021 0.041 0.043
0.031 0.039 0.053
0.035 0.031 0.067
0.027 0.017 0.087
0.041 0.035 0.075
0.039 0.025 0.069
0.011 -0.017 0.059
0.009 -0.027 0.095
-0.005 -0.019 0.063
-0.025 -0.041 0.093
-0.031 -0.039 0.101
-0.003 -0.025 0.075
-0.001 -0.023 0.079
0.001 -0.021 0.109
-0.031 -0.043 0.099
-0.021 -0.035 0.103
0.013 -0.015 0.113
0.007 -0.027 0.039
0.007 -0.021 0.045
0.011 -0.015 0.051
0.027 -0.003 0.049
0.003 -0.023 0.055
0.025 -0.001 0.063
0.011 -0.017 0.073
0.007 -0.029 0.097
0.031 0.017 0.041
0.031 0.001 0.063
0.035 0.007 0.075
0.039 0.021 0.077
0.039 0.021 0.075
0.035 0.013 0.081
0.033 0.033 0.047
0.035 0.035 0.053
0.043 0.029 0.081
0.023 -0.005 0.089
0.035 0.019 0.081
0.023 0.005 0.095
0.005 -0.027 0.033
0.033 0.001 0.041
0.027 0.017 0.043
0.017 -0.009 0.067
-0.003 -0.033 0.043
-0.013 -0.037 0.055
-0.009 -0.031 0.051
0.035 0.013 0.063
0.031 0.003 0.045
0.033 0.007 0.043
0.035 0.009 0.075
0.005 -0.023 0.051
0.015 -0.007 0.065
0.015 -0.003 0.095
-0.003 -0.017 0.093
0.003 -0.025 0.087
0.035 0.007 0.077
0.005 -0.019 0.107
-0.001 -0.009 0.103
0.005 -0.019 0.107
0.025 -0.007 0.045
0.023 -0.007 0.079
0.029 0.003 0.089
0.001 -0.025 0.097
0.031 0.031 0.035
0.033 0.011 0.041
0.033 0.025 0.039
0.033 0.007 0.045
0.033 0.037 0.059
0.025 0.035 0.035
0.041 0.025 0.075
0.027 0.007 0.093
-0.033 -0.005 0.037
-0.027 -0.005 0.043
-0.011 0.003 0.043
-0.023 -0.011 0.053
-0.023 -0.015 0.055
-0.017 -0.009 0.051
-0.013 -0.021 0.061
-0.035 -0.009 0.045
-0.035 -0.017 0.045
-0.033 -0.007 0.045
-0.011 0.003 0.041
-0.029 -0.017 0.057
-0.027 -0.011 0.053
-0.029 -0.015 0.057
-0.019 -0.011 0.053
-0.031 -0.025 0.069
-0.025 -0.017 0.085
-0.037 -0.033 0.107
-0.011 -0.023 0.107
-0.029 -0.025 0.103
-0.001 -0.009 0.097
-0.001 -0.003 0.043
0.003 -0.003 0.047
0.021 0.015 0.051
0.013 0.003 0.071
-0.001 -0.009 0.087
-0.001 -0.009 0.093
-0.011 0.005 0.039
0.011 0.029 0.043
0.003 0.023 0.047
0.005 0.025 0.039
0.005 0.029 0.057
0.011 0.025 0.065
0.031 0.029 0.069
0.025 0.041 0.051
-0.011 -0.041 0.039
0.015 -0.013 0.065
-0.013 -0.025 0.059
-0.009 -0.021 0.065
-0.005 -0.029 0.045
0.011 -0.005 0.055
-0.025 -0.041 0.095
-0.001 -0.033 0.089
-0.005 -0.035 0.097
-0.001 -0.013 0.095
-0.011 -0.027 0.107
0.003 -0.021 0.109
0.007 -0.019 0.111
0.013 -0.015 0.057
0.015 -0.009 0.063
0.013 -0.005 0.059
0.019 -0.007 0.073
0.017 -0.011 0.085
0.019 -0.001 0.095
0.035 0.011 0.037
0.031 0.001 0.049
0.031 0.009 0.053
0.031 0.005 0.053
0.029 0.037 0.041
0.033 0.003 0.073
0.029 0.011 0.091
0.035 0.019 0.069
0.039 0.023 0.083
-0.019 -0.043 0.051
0.005 -0.025 0.043
0.009 -0.019 0.059
-0.039 -0.043 0.085
-0.031 -0.041 0.083
-0.033 -0.037 0.089
-0.023 -0.037 0.087
-0.017 -0.037 0.083
-0.005 -0.027 0.071
-0.009 -0.021 0.065
0.005 -0.017 0.075
-0.007 -0.033 0.085
-0.001 -0.033 0.091
0.007 -0.027 0.093
0.001 -0.023 0.085
-0.019 -0.037 0.097
-0.005 -0.035 0.097
0.003 -0.031 0.095
0.001 -0.019 0.033
0.015 -0.007 0.061
0.033 0.003 0.043
0.033 0.005 0.049
0.033 0.005 0.049
0.035 0.023 0.063
0.033 0.015 0.087
0.033 0.005 0.069
0.035 0.007 0.073
-0.029 -0.011 0.049
-0.035 -0.031 0.063
-0.029 -0.013 0.055
-0.049 -0.039 0.093
-0.047 -0.037 0.093
-0.043 -0.041 0.089
-0.037 -0.041 0.097
-0.027 -0.027 0.073
-0.035 -0.029 0.089
-0.041 -0.031 0.097
-0.047 -0.035 0.093
-0.039 -0.025 0.101
-0.025 -0.023 0.105
-0.011 -0.015 0.109
-0.037 -0.031 0.055
-0.007 -0.011 0.063
-0.027 -0.023 0.091
-0.019 -0.015 0.091
-0.031 -0.007 0.047
0.003 0.019 0.041
0.007 0.019 0.053
-0.005 -0.003 0.063
-0.003 -0.005 0.071
0.017 0.017 0.065
0.009 0.005 0.087
-0.035 -0.025 0.035
-0.031 -0.035 0.065
-0.027 -0.017 0.059
-0.029 -0.019 0.061
-0.025 -0.007 0.049
-0.009 -0.005 0.057
-0.043 -0.043 0.087
-0.045 -0.029 0.089
-0.019 -0.019 0.079
-0.041 -0.035 0.101
-0.017 -0.017 0.105
-0.021 -0.019 0.103
-0.035 -0.015 0.045
-0.031 -0.009 0.047
-0.007 -0.001 0.049
-0.001 -0.009 0.077
-0.031 -0.021 0.095
0.011 -0.003 0.091
-0.013 0.005 0.037
0.011 0.029 0.037
0.003 0.023 0.049
0.017 0.037 0.047
0.023 0.037 0.057
0.005 0.005 0.077
0.033 0.023 0.077
0.035 0.027 0.075
0.039 0.035 0.085
-0.003 -0.015 0.085
0.017 -0.009 0.087
0.021 -0.005 0.089
-0.005 -0.019 0.109
-0.009 -0.031 0.051
0.009 -0.027 0.103
-0.041 -0.011 0.043
-0.009 -0.015 0.105
-0.017 -0.013 0.055
-0.019 -0.007 0.049
-0.031 -0.017 0.057
-0.017 -0.009 0.053
0.009 0.005 0.087
0.007 0.003 0.087
-0.023 -0.033 0.105
-0.009 -0.027 0.111
-0.001 -0.023 0.109
-0.035 -0.037 0.107
-0.027 -0.035 0.101
-0.007 -0.033 0.105
-0.031 -0.029 0.101
0.035 0.007 0.075
0.033 -0.001 0.041
0.035 0.017 0.071
0.031 0.017 0.089
0.031 0.015 0.043
0.029 0.031 0.067
0.021 0.039 0.053
0.027 0.041 0.053
0.023 0.035 0.059
0.011 0.003 0.091
0.033 0.005 0.085
0.011 0.021 0.071
0.013 0.007 0.091
0.029 0.007 0.091
-0.027 -0.045 0.035
-0.017 -0.037 0.063
-0.013 -0.041 0.053
-0.011 -0.039 0.053
-0.011 -0.029 0.061
-0.023 -0.037 0.081
-0.031 -0.039 0.085
-0.033 -0.039 0.089
-0.025 -0.041 0.095
-0.035 -0.043 0.099
-0.037 -0.045 0.099
-0.037 -0.045 0.101
-0.007 -0.027 0.111
-0.011 -0.035 0.097
0.007 -0.027 0.035
-0.003 -0.035 0.037
0.003 -0.023 0.053
0.005 -0.021 0.061
-0.023 -0.039 0.041
-0.013 -0.041 0.047
0.025 -0.001 0.037
0.007 -0.023 0.043
-0.003 -0.025 0.051
0.003 -0.023 0.055
-0.003 -0.021 0.059
0.019 -0.011 0.075
0.035 0.007 0.075
0.037 0.029 0.089
0.033 0.005 0.083
-0.031 -0.033 0.033
-0.027 -0.041 0.047
-0.023 -0.039 0.043
-0.015 -0.041 0.045
-0.015 -0.041 0.043
-0.001 -0.033 0.039
-0.007 -0.037 0.045
-0.019 -0.043 0.051
-0.007 -0.021 0.057
-0.035 -0.041 0.087
-0.043 -0.041 0.089
-0.027 -0.037 0.067
-0.011 -0.035 0.087
-0.039 -0.043 0.087
-0.011 -0.031 0.065
-0.007 -0.025 0.067
-0.003 -0.025 0.073
-0.001 -0.017 0.067
-0.019 -0.037 0.089
-0.009 -0.033 0.083
-0.029 -0.043 0.095
0.001 -0.031 0.085
0.003 -0.015 0.081
0.013 0.001 0.033
0.019 -0.001 0.035
0.009 -0.019 0.061
0.033 0.005 0.057
0.033 0.003 0.077
0.025 -0.005 0.079
-0.025 -0.003 0.037
-0.023 -0.001 0.037
-0.037 -0.029 0.041
-0.037 -0.025 0.041
-0.033 -0.027 0.063
-0.035 -0.029 0.035
-0.037 -0.029 0.039
-0.039 -0.007 0.039
-0.031 -0.003 0.037
-0.017 0.003 0.037
-0.027 -0.019 0.061
-0.009 -0.011 0.061
-0.009 -0.005 0.057
-0.007 -0.003 0.059
-0.041 -0.025 0.085
-0.027 -0.025 0.105
0.011 -0.001 0.091
0.009 -0.015 0.111
0.009 0.027 0.037
0.013 0.035 0.037
0.015 0.011 0.059
0.003 0.029 0.053
0.023 0.033 0.057
0.023 0.031 0.057
0.023 0.039 0.037
0.017 0.011 0.075
0.003 0.001 0.081
0.017 0.015 0.085
0.029 0.019 0.081
0.033 0.029 0.071
-0.017 0.003 0.037
-0.035 -0.031 0.061
-0.031 -0.023 0.065
-0.039 -0.029 0.045
-0.015 -0.005 0.045
-0.023 -0.001 0.037
-0.025 -0.003 0.037
-0.031 -0.013 0.051
-0.031 -0.013 0.051
-0.049 -0.037 0.093
-0.027 -0.021 0.071
-0.027 -0.023 0.073
-0.019 -0.017 0.073
-0.003 -0.003 0.071
-0.027 -0.021 0.093
-0.003 -0.019 0.109
0.003 0.027 0.051
0.001 0.001 0.073
-0.009 -0.011 0.095
0.003 0.027 0.033
0.009 0.025 0.033
0.011 0.031 0.041
0.001 0.001 0.063
0.003 0.025 0.053
0.015 0.037 0.045
0.013 0.009 0.077
