-0.041 -0.009 0.037
-0.039 -0.007 0.037
-0.037 -0.015 0.043
-0.035 -0.011 0.045
-0.031 -0.011 0.047
-0.037 -0.007 0.043
-0.035 -0.007 0.045
-0.029 -0.009 0.047
-0.029 -0.009 0.047
-0.021 -0.007 0.049
-0.019 -0.005 0.045
-0.035 -0.005 0.035
-0.037 -0.035 0.055
-0.037 -0.033 0.055
-0.039 -0.029 0.049
-0.037 -0.027 0.049
-0.035 -0.023 0.055
-0.035 -0.021 0.053
-0.035 -0.025 0.057
-0.035 -0.023 0.057
-0.035 -0.023 0.057
-0.037 -0.023 0.047
-0.037 -0.021 0.045
-0.035 -0.021 0.049
-0.033 -0.017 0.053
-0.033 -0.017 0.047
-0.035 -0.023 0.057
-0.033 -0.023 0.061
-0.037 -0.027 0.049
-0.037 -0.029 0.055
-0.033 -0.021 0.059
-0.031 -0.019 0.059
-0.027 -0.011 0.053
-0.023 -0.019 0.063
-0.023 -0.017 0.061
-0.037 -0.027 0.059
-0.033 -0.027 0.067
-0.031 -0.023 0.067
-0.037 -0.031 0.059
-0.035 -0.033 0.061
-0.031 -0.023 0.067
-0.033 -0.027 0.067
-0.033 -0.035 0.063
-0.027 -0.019 0.067
-0.023 -0.019 0.065
-0.021 -0.019 0.063
-0.027 -0.019 0.067
-0.027 -0.021 0.071
-0.037 -0.025 0.043
-0.043 -0.009 0.043
-0.037 -0.027 0.043
-0.039 -0.029 0.049
-0.039 -0.029 0.049
-0.037 -0.019 0.043
-0.035 -0.021 0.049
-0.041 -0.015 0.035
-0.043 -0.009 0.041
-0.043 -0.009 0.043
-0.041 -0.011 0.043
-0.037 -0.011 0.045
-0.033 -0.013 0.047
-0.035 -0.011 0.045
-0.039 -0.007 0.043
-0.037 -0.007 0.045
-0.039 -0.029 0.051
-0.037 -0.025 0.053
-0.037 -0.025 0.055
-0.035 -0.021 0.051
-0.037 -0.027 0.059
-0.035 -0.023 0.057
-0.039 -0.015 0.043
-0.039 -0.007 0.043
-0.031 -0.007 0.047
-0.025 -0.009 0.051
-0.023 -0.005 0.047
-0.021 -0.005 0.047
-0.015 -0.017 0.055
-0.017 -0.019 0.057
-0.017 -0.019 0.057
-0.035 -0.005 0.037
-0.027 -0.005 0.045
-0.031 -0.003 0.037
-0.023 -0.003 0.041
-0.021 -0.003 0.041
-0.029 -0.011 0.049
-0.031 -0.005 0.045
-0.023 -0.005 0.045
-0.021 -0.005 0.047
-0.013 0.001 0.045
-0.011 0.001 0.047
-0.017 0.001 0.039
-0.015 0.001 0.043
-0.013 0.003 0.039
-0.013 0.003 0.043
-0.011 0.001 0.045
-0.017 -0.003 0.043
-0.011 0.001 0.047
-0.019 -0.019 0.059
-0.023 -0.019 0.065
-0.021 -0.019 0.065
-0.011 -0.019 0.057
-0.009 -0.017 0.059
-0.015 -0.019 0.055
-0.025 -0.019 0.067
-0.023 -0.019 0.073
-0.021 -0.017 0.069
-0.017 -0.019 0.063
-0.031 -0.015 0.055
-0.029 -0.013 0.055
-0.023 -0.009 0.051
-0.021 -0.009 0.051
-0.023 -0.015 0.055
-0.021 -0.013 0.053
-0.023 -0.011 0.053
-0.027 -0.015 0.057
-0.011 -0.013 0.057
-0.009 -0.001 0.051
-0.007 -0.001 0.051
-0.007 -0.001 0.053
-0.007 -0.015 0.063
-0.007 -0.011 0.065
-0.009 -0.005 0.059
-0.005 -0.001 0.061
-0.047 -0.031 0.089
-0.039 -0.027 0.089
-0.047 -0.033 0.089
-0.045 -0.037 0.093
-0.043 -0.037 0.093
-0.041 -0.033 0.091
-0.039 -0.031 0.089
-0.037 -0.033 0.089
-0.031 -0.033 0.069
-0.029 -0.027 0.073
-0.027 -0.027 0.073
-0.023 -0.023 0.077
-0.023 -0.021 0.077
-0.027 -0.019 0.087
-0.033 -0.025 0.089
-0.035 -0.023 0.097
-0.027 -0.021 0.091
-0.029 -0.023 0.093
-0.039 -0.027 0.101
-0.035 -0.027 0.101
-0.037 -0.025 0.095
-0.033 -0.025 0.099
-0.031 -0.027 0.099
-0.029 -0.021 0.097
-0.029 -0.023 0.099
-0.031 -0.029 0.101
-0.027 -0.021 0.103
-0.033 -0.027 0.067
-0.043 -0.027 0.087
-0.043 -0.027 0.085
-0.033 -0.027 0.087
-0.037 -0.025 0.087
-0.033 -0.023 0.087
-0.037 -0.027 0.089
-0.031 -0.031 0.069
-0.031 -0.027 0.069
-0.025 -0.019 0.069
-0.021 -0.017 0.069
-0.021 -0.017 0.069
-0.025 -0.019 0.071
-0.019 -0.017 0.073
-0.029 -0.019 0.083
-0.027 -0.019 0.085
-0.025 -0.023 0.075
-0.023 -0.019 0.073
-0.019 -0.017 0.077
-0.015 -0.015 0.077
-0.019 -0.017 0.069
-0.015 -0.017 0.069
-0.015 -0.017 0.073
-0.005 -0.017 0.065
-0.005 -0.013 0.069
-0.015 -0.015 0.077
-0.005 -0.019 0.073
-0.011 -0.015 0.077
-0.011 -0.015 0.079
-0.003 -0.017 0.079
-0.003 -0.013 0.073
-0.007 -0.007 0.065
-0.005 -0.007 0.071
-0.015 -0.015 0.075
-0.003 -0.011 0.073
-0.001 -0.007 0.079
-0.025 -0.019 0.087
-0.025 -0.019 0.089
-0.023 -0.017 0.087
-0.019 -0.015 0.087
-0.031 -0.021 0.097
-0.029 -0.021 0.089
-0.027 -0.021 0.091
-0.027 -0.021 0.093
-0.023 -0.019 0.089
-0.023 -0.019 0.091
-0.019 -0.017 0.095
-0.009 -0.011 0.101
-0.011 -0.011 0.093
-0.007 -0.011 0.095
-0.005 -0.009 0.093
-0.043 -0.031 0.103
-0.043 -0.035 0.105
-0.043 -0.031 0.105
-0.035 -0.031 0.105
-0.027 -0.027 0.105
-0.027 -0.025 0.105
-0.019 -0.021 0.105
-0.019 -0.029 0.105
-0.019 -0.021 0.105
-0.011 -0.027 0.109
-0.011 -0.025 0.111
-0.039 -0.025 0.101
-0.039 -0.025 0.101
-0.033 -0.027 0.099
-0.027 -0.029 0.105
-0.027 -0.021 0.103
-0.023 -0.019 0.101
-0.019 -0.019 0.103
-0.021 -0.023 0.105
-0.013 -0.013 0.107
-0.013 -0.015 0.107
-0.015 -0.015 0.107
-0.015 -0.015 0.105
-0.013 -0.015 0.105
-0.009 -0.011 0.101
-0.009 -0.013 0.103
-0.013 -0.013 0.107
-0.011 -0.013 0.109
-0.011 -0.013 0.103
-0.013 -0.025 0.107
-0.011 -0.027 0.109
-0.011 -0.023 0.111
-0.011 -0.023 0.111
-0.015 -0.015 0.099
-0.011 -0.013 0.103
-0.007 -0.011 0.099
-0.005 -0.009 0.099
-0.007 -0.011 0.103
-0.003 -0.009 0.103
-0.011 -0.015 0.109
-0.011 -0.013 0.109
-0.015 -0.009 0.053
-0.015 -0.007 0.051
-0.011 -0.005 0.053
-0.013 -0.009 0.055
-0.013 -0.001 0.049
-0.011 -0.007 0.057
-0.009 -0.005 0.059
-0.009 -0.005 0.059
-0.007 -0.005 0.061
-0.009 -0.001 0.051
-0.005 -0.001 0.047
-0.003 -0.001 0.045
0.005 0.007 0.047
-0.001 0.001 0.057
-0.001 -0.001 0.053
0.001 -0.001 0.051
0.009 0.003 0.049
0.011 0.001 0.049
0.007 0.013 0.051
0.009 0.009 0.049
0.011 0.009 0.051
0.013 0.011 0.053
0.005 0.021 0.057
0.011 0.005 0.055
0.011 0.009 0.053
-0.007 -0.007 0.065
-0.005 -0.003 0.065
-0.003 -0.003 0.071
-0.003 -0.001 0.063
-0.001 -0.001 0.055
0.003 0.001 0.059
-0.001 0.001 0.071
0.003 0.003 0.071
0.013 0.003 0.059
0.011 0.003 0.053
0.015 0.011 0.061
0.015 0.009 0.063
0.015 0.009 0.065
0.017 0.001 0.061
0.009 0.023 0.063
-0.003 -0.007 0.075
-0.003 -0.011 0.073
-0.001 -0.005 0.079
-0.001 -0.003 0.079
-0.007 -0.011 0.085
0.001 -0.005 0.081
0.003 0.001 0.079
0.005 0.005 0.077
-0.001 -0.009 0.077
0.001 -0.011 0.081
0.001 -0.009 0.081
0.003 -0.007 0.083
0.007 0.005 0.079
0.009 0.007 0.081
0.007 0.001 0.089
0.009 0.007 0.083
0.009 0.007 0.081
0.013 0.009 0.089
-0.005 -0.009 0.089
-0.007 -0.011 0.091
-0.007 -0.011 0.101
-0.009 -0.011 0.101
0.007 -0.025 0.097
-0.007 -0.011 0.097
0.003 -0.009 0.083
0.003 -0.011 0.085
0.003 -0.011 0.085
0.001 -0.007 0.081
0.005 -0.003 0.087
0.007 -0.007 0.089
0.013 -0.001 0.091
0.013 -0.003 0.093
0.013 -0.003 0.093
0.011 0.003 0.091
0.017 0.011 0.089
0.019 0.007 0.093
0.019 0.005 0.093
-0.009 -0.015 0.109
-0.011 -0.013 0.109
-0.001 -0.017 0.109
0.003 -0.017 0.111
0.007 -0.019 0.111
0.001 -0.009 0.097
-0.017 0.003 0.037
-0.017 0.005 0.035
-0.013 0.003 0.041
-0.003 0.011 0.039
-0.001 0.011 0.039
-0.001 0.019 0.035
-0.001 0.017 0.037
-0.001 0.001 0.063
0.003 0.025 0.043
0.005 0.029 0.047
0.005 0.031 0.051
0.015 0.031 0.047
0.003 0.025 0.039
0.017 0.033 0.049
0.017 0.035 0.049
0.017 0.037 0.047
-0.003 0.011 0.039
0.003 0.013 0.045
0.003 0.015 0.043
0.003 0.011 0.045
0.003 0.011 0.039
0.003 0.017 0.039
0.001 0.015 0.037
0.003 0.023 0.043
0.005 0.009 0.047
0.003 0.013 0.045
0.005 0.023 0.055
0.003 0.025 0.055
0.003 0.027 0.055
0.005 0.029 0.057
0.005 0.025 0.059
0.007 0.031 0.051
0.013 0.025 0.063
0.023 0.017 0.055
0.007 0.029 0.061
0.001 0.019 0.037
0.003 0.025 0.035
0.003 0.025 0.041
0.003 0.029 0.047
0.005 0.025 0.035
0.003 0.023 0.047
0.003 0.019 0.047
0.003 0.027 0.049
0.003 0.027 0.045
0.003 0.029 0.049
0.015 0.029 0.047
0.011 0.029 0.043
0.017 0.039 0.043
0.017 0.039 0.041
0.009 0.031 0.057
0.011 0.031 0.057
0.005 0.031 0.055
0.015 0.031 0.047
0.019 0.033 0.051
0.013 0.013 0.051
0.013 0.011 0.055
-0.001 0.001 0.065
0.005 0.001 0.065
0.015 0.009 0.063
0.011 0.017 0.067
0.009 0.021 0.067
0.011 0.021 0.069
0.005 0.029 0.061
0.007 0.025 0.063
0.017 0.005 0.065
0.017 0.007 0.067
0.013 0.017 0.073
0.013 0.021 0.071
0.021 0.019 0.063
0.005 0.019 0.049
0.005 0.021 0.057
0.005 0.023 0.057
0.003 0.025 0.049
0.005 0.027 0.057
0.007 0.031 0.057
0.005 0.031 0.055
0.007 0.031 0.057
0.007 0.029 0.059
0.007 0.031 0.057
0.007 0.031 0.057
0.005 0.023 0.059
0.007 0.023 0.061
0.007 0.025 0.063
0.007 0.025 0.063
0.009 0.021 0.063
0.023 0.031 0.057
0.023 0.033 0.059
0.013 0.023 0.067
0.021 0.019 0.063
0.023 0.021 0.065
0.027 0.029 0.065
0.027 0.029 0.065
0.027 0.033 0.063
0.005 0.029 0.061
0.027 0.017 0.043
0.009 0.025 0.065
0.031 0.015 0.043
0.017 0.037 0.049
0.019 0.033 0.053
0.019 0.039 0.049
0.021 0.039 0.051
0.019 0.019 0.073
0.023 0.021 0.073
0.027 0.037 0.061
0.029 0.027 0.067
0.031 0.033 0.065
0.013 0.033 0.045
0.015 0.037 0.039
0.015 0.037 0.039
0.017 0.039 0.041
0.015 0.037 0.041
0.017 0.039 0.041
0.021 0.041 0.049
0.019 0.039 0.047
0.019 0.039 0.047
0.023 0.041 0.045
0.021 0.041 0.045
0.021 0.041 0.047
0.017 0.035 0.049
0.023 0.041 0.051
0.023 0.039 0.053
0.025 0.039 0.053
0.029 0.039 0.055
0.025 0.041 0.051
0.027 0.039 0.057
0.027 0.035 0.061
0.029 0.039 0.057
0.031 0.037 0.061
0.033 0.037 0.059
0.033 0.035 0.061
0.007 0.003 0.069
0.001 0.001 0.077
0.011 0.009 0.079
0.017 0.005 0.065
0.015 0.013 0.077
0.015 0.013 0.077
0.013 0.011 0.085
0.015 0.013 0.083
0.009 0.023 0.065
0.011 0.021 0.071
0.011 0.025 0.065
0.027 0.021 0.067
0.029 0.023 0.065
0.029 0.021 0.071
0.031 0.025 0.073
0.029 0.031 0.067
0.031 0.031 0.067
0.011 0.009 0.085
0.015 0.013 0.087
0.013 0.005 0.091
0.019 0.013 0.089
0.021 0.011 0.091
0.021 0.007 0.093
0.015 0.011 0.089
0.017 0.013 0.089
0.019 0.015 0.087
0.015 0.007 0.091
0.017 0.001 0.095
0.019 0.017 0.083
0.025 0.017 0.087
0.021 0.019 0.083
0.023 0.021 0.077
0.027 0.021 0.069
0.031 0.027 0.073
0.033 0.031 0.069
0.037 0.029 0.075
0.029 0.021 0.079
0.033 0.023 0.075
0.033 0.023 0.077
0.035 0.027 0.077
0.033 0.027 0.085
0.035 0.029 0.077
0.035 0.029 0.079
0.037 0.029 0.075
0.037 0.033 0.081
0.021 0.015 0.089
0.025 0.011 0.091
0.031 0.019 0.083
0.027 0.015 0.089
0.033 0.027 0.085
0.035 0.029 0.087
0.035 0.031 0.083
0.035 0.025 0.087
0.035 0.031 0.087
0.037 0.031 0.089
0.039 0.035 0.083
0.037 0.033 0.085
