-0.013 -0.039 0.053
-0.013 -0.041 0.049
-0.009 -0.039 0.049
-0.013 -0.035 0.055
-0.009 -0.033 0.051
-0.007 -0.037 0.045
-0.001 -0.033 0.039
0.003 -0.027 0.043
0.005 -0.025 0.045
-0.007 -0.029 0.051
0.003 -0.021 0.061
-0.035 -0.039 0.053
-0.031 -0.037 0.065
-0.017 -0.051 0.037
-0.019 -0.051 0.037
-0.025 -0.047 0.039
-0.017 -0.045 0.039
-0.023 -0.041 0.047
-0.031 -0.041 0.045
-0.015 -0.043 0.051
-0.023 -0.041 0.045
-0.015 -0.043 0.049
-0.015 -0.045 0.039
-0.009 -0.039 0.045
-0.007 -0.037 0.043
-0.013 -0.041 0.041
-0.007 -0.039 0.037
-0.003 -0.035 0.039
-0.007 -0.037 0.045
-0.003 -0.033 0.043
-0.029 -0.041 0.049
-0.017 -0.043 0.049
-0.029 -0.041 0.053
-0.021 -0.041 0.055
-0.025 -0.041 0.059
-0.017 -0.037 0.061
-0.011 -0.041 0.051
-0.009 -0.039 0.051
-0.013 -0.039 0.053
-0.015 -0.035 0.061
-0.021 -0.041 0.055
-0.021 -0.039 0.057
-0.025 -0.041 0.055
-0.025 -0.039 0.061
-0.019 -0.037 0.065
-0.017 -0.037 0.065
-0.021 -0.037 0.069
-0.019 -0.035 0.071
-0.017 -0.035 0.069
-0.015 -0.035 0.073
-0.017 -0.037 0.083
-0.015 -0.033 0.077
-0.015 -0.035 0.081
-0.015 -0.035 0.083
-0.027 -0.033 0.071
-0.019 -0.041 0.055
-0.009 -0.037 0.051
-0.011 -0.035 0.053
-0.009 -0.033 0.051
-0.007 -0.029 0.051
-0.007 -0.037 0.043
-0.003 -0.035 0.039
0.001 -0.031 0.041
-0.005 -0.029 0.047
-0.003 -0.031 0.043
-0.007 -0.033 0.085
0.007 -0.019 0.067
-0.011 -0.035 0.087
-0.009 -0.031 0.073
-0.013 -0.027 0.057
-0.011 -0.023 0.057
-0.001 -0.023 0.057
-0.005 -0.029 0.075
-0.005 -0.029 0.073
-0.007 -0.019 0.061
-0.005 -0.019 0.063
-0.003 -0.019 0.061
-0.011 -0.033 0.077
-0.003 -0.029 0.079
-0.003 -0.025 0.075
0.007 -0.017 0.075
0.007 -0.017 0.075
-0.003 -0.025 0.073
-0.005 -0.019 0.063
0.007 -0.029 0.087
0.003 -0.015 0.077
0.001 -0.015 0.075
0.007 -0.027 0.089
0.007 -0.015 0.079
-0.049 -0.039 0.091
-0.037 -0.045 0.101
-0.041 -0.041 0.089
-0.031 -0.043 0.099
-0.035 -0.041 0.089
-0.029 -0.043 0.095
-0.045 -0.039 0.089
-0.029 -0.043 0.095
-0.029 -0.041 0.099
-0.023 -0.039 0.065
-0.017 -0.037 0.081
-0.013 -0.033 0.071
-0.015 -0.033 0.075
-0.011 -0.033 0.077
-0.027 -0.039 0.085
-0.023 -0.037 0.085
-0.029 -0.043 0.097
-0.029 -0.043 0.095
-0.027 -0.041 0.093
-0.025 -0.041 0.095
-0.025 -0.041 0.095
-0.019 -0.039 0.095
-0.017 -0.037 0.101
-0.015 -0.037 0.099
-0.011 -0.035 0.085
-0.009 -0.033 0.087
-0.005 -0.033 0.087
-0.003 -0.033 0.087
-0.011 -0.037 0.095
-0.033 -0.039 0.103
-0.031 -0.039 0.101
-0.023 -0.039 0.103
-0.029 -0.041 0.099
-0.023 -0.039 0.103
-0.021 -0.037 0.103
-0.019 -0.037 0.103
-0.019 -0.037 0.103
-0.019 -0.037 0.083
-0.021 -0.037 0.081
-0.007 -0.033 0.089
-0.005 -0.035 0.097
-0.021 -0.037 0.085
-0.021 -0.037 0.083
-0.017 -0.037 0.083
-0.011 -0.037 0.095
-0.007 -0.029 0.071
-0.005 -0.029 0.073
-0.003 -0.027 0.075
-0.001 -0.033 0.095
-0.003 -0.017 0.065
-0.003 -0.021 0.071
0.007 -0.029 0.087
-0.011 -0.035 0.083
-0.005 -0.031 0.083
-0.003 -0.029 0.079
-0.001 -0.033 0.097
0.007 -0.029 0.093
0.007 -0.029 0.089
0.009 -0.027 0.097
0.005 -0.013 0.079
0.003 -0.015 0.081
0.003 -0.015 0.081
-0.001 -0.033 0.101
0.003 -0.015 0.079
-0.019 -0.039 0.095
-0.019 -0.039 0.101
-0.015 -0.037 0.095
-0.013 -0.037 0.095
-0.015 -0.035 0.103
-0.019 -0.033 0.105
-0.015 -0.035 0.105
-0.015 -0.033 0.105
-0.011 -0.031 0.105
-0.023 -0.039 0.101
-0.015 -0.035 0.103
-0.023 -0.039 0.103
-0.013 -0.037 0.099
-0.015 -0.035 0.103
-0.011 -0.035 0.103
-0.023 -0.031 0.105
-0.015 -0.027 0.105
0.001 -0.031 0.089
0.007 -0.029 0.097
-0.001 -0.033 0.109
-0.001 -0.033 0.109
0.001 -0.027 0.101
-0.003 -0.025 0.101
-0.005 -0.027 0.103
-0.005 -0.025 0.111
-0.003 -0.025 0.107
-0.001 -0.021 0.099
0.001 -0.019 0.097
-0.001 -0.013 0.095
-0.001 -0.013 0.095
0.001 -0.021 0.105
0.001 -0.021 0.109
-0.001 -0.011 0.095
0.005 -0.021 0.109
-0.037 -0.045 0.099
-0.039 -0.045 0.101
-0.037 -0.043 0.103
-0.037 -0.037 0.107
-0.035 -0.039 0.103
-0.033 -0.039 0.103
-0.029 -0.043 0.097
-0.029 -0.041 0.099
-0.027 -0.041 0.097
-0.027 -0.039 0.097
-0.023 -0.039 0.103
-0.019 -0.039 0.101
-0.017 -0.037 0.101
-0.005 -0.035 0.099
-0.005 -0.035 0.103
-0.001 -0.033 0.101
-0.003 -0.033 0.109
-0.037 -0.033 0.107
-0.033 -0.031 0.103
-0.035 -0.031 0.105
-0.027 -0.033 0.105
-0.021 -0.027 0.105
-0.025 -0.025 0.105
-0.021 -0.027 0.105
-0.011 -0.033 0.103
-0.005 -0.025 0.111
-0.003 -0.023 0.101
0.001 -0.023 0.107
-0.003 -0.025 0.107
-0.011 -0.031 0.105
-0.007 -0.027 0.111
-0.015 -0.017 0.107
-0.001 -0.021 0.109
-0.009 -0.025 0.113
-0.007 -0.025 0.115
-0.005 -0.025 0.115
-0.005 -0.019 0.109
-0.001 -0.023 0.109
0.003 -0.021 0.109
-0.001 -0.023 0.109
-0.005 -0.025 0.115
-0.015 -0.017 0.107
-0.011 -0.015 0.109
-0.005 -0.025 0.115
-0.005 -0.025 0.115
0.005 -0.029 0.039
0.005 -0.029 0.039
0.007 -0.025 0.039
0.003 -0.029 0.043
0.009 -0.019 0.055
0.013 -0.003 0.041
0.007 -0.019 0.049
0.009 -0.019 0.051
0.009 -0.019 0.053
0.011 -0.017 0.057
0.011 -0.017 0.059
0.019 -0.005 0.039
0.025 -0.007 0.045
0.033 -0.007 0.041
0.029 -0.007 0.045
0.019 -0.005 0.041
0.021 -0.005 0.047
0.025 -0.005 0.049
0.031 -0.005 0.041
0.003 -0.025 0.049
0.007 -0.021 0.051
0.005 -0.021 0.055
0.013 -0.015 0.061
0.013 -0.017 0.069
0.015 -0.009 0.061
0.013 -0.003 0.049
0.015 -0.015 0.067
0.013 -0.001 0.055
0.013 -0.015 0.059
0.015 -0.015 0.067
0.015 -0.013 0.061
0.013 -0.017 0.063
0.013 -0.015 0.077
0.013 -0.015 0.079
0.015 -0.015 0.075
0.015 -0.013 0.063
0.017 -0.013 0.071
0.017 -0.013 0.075
0.021 -0.005 0.051
0.023 -0.005 0.051
0.021 -0.003 0.057
0.023 -0.003 0.057
0.025 -0.001 0.059
0.029 -0.001 0.059
0.033 -0.007 0.039
0.035 -0.005 0.037
0.033 -0.007 0.041
0.013 -0.017 0.069
0.003 -0.017 0.073
0.017 -0.013 0.079
0.019 -0.011 0.081
0.021 -0.009 0.079
0.009 -0.015 0.079
0.013 -0.015 0.079
0.013 -0.015 0.079
0.017 -0.013 0.069
0.021 -0.009 0.077
0.017 -0.013 0.077
0.025 -0.005 0.081
0.027 -0.003 0.083
0.001 -0.031 0.085
0.005 -0.031 0.097
0.007 -0.027 0.097
0.009 -0.027 0.097
0.007 -0.029 0.103
0.005 -0.013 0.085
0.015 -0.013 0.081
0.015 -0.013 0.083
0.007 -0.011 0.087
0.009 -0.009 0.091
0.009 -0.009 0.091
0.009 -0.009 0.091
0.009 -0.005 0.091
0.017 -0.011 0.081
0.021 -0.009 0.083
0.025 -0.005 0.081
0.025 -0.005 0.083
0.029 -0.001 0.081
0.019 -0.001 0.095
0.001 -0.031 0.099
0.007 -0.029 0.103
0.005 -0.029 0.103
0.009 -0.027 0.097
0.003 -0.021 0.107
0.007 -0.019 0.111
0.009 -0.017 0.111
0.005 -0.021 0.063
-0.003 -0.017 0.065
-0.001 -0.017 0.067
0.005 -0.019 0.065
0.005 -0.019 0.069
0.013 -0.017 0.071
0.015 -0.015 0.071
0.013 -0.015 0.077
0.005 -0.019 0.069
0.007 -0.011 0.085
0.021 -0.005 0.053
0.025 -0.003 0.057
0.031 0.001 0.055
0.033 0.005 0.049
0.033 0.003 0.063
0.015 -0.013 0.063
0.015 -0.003 0.055
0.015 -0.001 0.057
0.017 -0.009 0.067
0.017 -0.011 0.071
0.025 -0.003 0.057
0.025 -0.001 0.059
0.017 -0.013 0.069
0.017 -0.013 0.069
0.015 -0.005 0.047
0.015 -0.009 0.063
0.021 -0.009 0.081
0.029 -0.001 0.047
0.029 -0.005 0.045
0.031 -0.001 0.043
0.029 -0.001 0.057
0.027 -0.001 0.061
0.033 0.005 0.043
0.031 0.001 0.051
0.033 0.005 0.045
0.027 -0.001 0.061
0.031 0.011 0.045
0.019 -0.011 0.075
0.021 -0.009 0.075
0.025 -0.001 0.061
0.027 0.001 0.063
0.023 -0.005 0.077
0.023 0.001 0.065
0.021 -0.009 0.083
0.023 -0.007 0.081
0.021 -0.009 0.081
0.025 -0.005 0.079
0.027 0.001 0.073
0.025 -0.005 0.081
0.027 -0.003 0.081
0.027 -0.003 0.087
0.029 0.001 0.077
0.031 0.001 0.057
0.031 0.013 0.045
0.033 0.021 0.039
0.033 0.023 0.039
0.031 0.003 0.069
0.033 0.003 0.071
0.031 0.001 0.077
0.031 0.001 0.081
0.035 0.007 0.069
0.029 0.029 0.045
0.015 -0.001 0.057
0.021 -0.009 0.075
0.021 -0.009 0.077
0.023 -0.007 0.081
0.021 0.003 0.065
0.025 -0.005 0.081
0.031 0.001 0.051
0.033 0.005 0.059
0.031 0.001 0.063
0.033 0.003 0.067
0.033 0.003 0.071
0.017 0.001 0.061
0.021 -0.001 0.061
0.021 0.001 0.063
0.031 0.001 0.061
0.027 0.001 0.063
0.033 0.005 0.063
0.035 0.007 0.065
0.021 -0.009 0.085
0.021 -0.007 0.087
0.023 -0.005 0.089
0.027 -0.003 0.081
0.025 -0.003 0.089
0.027 -0.001 0.087
0.025 -0.003 0.089
0.027 -0.003 0.087
0.025 -0.003 0.089
0.025 -0.003 0.089
0.021 -0.001 0.091
0.025 0.001 0.091
0.025 0.003 0.091
0.031 0.003 0.073
0.035 0.005 0.071
0.033 0.005 0.083
0.033 0.027 0.055
0.033 0.027 0.057
0.037 0.011 0.075
0.029 -0.001 0.083
0.029 -0.001 0.085
0.035 0.009 0.079
0.037 0.013 0.073
0.035 0.009 0.081
0.035 0.011 0.079
0.033 0.011 0.039
0.035 0.003 0.041
0.033 0.005 0.047
0.033 0.005 0.065
0.035 0.027 0.059
0.035 0.021 0.065
0.039 0.023 0.069
0.039 0.021 0.075
0.037 0.029 0.063
0.033 0.003 0.081
0.033 0.003 0.081
0.035 0.007 0.069
0.035 0.011 0.065
0.029 0.027 0.043
0.031 0.027 0.043
0.031 0.029 0.045
0.033 0.027 0.055
0.037 0.013 0.073
0.037 0.025 0.065
0.037 0.021 0.071
0.039 0.021 0.073
0.035 0.015 0.079
0.033 0.007 0.087
0.035 0.013 0.083
0.035 0.013 0.083
0.033 0.011 0.083
0.035 0.017 0.079
0.035 0.013 0.083
0.035 0.031 0.055
0.009 -0.011 0.085
0.015 -0.009 0.087
0.025 -0.005 0.085
0.011 -0.009 0.091
0.019 -0.007 0.089
0.017 -0.005 0.091
0.015 -0.005 0.091
0.021 -0.001 0.091
0.023 0.001 0.065
0.025 -0.005 0.081
0.027 0.001 0.067
0.027 -0.001 0.077
0.023 -0.007 0.087
0.029 0.001 0.075
0.023 -0.001 0.091
0.023 -0.001 0.091
0.033 0.005 0.085
0.035 0.013 0.079
0.035 0.013 0.083
0.035 0.013 0.083
0.027 0.007 0.093
0.033 0.009 0.087
0.031 0.009 0.089
0.031 0.011 0.089
0.017 -0.003 0.093
0.015 -0.001 0.095
0.021 0.003 0.095
0.023 0.005 0.095
0.019 -0.001 0.095
0.023 0.001 0.093
0.021 0.001 0.095
0.023 0.005 0.095
0.023 0.005 0.095
0.027 -0.001 0.089
0.025 0.005 0.093
0.021 0.005 0.095
0.025 0.009 0.095
0.029 0.009 0.091
0.027 0.007 0.093
0.025 0.007 0.095
0.035 0.009 0.073
0.037 0.011 0.075
0.033 0.003 0.073
0.037 0.011 0.075
0.039 0.021 0.077
0.041 0.025 0.081
0.041 0.025 0.081
0.035 0.023 0.085
0.041 0.025 0.077
0.043 0.029 0.079
0.043 0.029 0.079
0.033 0.005 0.085
0.035 0.009 0.083
0.033 0.009 0.087
0.035 0.023 0.083
0.039 0.025 0.085
0.039 0.025 0.085
0.039 0.027 0.087
0.043 0.029 0.081
0.043 0.033 0.085
