0.005 -0.029 0.037
0.005 -0.029 0.035
0.005 -0.029 0.035
-0.025 -0.041 0.043
-0.021 -0.041 0.053
-0.015 -0.049 0.037
-0.011 -0.039 0.035
-0.007 -0.039 0.037
-0.015 -0.043 0.041
-0.001 -0.035 0.033
-0.007 -0.037 0.047
-0.023 -0.039 0.061
-0.015 -0.035 0.057
-0.011 -0.035 0.053
-0.003 -0.035 0.039
0.001 -0.033 0.037
0.001 -0.031 0.041
-0.017 -0.037 0.059
-0.015 -0.035 0.061
0.001 -0.031 0.039
0.001 -0.017 0.035
0.007 -0.021 0.041
0.003 -0.011 0.037
0.003 -0.011 0.037
0.007 -0.015 0.045
-0.007 -0.023 0.055
-0.013 -0.023 0.059
-0.007 -0.029 0.051
-0.005 -0.027 0.051
-0.011 -0.023 0.063
0.005 -0.021 0.061
0.009 -0.019 0.051
0.015 -0.013 0.061
-0.031 -0.039 0.087
-0.033 -0.041 0.085
-0.037 -0.041 0.089
-0.041 -0.039 0.091
-0.035 -0.041 0.089
-0.019 -0.035 0.071
-0.017 -0.037 0.065
-0.013 -0.033 0.069
-0.025 -0.037 0.081
-0.025 -0.039 0.091
-0.023 -0.039 0.091
-0.009 -0.033 0.083
-0.017 -0.037 0.083
-0.011 -0.035 0.087
-0.011 -0.033 0.075
-0.001 -0.025 0.079
-0.003 -0.021 0.071
-0.005 -0.029 0.073
-0.005 -0.029 0.073
-0.005 -0.029 0.079
-0.009 -0.033 0.085
-0.011 -0.035 0.089
-0.009 -0.035 0.095
-0.001 -0.033 0.093
0.003 -0.031 0.091
0.005 -0.029 0.095
0.007 -0.027 0.093
-0.011 -0.031 0.081
-0.005 -0.029 0.081
-0.005 -0.031 0.083
0.001 -0.021 0.095
0.001 -0.021 0.095
0.001 -0.019 0.095
-0.035 -0.043 0.101
-0.029 -0.043 0.097
-0.013 -0.035 0.103
-0.009 -0.035 0.099
-0.007 -0.035 0.101
-0.005 -0.035 0.103
-0.001 -0.033 0.109
-0.021 -0.037 0.097
-0.005 -0.035 0.097
-0.015 -0.037 0.101
0.007 -0.025 0.097
-0.005 -0.025 0.111
0.009 -0.027 0.103
-0.001 -0.023 0.109
-0.005 -0.025 0.115
0.003 -0.033 0.033
0.003 -0.029 0.043
0.025 -0.009 0.043
0.031 -0.009 0.039
0.033 -0.007 0.039
0.005 -0.025 0.051
0.003 -0.021 0.061
0.011 -0.017 0.061
0.009 -0.005 0.051
0.013 -0.009 0.057
0.011 -0.003 0.059
0.027 -0.003 0.055
0.009 -0.019 0.067
0.019 -0.003 0.071
0.013 -0.015 0.073
0.013 -0.015 0.079
0.007 -0.029 0.095
0.019 -0.011 0.081
0.019 -0.007 0.089
0.015 -0.007 0.089
0.019 -0.007 0.089
0.009 -0.017 0.111
0.003 -0.011 0.037
-0.005 -0.005 0.035
-0.009 0.001 0.035
0.031 -0.009 0.041
0.029 -0.007 0.043
0.033 -0.005 0.041
0.035 -0.003 0.039
0.035 0.017 0.033
0.035 0.021 0.033
0.033 -0.007 0.039
0.033 -0.005 0.041
0.031 -0.001 0.043
0.033 -0.001 0.041
0.033 0.005 0.049
0.035 0.001 0.037
0.031 0.011 0.047
0.031 0.013 0.045
0.033 0.009 0.043
0.033 0.011 0.041
0.033 0.019 0.039
0.033 0.009 0.045
0.021 0.023 0.047
0.035 0.025 0.035
0.035 0.025 0.035
0.027 0.029 0.047
0.031 0.029 0.045
0.029 -0.001 0.053
0.025 -0.003 0.057
0.031 0.003 0.051
0.015 -0.007 0.063
0.031 0.009 0.053
0.025 -0.001 0.061
0.033 0.011 0.057
0.033 0.007 0.059
0.025 0.027 0.049
0.029 0.027 0.055
0.033 0.011 0.059
0.035 0.025 0.061
0.035 0.011 0.037
0.035 0.015 0.037
0.035 0.025 0.035
0.037 0.029 0.061
0.033 0.029 0.039
0.027 0.037 0.039
0.033 0.031 0.045
0.033 0.033 0.043
0.031 0.029 0.051
0.035 0.029 0.059
0.035 0.035 0.057
0.037 0.029 0.063
0.029 0.003 0.069
0.029 0.001 0.073
0.031 0.001 0.077
0.027 -0.003 0.083
0.033 0.007 0.087
0.031 0.011 0.089
0.035 0.013 0.081
0.031 0.013 0.087
0.035 0.015 0.069
0.037 0.011 0.071
0.035 0.021 0.065
0.037 0.029 0.069
0.037 0.021 0.073
0.039 0.021 0.075
0.041 0.027 0.081
0.039 0.025 0.085
-0.021 -0.011 0.053
-0.017 -0.003 0.043
-0.005 -0.005 0.069
-0.031 -0.023 0.099
-0.025 -0.023 0.105
-0.025 -0.023 0.105
-0.023 -0.017 0.097
-0.019 -0.019 0.103
-0.015 -0.019 0.105
-0.005 -0.015 0.101
-0.009 -0.019 0.103
-0.007 -0.017 0.101
-0.017 -0.025 0.105
-0.015 -0.025 0.105
-0.031 -0.015 0.055
-0.035 -0.023 0.055
-0.035 -0.023 0.057
-0.033 -0.003 0.035
-0.039 -0.007 0.043
-0.019 -0.015 0.091
-0.029 -0.013 0.055
-0.025 -0.013 0.055
-0.011 -0.013 0.103
-0.003 -0.011 0.073
-0.007 -0.011 0.103
-0.031 -0.003 0.037
-0.021 -0.001 0.039
-0.023 -0.005 0.047
-0.003 -0.003 0.073
-0.003 -0.003 0.073
-0.009 -0.001 0.049
-0.009 -0.003 0.053
-0.025 -0.017 0.059
-0.019 -0.017 0.075
-0.005 -0.011 0.101
-0.013 -0.013 0.107
-0.011 -0.013 0.101
-0.005 -0.009 0.101
-0.025 -0.015 0.055
-0.011 -0.015 0.057
-0.007 -0.003 0.061
-0.039 -0.027 0.101
-0.019 -0.025 0.105
-0.013 -0.021 0.105
-0.027 -0.027 0.105
-0.017 -0.027 0.105
-0.021 -0.031 0.105
-0.019 -0.029 0.105
-0.015 -0.033 0.105
-0.031 -0.021 0.087
-0.039 -0.025 0.097
-0.031 -0.021 0.097
-0.037 -0.025 0.101
-0.027 -0.019 0.095
-0.027 -0.019 0.089
-0.023 -0.019 0.069
-0.021 -0.019 0.103
-0.023 -0.017 0.097
-0.013 -0.013 0.089
-0.005 -0.011 0.101
-0.005 -0.019 0.109
-0.009 -0.011 0.101
-0.003 -0.009 0.095
-0.015 -0.015 0.077
-0.023 -0.019 0.101
-0.025 -0.023 0.105
-0.023 -0.025 0.105
-0.025 -0.019 0.099
-0.029 -0.023 0.099
-0.017 -0.015 0.099
-0.017 -0.035 0.103
-0.015 -0.033 0.105
-0.041 -0.029 0.103
-0.037 -0.027 0.101
-0.039 -0.025 0.101
-0.029 -0.025 0.103
-0.029 -0.027 0.103
-0.025 -0.027 0.105
-0.007 -0.023 0.115
-0.015 -0.027 0.105
-0.009 -0.025 0.113
-0.007 -0.031 0.105
-0.009 -0.021 0.107
-0.009 -0.021 0.109
-0.013 -0.017 0.107
-0.005 -0.021 0.109
-0.005 -0.019 0.109
-0.003 -0.019 0.109
-0.009 -0.013 0.103
-0.011 -0.013 0.109
-0.007 -0.011 0.101
-0.009 -0.023 0.113
-0.005 -0.023 0.115
0.001 -0.017 0.091
0.001 -0.009 0.103
0.003 -0.007 0.083
0.011 0.007 0.089
0.003 -0.001 0.083
0.019 0.011 0.091
0.019 0.009 0.091
0.023 0.005 0.095
0.013 0.005 0.091
0.019 0.007 0.093
0.019 0.007 0.093
-0.001 -0.009 0.103
0.007 -0.017 0.075
0.007 -0.005 0.087
0.013 0.005 0.091
0.007 0.005 0.085
0.011 0.003 0.091
0.023 0.005 0.095
0.019 0.007 0.093
0.011 -0.009 0.091
0.009 -0.013 0.083
0.015 0.003 0.091
0.017 -0.005 0.091
0.005 -0.019 0.111
0.003 -0.027 0.101
0.013 -0.003 0.093
0.001 -0.031 0.101
0.005 -0.027 0.101
0.003 -0.029 0.103
0.005 -0.017 0.111
-0.011 0.003 0.043
-0.015 0.003 0.041
-0.007 0.015 0.037
-0.003 0.015 0.037
-0.013 0.003 0.043
-0.001 0.001 0.071
0.015 0.013 0.087
0.017 0.015 0.087
0.015 0.013 0.065
0.027 0.029 0.065
0.007 0.005 0.047
0.009 0.003 0.049
0.005 0.011 0.049
0.003 0.013 0.045
0.021 0.017 0.087
0.005 0.025 0.059
0.005 0.021 0.057
0.013 0.023 0.067
0.019 0.019 0.047
0.027 0.021 0.071
0.029 0.019 0.041
0.009 0.003 0.049
0.011 0.011 0.049
0.027 0.011 0.093
0.025 0.009 0.095
0.027 0.013 0.091
0.017 0.017 0.067
0.027 0.019 0.083
0.011 0.021 0.071
0.011 0.027 0.061
0.023 0.029 0.055
0.029 0.013 0.091
0.035 0.031 0.069
0.021 0.039 0.053
0.019 0.035 0.051
0.021 0.035 0.055
0.029 0.037 0.061
0.013 0.011 0.083
0.023 0.009 0.093
0.029 0.007 0.091
0.013 0.011 0.087
0.013 0.005 0.091
0.017 0.001 0.095
0.023 0.017 0.087
0.035 0.031 0.085
0.035 0.021 0.081
0.039 0.023 0.083
0.035 0.023 0.085
0.033 0.027 0.087
0.035 0.031 0.087
0.041 0.025 0.081
0.037 0.033 0.085
-0.041 -0.011 0.037
-0.043 -0.009 0.039
-0.037 -0.007 0.039
-0.025 -0.003 0.037
-0.035 -0.035 0.061
-0.035 -0.035 0.041
-0.029 -0.045 0.035
-0.037 -0.033 0.041
-0.037 -0.033 0.041
-0.041 -0.013 0.043
-0.031 -0.013 0.049
-0.037 -0.031 0.059
-0.035 -0.023 0.055
-0.041 -0.015 0.039
-0.037 -0.021 0.045
-0.043 -0.009 0.039
-0.035 -0.005 0.037
-0.033 -0.013 0.047
-0.035 -0.025 0.057
-0.035 -0.025 0.059
-0.035 -0.025 0.061
-0.033 -0.025 0.063
-0.035 -0.007 0.039
-0.037 -0.007 0.037
-0.035 -0.005 0.037
-0.033 -0.005 0.041
-0.017 0.001 0.039
-0.023 -0.001 0.035
-0.015 -0.005 0.047
-0.031 -0.019 0.059
-0.031 -0.021 0.061
-0.029 -0.019 0.061
-0.021 -0.015 0.055
-0.019 -0.019 0.061
-0.031 -0.013 0.053
-0.017 -0.013 0.055
-0.005 -0.001 0.053
-0.009 -0.005 0.057
-0.007 -0.003 0.059
-0.043 -0.041 0.083
-0.047 -0.029 0.085
-0.049 -0.033 0.085
-0.045 -0.029 0.087
-0.045 -0.033 0.091
-0.031 -0.023 0.067
-0.033 -0.023 0.087
-0.037 -0.027 0.089
-0.037 -0.023 0.097
-0.031 -0.021 0.085
-0.027 -0.021 0.091
-0.027 -0.019 0.095
-0.027 -0.021 0.069
-0.019 -0.017 0.071
-0.023 -0.021 0.075
-0.009 -0.015 0.077
-0.001 -0.001 0.073
-0.001 -0.001 0.073
-0.031 -0.021 0.085
-0.033 -0.025 0.089
-0.031 -0.021 0.097
-0.031 -0.021 0.095
-0.025 -0.019 0.095
-0.025 -0.017 0.085
-0.005 -0.009 0.089
-0.005 -0.009 0.089
-0.007 -0.011 0.095
-0.005 -0.009 0.095
-0.039 -0.039 0.097
-0.039 -0.037 0.099
-0.027 -0.029 0.105
-0.021 -0.023 0.105
-0.017 -0.021 0.105
-0.039 -0.027 0.097
-0.037 -0.023 0.097
-0.033 -0.021 0.097
-0.035 -0.023 0.099
-0.021 -0.019 0.103
-0.029 -0.031 0.105
-0.021 -0.021 0.105
-0.015 -0.021 0.105
-0.017 -0.015 0.105
-0.011 -0.023 0.109
-0.015 -0.015 0.107
-0.009 -0.021 0.109
-0.011 -0.013 0.099
-0.031 -0.005 0.043
-0.019 -0.005 0.045
-0.013 -0.005 0.051
-0.013 -0.001 0.049
-0.009 0.001 0.043
-0.003 -0.001 0.049
0.003 0.017 0.045
0.007 0.005 0.047
0.009 0.003 0.049
-0.011 -0.007 0.055
-0.001 -0.001 0.053
0.003 0.001 0.065
0.001 0.001 0.063
0.013 0.003 0.055
0.005 0.013 0.047
0.003 0.017 0.045
-0.001 0.001 0.069
0.001 -0.015 0.079
0.003 0.003 0.075
-0.013 -0.013 0.097
0.001 -0.013 0.081
0.011 -0.013 0.111
-0.015 0.005 0.035
-0.007 0.015 0.037
-0.005 0.013 0.039
-0.011 0.003 0.043
-0.001 0.019 0.035
0.017 0.035 0.033
0.013 0.035 0.037
-0.005 0.013 0.039
0.003 0.017 0.039
0.003 0.013 0.039
0.005 0.015 0.041
0.003 0.021 0.043
0.003 0.025 0.041
0.009 0.027 0.039
0.003 0.025 0.041
0.009 0.027 0.037
0.003 0.029 0.047
0.007 0.029 0.047
0.009 0.025 0.037
0.011 0.029 0.043
0.013 0.033 0.045
0.011 0.001 0.051
0.013 0.007 0.057
0.015 0.011 0.057
0.003 0.027 0.053
0.003 0.027 0.049
0.009 0.025 0.065
0.023 0.033 0.057
0.027 0.019 0.061
0.025 0.029 0.057
0.003 0.025 0.045
0.013 0.031 0.043
0.005 0.023 0.055
0.007 0.021 0.061
0.025 0.021 0.065
0.013 0.033 0.045
0.017 0.039 0.039
0.019 0.039 0.049
0.029 0.035 0.063
0.001 0.001 0.077
0.009 0.007 0.077
0.017 0.007 0.069
0.009 0.023 0.065
0.023 0.021 0.077
0.031 0.027 0.073
0.013 0.011 0.081
0.013 0.011 0.087
0.015 0.011 0.089
0.023 0.009 0.093
0.017 0.015 0.073
0.023 0.021 0.075
0.033 0.031 0.069
0.031 0.025 0.073
0.033 0.027 0.079
0.037 0.029 0.077
0.033 0.021 0.081
0.033 0.023 0.081
0.035 0.031 0.083
0.029 0.033 0.065
0.039 0.035 0.083
0.039 0.035 0.085
