-0.021 -0.051 0.035
-0.015 -0.049 0.037
-0.027 -0.041 0.039
-0.033 -0.039 0.057
-0.023 -0.049 0.035
-0.021 -0.049 0.039
-0.009 -0.039 0.035
-0.009 -0.039 0.039
-0.005 -0.035 0.039
-0.011 -0.041 0.047
-0.009 -0.039 0.049
-0.023 -0.041 0.053
-0.015 -0.043 0.051
-0.011 -0.039 0.053
-0.037 -0.033 0.043
-0.037 -0.037 0.049
-0.041 -0.015 0.037
-0.039 -0.011 0.043
-0.037 -0.035 0.047
-0.039 -0.029 0.049
-0.039 -0.031 0.049
-0.037 -0.033 0.057
-0.035 -0.037 0.057
-0.037 -0.031 0.059
-0.031 -0.037 0.037
-0.031 -0.037 0.037
-0.023 -0.049 0.039
-0.011 -0.041 0.037
-0.009 -0.039 0.037
-0.005 -0.037 0.037
-0.029 -0.039 0.039
-0.033 -0.039 0.041
-0.035 -0.037 0.045
-0.029 -0.039 0.041
-0.035 -0.037 0.047
-0.033 -0.039 0.051
-0.007 -0.037 0.039
-0.021 -0.041 0.051
-0.009 -0.039 0.047
-0.025 -0.041 0.059
-0.023 -0.039 0.061
-0.011 -0.039 0.053
-0.013 -0.037 0.055
-0.011 -0.031 0.063
-0.033 -0.039 0.055
-0.035 -0.037 0.057
-0.023 -0.041 0.055
-0.015 -0.035 0.059
-0.021 -0.039 0.057
-0.005 -0.021 0.057
-0.033 -0.039 0.087
-0.039 -0.041 0.089
-0.045 -0.039 0.089
-0.033 -0.039 0.089
-0.021 -0.033 0.075
-0.021 -0.037 0.083
-0.027 -0.033 0.089
-0.027 -0.041 0.095
-0.017 -0.037 0.091
-0.013 -0.035 0.083
-0.045 -0.041 0.087
-0.043 -0.043 0.087
-0.039 -0.043 0.087
-0.039 -0.043 0.085
-0.037 -0.041 0.087
-0.029 -0.033 0.071
-0.029 -0.031 0.071
-0.029 -0.029 0.073
-0.019 -0.031 0.079
-0.023 -0.029 0.077
-0.025 -0.029 0.075
-0.021 -0.025 0.079
-0.007 -0.029 0.071
-0.005 -0.027 0.071
-0.015 -0.033 0.077
-0.007 -0.031 0.075
-0.003 -0.029 0.081
-0.005 -0.029 0.075
-0.007 -0.031 0.077
-0.033 -0.039 0.089
-0.021 -0.037 0.087
-0.027 -0.041 0.093
-0.019 -0.039 0.093
-0.029 -0.041 0.093
-0.003 -0.033 0.087
-0.007 -0.035 0.093
-0.005 -0.033 0.095
-0.021 -0.037 0.087
-0.009 -0.033 0.085
-0.015 -0.037 0.093
-0.019 -0.039 0.095
-0.009 -0.035 0.093
-0.011 -0.037 0.095
-0.011 -0.037 0.095
-0.035 -0.043 0.099
-0.041 -0.039 0.105
-0.035 -0.039 0.105
-0.037 -0.037 0.107
-0.027 -0.035 0.101
-0.019 -0.039 0.101
-0.017 -0.037 0.101
-0.007 -0.035 0.097
-0.039 -0.039 0.097
-0.037 -0.045 0.099
-0.039 -0.043 0.099
-0.037 -0.045 0.099
-0.031 -0.043 0.099
-0.025 -0.033 0.105
-0.021 -0.033 0.105
-0.007 -0.035 0.103
-0.001 -0.031 0.103
-0.013 -0.027 0.107
-0.007 -0.027 0.107
-0.005 -0.033 0.107
-0.015 -0.037 0.099
-0.007 -0.035 0.101
-0.009 -0.035 0.099
0.003 -0.029 0.041
0.003 -0.025 0.047
-0.001 -0.025 0.051
-0.005 -0.027 0.051
0.027 -0.009 0.039
0.029 -0.009 0.041
0.025 -0.007 0.045
0.005 -0.025 0.051
0.005 -0.025 0.051
0.007 -0.019 0.063
0.009 -0.019 0.061
0.005 -0.025 0.053
0.009 -0.019 0.057
0.007 -0.021 0.055
0.003 -0.019 0.063
0.027 -0.003 0.055
0.035 -0.007 0.033
0.037 -0.005 0.035
0.003 -0.019 0.067
0.003 -0.017 0.071
0.013 -0.017 0.069
0.011 -0.017 0.071
0.011 -0.017 0.071
0.003 -0.015 0.077
0.017 -0.013 0.071
0.013 -0.017 0.071
0.015 -0.015 0.073
0.017 -0.013 0.075
0.001 -0.031 0.087
-0.003 -0.033 0.087
0.003 -0.031 0.093
-0.001 -0.031 0.085
0.001 -0.031 0.087
0.015 -0.013 0.083
0.009 -0.013 0.083
-0.003 -0.031 0.083
-0.003 -0.033 0.089
0.011 -0.009 0.089
0.013 -0.009 0.089
0.007 -0.029 0.093
0.005 -0.029 0.095
0.019 -0.007 0.089
-0.001 -0.033 0.097
0.009 -0.027 0.097
-0.003 -0.035 0.107
-0.001 -0.033 0.109
0.005 -0.021 0.109
-0.025 -0.039 0.041
-0.021 -0.041 0.047
-0.017 -0.041 0.043
-0.019 -0.041 0.045
-0.013 -0.041 0.047
-0.013 -0.041 0.045
0.001 -0.031 0.039
0.023 0.001 0.033
0.001 -0.031 0.041
0.015 -0.003 0.037
0.015 -0.003 0.037
0.025 -0.001 0.037
-0.007 -0.037 0.043
-0.007 -0.037 0.047
-0.001 -0.029 0.041
-0.009 -0.039 0.051
0.021 -0.003 0.037
0.027 -0.003 0.047
-0.013 -0.041 0.043
-0.007 -0.037 0.045
-0.009 -0.039 0.043
-0.011 -0.041 0.049
0.005 -0.025 0.051
0.005 -0.025 0.053
-0.011 -0.035 0.053
-0.005 -0.023 0.055
-0.001 -0.025 0.051
0.001 -0.023 0.053
0.001 -0.029 0.043
0.009 -0.017 0.047
0.005 -0.025 0.053
0.007 -0.021 0.053
0.011 -0.017 0.053
0.023 -0.005 0.045
0.005 -0.025 0.053
-0.001 -0.023 0.055
0.005 -0.021 0.063
0.005 -0.021 0.063
0.007 -0.021 0.055
0.007 -0.021 0.057
0.019 -0.005 0.053
0.021 -0.003 0.055
0.007 -0.019 0.065
0.025 -0.001 0.061
-0.001 -0.021 0.059
-0.009 -0.021 0.055
-0.007 -0.019 0.061
-0.001 -0.021 0.061
0.009 -0.019 0.059
0.029 -0.009 0.037
0.031 0.001 0.047
0.023 -0.009 0.041
0.005 -0.025 0.053
0.017 -0.005 0.049
0.019 -0.005 0.049
0.003 -0.023 0.053
0.009 -0.019 0.055
0.019 -0.003 0.057
0.009 -0.019 0.063
0.021 -0.005 0.053
0.003 -0.019 0.067
0.005 -0.017 0.073
-0.003 -0.029 0.079
0.007 -0.015 0.077
0.011 -0.017 0.067
0.013 -0.015 0.073
0.009 -0.017 0.071
0.009 -0.017 0.073
0.011 -0.015 0.079
0.025 0.001 0.067
0.019 -0.011 0.075
0.019 -0.011 0.075
0.013 -0.013 0.081
0.019 -0.011 0.079
-0.003 -0.031 0.085
-0.001 -0.031 0.085
0.031 0.003 0.087
0.005 -0.029 0.089
0.017 -0.003 0.093
0.019 -0.005 0.091
0.013 -0.013 0.083
0.029 0.003 0.071
0.029 0.001 0.073
0.033 0.003 0.071
0.029 0.003 0.067
0.025 0.001 0.073
0.025 -0.005 0.081
0.031 0.001 0.085
0.023 -0.007 0.085
0.031 0.001 0.085
-0.039 -0.011 0.031
-0.037 -0.007 0.033
-0.035 -0.009 0.031
-0.035 -0.005 0.035
-0.021 0.001 0.037
-0.017 0.005 0.035
-0.017 0.005 0.033
-0.037 -0.033 0.039
-0.037 -0.031 0.041
-0.037 -0.035 0.055
-0.033 -0.005 0.043
-0.035 -0.019 0.047
-0.033 -0.019 0.051
-0.031 -0.005 0.041
-0.021 -0.001 0.039
-0.019 -0.001 0.041
-0.031 -0.009 0.047
-0.033 -0.019 0.053
-0.031 -0.019 0.059
-0.035 -0.027 0.061
-0.035 -0.029 0.063
-0.025 -0.013 0.055
-0.025 -0.019 0.061
-0.041 -0.007 0.041
-0.039 -0.029 0.045
-0.035 -0.007 0.039
-0.035 -0.021 0.049
-0.035 -0.025 0.061
-0.041 -0.009 0.037
-0.039 -0.007 0.039
-0.031 -0.003 0.037
-0.035 -0.005 0.035
-0.025 -0.003 0.037
-0.021 -0.003 0.041
-0.011 0.005 0.037
-0.011 0.005 0.039
-0.013 0.005 0.035
-0.013 0.005 0.037
-0.013 0.005 0.037
-0.011 0.005 0.037
-0.017 -0.003 0.043
-0.011 0.001 0.047
-0.029 -0.019 0.061
-0.031 -0.023 0.063
-0.025 -0.019 0.061
-0.017 -0.009 0.053
-0.013 -0.009 0.055
-0.017 -0.013 0.055
-0.019 -0.019 0.065
-0.007 -0.007 0.063
-0.011 -0.007 0.057
-0.005 -0.003 0.063
-0.049 -0.031 0.085
-0.047 -0.029 0.085
-0.047 -0.029 0.087
-0.041 -0.025 0.083
-0.039 -0.027 0.087
-0.037 -0.039 0.095
-0.039 -0.029 0.095
-0.047 -0.035 0.093
-0.031 -0.025 0.067
-0.029 -0.027 0.071
-0.029 -0.025 0.071
-0.027 -0.021 0.071
-0.019 -0.019 0.079
-0.035 -0.023 0.085
-0.033 -0.023 0.087
-0.027 -0.035 0.093
-0.027 -0.021 0.091
-0.017 -0.015 0.089
-0.017 -0.015 0.091
-0.033 -0.027 0.065
-0.047 -0.031 0.083
-0.043 -0.025 0.083
-0.041 -0.025 0.083
-0.037 -0.025 0.095
-0.029 -0.023 0.069
-0.025 -0.031 0.075
-0.013 -0.017 0.071
-0.009 -0.019 0.071
-0.015 -0.017 0.073
-0.003 -0.001 0.065
-0.003 -0.005 0.075
-0.033 -0.021 0.083
-0.021 -0.023 0.081
-0.033 -0.021 0.083
-0.021 -0.017 0.085
-0.025 -0.019 0.087
-0.033 -0.025 0.089
-0.027 -0.021 0.091
-0.025 -0.019 0.091
-0.021 -0.017 0.083
-0.017 -0.015 0.085
-0.011 -0.013 0.085
-0.003 -0.009 0.087
-0.015 -0.015 0.093
-0.007 -0.011 0.093
-0.005 -0.009 0.093
-0.039 -0.039 0.099
-0.041 -0.029 0.103
-0.043 -0.035 0.105
-0.041 -0.033 0.105
-0.029 -0.027 0.101
-0.013 -0.013 0.107
-0.041 -0.027 0.099
-0.039 -0.025 0.097
-0.039 -0.025 0.097
-0.033 -0.021 0.097
-0.027 -0.023 0.101
-0.025 -0.019 0.097
-0.019 -0.017 0.099
-0.023 -0.019 0.101
-0.013 -0.013 0.099
-0.011 -0.013 0.103
-0.015 -0.015 0.103
-0.015 -0.015 0.103
-0.007 -0.011 0.097
-0.017 -0.019 0.105
-0.017 -0.015 0.105
-0.015 -0.015 0.107
-0.015 -0.017 0.107
-0.009 -0.011 0.099
-0.007 -0.011 0.103
-0.013 0.003 0.043
-0.011 0.001 0.047
-0.007 -0.001 0.047
0.003 0.013 0.041
0.003 0.013 0.041
0.003 0.013 0.043
0.001 -0.003 0.043
0.003 0.015 0.047
0.007 0.029 0.047
0.005 0.031 0.053
0.007 0.031 0.053
-0.003 -0.001 0.059
0.001 0.001 0.057
0.007 -0.001 0.059
0.003 -0.001 0.057
0.005 0.015 0.051
0.013 0.007 0.055
0.005 0.029 0.057
0.005 0.029 0.059
0.011 0.001 0.067
-0.001 -0.001 0.077
-0.001 -0.005 0.079
0.003 0.003 0.077
0.005 0.005 0.077
0.011 0.001 0.067
0.009 0.007 0.079
-0.007 -0.011 0.087
-0.005 -0.015 0.083
-0.007 -0.011 0.091
-0.007 -0.011 0.093
-0.003 -0.009 0.095
-0.005 -0.009 0.089
0.001 -0.011 0.081
0.003 -0.011 0.085
0.007 0.003 0.087
0.007 -0.007 0.089
0.007 0.001 0.089
0.013 0.011 0.083
0.013 0.011 0.083
0.013 0.009 0.089
-0.009 -0.011 0.101
-0.017 0.003 0.031
-0.005 0.017 0.037
-0.007 0.015 0.037
-0.003 0.017 0.033
-0.003 0.017 0.035
-0.001 0.001 0.057
0.003 0.023 0.033
0.021 0.037 0.035
-0.005 0.017 0.037
0.001 0.011 0.037
-0.001 0.015 0.037
0.001 0.021 0.035
0.003 0.029 0.049
0.005 0.025 0.039
0.021 0.023 0.047
-0.001 0.019 0.033
0.003 0.023 0.039
0.009 0.023 0.033
0.007 0.025 0.041
0.003 0.027 0.033
0.011 0.029 0.037
0.005 0.029 0.047
0.023 0.039 0.037
0.007 0.031 0.049
0.017 0.033 0.049
0.015 0.037 0.045
0.015 0.033 0.047
0.011 0.005 0.053
-0.001 0.001 0.059
-0.001 0.001 0.061
0.011 0.031 0.057
0.005 0.031 0.055
0.025 0.017 0.053
0.013 0.027 0.061
0.005 0.017 0.051
0.003 0.023 0.051
0.003 0.029 0.051
0.009 0.031 0.055
0.005 0.025 0.057
0.005 0.029 0.061
0.019 0.033 0.053
0.023 0.017 0.059
0.027 0.019 0.057
0.025 0.019 0.061
0.025 0.033 0.061
0.013 0.033 0.045
0.015 0.037 0.043
0.015 0.035 0.047
0.025 0.021 0.065
0.025 0.039 0.057
0.027 0.033 0.063
0.013 0.033 0.045
0.019 0.035 0.033
0.019 0.037 0.035
0.021 0.041 0.041
0.023 0.041 0.041
0.029 0.037 0.059
0.029 0.039 0.055
0.009 0.007 0.079
0.013 0.021 0.071
0.009 0.021 0.067
0.017 0.011 0.075
0.015 0.013 0.077
0.017 0.007 0.073
0.017 0.009 0.073
0.011 0.023 0.067
0.011 0.025 0.065
0.011 0.019 0.069
0.017 0.017 0.077
0.015 0.013 0.083
0.015 0.013 0.085
0.011 0.005 0.089
0.013 0.007 0.091
0.021 0.017 0.087
0.015 0.013 0.087
0.017 0.003 0.093
0.019 0.007 0.093
0.021 0.015 0.089
0.021 0.011 0.091
0.025 0.011 0.091
0.025 0.011 0.091
0.021 0.019 0.081
0.021 0.019 0.083
0.025 0.021 0.071
0.027 0.021 0.073
0.031 0.023 0.073
0.029 0.029 0.067
0.033 0.031 0.069
0.031 0.029 0.069
0.035 0.027 0.073
0.041 0.033 0.075
0.033 0.025 0.083
0.035 0.031 0.087
0.037 0.031 0.087
