-0.039 -0.039 0.105
-0.043 -0.033 0.105
-0.017 -0.007 0.049
-0.045 -0.039 0.093
-0.039 -0.045 0.101
-0.013 -0.041 0.053
-0.009 -0.037 0.051
-0.021 -0.041 0.055
-0.039 -0.041 0.105
-0.043 -0.025 0.083
-0.033 -0.009 0.045
-0.043 -0.031 0.091
-0.043 -0.029 0.101
-0.021 -0.033 0.105
-0.031 -0.027 0.099
-0.037 -0.023 0.099
-0.023 -0.005 0.047
-0.039 -0.027 0.101
-0.033 -0.025 0.099
-0.009 -0.005 0.059
-0.041 -0.041 0.089
-0.037 -0.037 0.107
-0.023 -0.041 0.095
-0.033 -0.035 0.105
-0.009 -0.035 0.103
-0.041 -0.033 0.105
-0.045 -0.033 0.091
-0.047 -0.029 0.087
-0.041 -0.029 0.103
-0.027 -0.029 0.105
-0.021 -0.033 0.105
-0.015 -0.025 0.105
-0.015 -0.021 0.105
-0.017 -0.017 0.105
-0.031 -0.033 0.103
-0.023 -0.031 0.105
-0.025 -0.031 0.105
-0.025 -0.031 0.105
-0.025 -0.021 0.103
-0.021 -0.031 0.105
-0.007 -0.021 0.109
-0.007 -0.019 0.101
-0.017 -0.019 0.105
-0.001 -0.013 0.095
-0.037 -0.041 0.103
-0.039 -0.037 0.105
-0.033 -0.031 0.103
-0.031 -0.021 0.097
-0.005 -0.031 0.107
-0.007 -0.023 0.115
-0.007 -0.023 0.115
-0.007 -0.023 0.115
-0.005 -0.013 0.103
-0.003 -0.011 0.103
-0.009 -0.027 0.111
-0.001 -0.017 0.109
0.015 -0.009 0.087
0.007 -0.015 0.113
-0.009 -0.025 0.113
0.001 -0.019 0.111
-0.003 -0.009 0.103
0.011 -0.007 0.091
-0.003 -0.027 0.101
-0.001 -0.029 0.103
-0.003 -0.019 0.109
0.009 -0.015 0.113
0.023 -0.007 0.087
0.023 -0.001 0.091
-0.017 -0.001 0.041
-0.001 0.007 0.039
-0.005 0.013 0.039
-0.007 0.013 0.037
-0.001 0.009 0.039
-0.005 -0.009 0.101
0.017 0.017 0.065
0.015 0.013 0.087
-0.001 -0.001 0.077
0.005 0.007 0.047
0.003 0.011 0.045
0.005 0.013 0.049
-0.001 -0.011 0.103
0.003 0.023 0.039
0.003 0.023 0.051
0.005 0.023 0.061
0.005 0.025 0.059
0.009 0.019 0.055
0.011 0.019 0.051
0.007 0.021 0.061
0.013 0.013 0.051
0.015 0.013 0.057
0.011 0.007 0.089
0.003 0.001 0.081
0.007 0.005 0.085
0.019 -0.003 0.091
0.011 0.023 0.067
0.023 0.029 0.055
0.025 0.029 0.061
0.025 0.019 0.083
0.007 0.025 0.063
0.027 0.033 0.063
0.025 0.039 0.057
0.017 0.033 0.049
0.021 0.037 0.055
0.027 0.035 0.061
0.011 0.003 0.091
0.013 -0.003 0.093
0.013 0.005 0.091
0.009 0.001 0.089
0.031 0.017 0.089
0.025 0.011 0.093
0.031 0.017 0.089
0.033 0.019 0.085
0.033 0.023 0.081
0.035 0.027 0.087
0.039 0.025 0.085
0.033 0.023 0.081
0.037 0.031 0.089
-0.007 -0.037 0.033
0.003 -0.031 0.033
0.005 -0.027 0.033
-0.015 -0.041 0.045
-0.017 -0.041 0.053
-0.013 -0.043 0.039
-0.011 -0.041 0.039
-0.011 -0.039 0.041
-0.013 -0.041 0.041
-0.027 -0.041 0.053
0.001 -0.033 0.037
-0.005 -0.035 0.043
-0.007 -0.037 0.047
-0.005 -0.035 0.045
-0.003 -0.033 0.043
-0.007 -0.035 0.047
0.003 -0.029 0.043
0.005 -0.025 0.045
-0.011 -0.039 0.053
-0.013 -0.029 0.057
-0.013 -0.031 0.059
-0.013 -0.031 0.059
0.003 -0.033 0.035
0.005 -0.029 0.035
0.005 -0.029 0.037
0.005 -0.017 0.041
0.007 -0.007 0.045
-0.013 -0.029 0.057
0.007 -0.021 0.053
0.011 -0.013 0.053
0.009 -0.019 0.059
-0.041 -0.039 0.091
-0.023 -0.039 0.083
-0.017 -0.037 0.081
-0.013 -0.037 0.095
-0.007 -0.035 0.095
-0.011 -0.035 0.085
-0.019 -0.037 0.089
-0.011 -0.033 0.077
-0.007 -0.027 0.069
-0.001 -0.017 0.069
-0.001 -0.023 0.077
-0.001 -0.021 0.079
0.017 -0.013 0.069
-0.005 -0.033 0.089
-0.001 -0.033 0.091
-0.007 -0.031 0.083
-0.005 -0.031 0.083
-0.001 -0.025 0.083
0.001 -0.023 0.083
0.001 -0.019 0.093
-0.023 -0.037 0.099
-0.023 -0.039 0.103
-0.033 -0.033 0.105
-0.021 -0.037 0.097
-0.015 -0.035 0.105
0.001 -0.033 0.097
0.003 -0.031 0.101
0.009 -0.027 0.095
0.007 -0.029 0.103
0.005 -0.019 0.107
0.001 -0.021 0.105
0.001 -0.019 0.105
0.005 -0.029 0.041
0.009 -0.017 0.047
0.025 -0.009 0.043
0.005 -0.025 0.051
0.005 -0.023 0.053
0.011 -0.017 0.055
0.011 -0.011 0.053
0.011 -0.009 0.051
0.009 -0.007 0.051
0.015 -0.009 0.063
0.015 -0.007 0.061
0.027 -0.003 0.053
0.037 -0.005 0.037
0.007 -0.019 0.067
0.007 -0.019 0.065
0.015 -0.001 0.067
0.019 -0.011 0.075
0.005 -0.027 0.091
0.009 -0.027 0.095
0.007 -0.013 0.083
0.013 -0.013 0.083
0.017 -0.011 0.083
0.021 -0.009 0.083
-0.009 0.001 0.035
0.001 -0.003 0.043
0.035 -0.003 0.033
0.027 0.009 0.033
0.035 0.011 0.033
0.035 0.019 0.033
0.035 0.017 0.033
0.035 0.017 0.031
0.035 0.001 0.037
0.035 -0.001 0.035
0.033 0.009 0.045
0.033 -0.001 0.041
0.033 0.009 0.041
0.031 0.001 0.055
0.023 -0.003 0.059
0.027 -0.001 0.061
0.033 0.011 0.057
0.035 0.009 0.061
0.025 0.027 0.049
0.029 0.029 0.051
0.033 0.017 0.063
0.031 0.027 0.057
0.033 0.011 0.043
0.033 0.005 0.049
0.033 0.005 0.061
0.035 0.025 0.061
0.027 0.027 0.045
0.031 0.031 0.041
0.031 0.035 0.043
0.033 0.031 0.051
0.015 -0.007 0.065
0.027 -0.003 0.079
0.029 0.003 0.069
0.031 0.003 0.079
0.035 0.021 0.067
0.023 -0.007 0.081
0.023 -0.007 0.087
0.031 0.003 0.083
0.029 0.011 0.093
0.033 0.015 0.083
0.035 0.015 0.079
0.035 0.017 0.069
0.039 0.025 0.073
0.041 0.029 0.073
0.043 0.029 0.077
0.035 0.013 0.081
0.035 0.013 0.083
0.033 0.015 0.085
0.039 0.023 0.083
0.037 0.027 0.065
-0.037 -0.009 0.031
-0.041 -0.009 0.037
-0.033 -0.039 0.041
-0.035 -0.033 0.061
-0.025 -0.039 0.035
-0.027 -0.041 0.041
-0.023 -0.047 0.041
-0.033 -0.039 0.047
-0.039 -0.029 0.045
-0.035 -0.039 0.053
-0.035 -0.037 0.057
-0.037 -0.019 0.033
-0.037 -0.031 0.041
-0.043 -0.009 0.041
-0.037 -0.025 0.051
-0.039 -0.017 0.039
-0.043 -0.011 0.041
-0.025 -0.007 0.049
-0.013 -0.003 0.045
-0.029 -0.015 0.057
-0.029 -0.015 0.057
-0.027 -0.019 0.063
-0.029 -0.017 0.057
-0.037 -0.027 0.055
-0.033 -0.021 0.057
-0.027 -0.017 0.059
-0.029 -0.019 0.061
-0.031 -0.015 0.055
-0.029 -0.011 0.053
-0.019 -0.007 0.049
-0.009 -0.001 0.051
-0.005 -0.001 0.055
-0.011 -0.009 0.057
-0.007 -0.009 0.063
-0.007 -0.007 0.061
-0.047 -0.035 0.093
-0.027 -0.037 0.069
-0.023 -0.035 0.073
-0.047 -0.033 0.089
-0.037 -0.041 0.095
-0.033 -0.037 0.095
-0.047 -0.027 0.085
-0.029 -0.023 0.069
-0.027 -0.021 0.069
-0.007 -0.009 0.067
-0.047 -0.027 0.083
-0.033 -0.023 0.087
-0.041 -0.025 0.085
-0.019 -0.015 0.091
-0.043 -0.035 0.105
-0.027 -0.029 0.105
-0.041 -0.029 0.097
-0.039 -0.025 0.101
-0.025 -0.019 0.099
-0.029 -0.023 0.103
-0.021 -0.021 0.105
-0.025 -0.019 0.099
-0.017 -0.015 0.099
-0.035 -0.019 0.047
-0.033 -0.013 0.047
-0.013 -0.001 0.045
-0.013 0.001 0.045
-0.013 0.001 0.045
-0.007 -0.011 0.065
-0.007 -0.009 0.063
0.011 0.001 0.053
-0.003 -0.017 0.073
-0.001 -0.007 0.079
-0.001 -0.005 0.077
0.001 -0.005 0.081
0.003 -0.009 0.083
-0.021 0.001 0.037
-0.005 0.011 0.037
-0.011 0.001 0.047
-0.003 0.009 0.035
-0.001 0.019 0.035
0.005 0.025 0.035
0.001 0.005 0.037
0.005 0.005 0.043
0.005 0.007 0.047
0.003 0.019 0.047
0.003 0.023 0.049
0.003 0.025 0.041
0.001 0.021 0.035
0.005 0.021 0.049
0.005 0.017 0.049
0.003 0.025 0.047
0.013 0.001 0.055
0.017 0.015 0.053
0.019 0.001 0.063
0.005 0.021 0.055
0.007 0.031 0.049
0.003 0.025 0.055
0.005 0.023 0.059
0.009 0.023 0.063
0.011 0.017 0.065
0.027 0.029 0.063
0.005 0.015 0.039
0.003 0.015 0.043
0.003 0.023 0.043
0.013 0.035 0.037
0.017 0.039 0.041
0.021 0.039 0.053
0.021 0.041 0.049
0.023 0.033 0.057
0.023 0.033 0.059
0.015 0.009 0.075
0.009 0.021 0.065
0.011 0.017 0.071
0.011 0.017 0.069
0.023 0.021 0.071
0.019 0.019 0.079
0.015 0.015 0.081
0.011 0.007 0.089
0.013 0.007 0.091
0.021 0.015 0.089
0.013 0.005 0.091
0.019 0.007 0.093
0.021 0.017 0.087
0.021 0.017 0.087
0.017 0.011 0.069
0.011 0.005 0.075
0.021 0.019 0.083
0.039 0.033 0.079
-0.033 -0.005 0.037
-0.033 -0.003 0.035
-0.017 0.003 0.037
-0.033 -0.005 0.033
-0.023 -0.015 0.031
-0.037 -0.031 0.041
-0.043 -0.011 0.043
-0.043 -0.009 0.043
-0.035 -0.007 0.045
-0.031 -0.015 0.055
-0.037 -0.027 0.041
-0.043 -0.009 0.043
-0.041 -0.013 0.033
-0.041 -0.007 0.043
-0.039 -0.029 0.049
-0.033 -0.021 0.055
-0.037 -0.007 0.037
-0.019 -0.005 0.047
-0.033 -0.003 0.033
-0.013 0.005 0.037
-0.031 -0.021 0.063
-0.027 -0.019 0.061
-0.023 -0.017 0.059
-0.021 -0.017 0.057
-0.025 -0.011 0.053
-0.017 -0.009 0.053
-0.013 -0.001 0.049
-0.049 -0.037 0.091
-0.049 -0.031 0.085
-0.039 -0.027 0.095
-0.033 -0.029 0.067
-0.019 -0.017 0.077
-0.025 -0.019 0.087
-0.019 -0.019 0.065
-0.017 -0.017 0.073
-0.003 -0.017 0.079
-0.007 -0.009 0.067
-0.001 -0.007 0.077
-0.031 -0.023 0.089
-0.027 -0.019 0.095
-0.009 -0.013 0.085
-0.017 -0.015 0.091
-0.011 -0.011 0.089
-0.005 -0.009 0.089
-0.009 -0.011 0.095
-0.003 -0.009 0.093
-0.041 -0.029 0.097
-0.035 -0.023 0.097
-0.027 -0.021 0.103
-0.025 -0.021 0.103
-0.017 -0.015 0.097
-0.041 -0.027 0.099
-0.027 -0.027 0.105
-0.019 -0.017 0.103
-0.015 -0.015 0.103
-0.009 -0.011 0.099
-0.011 -0.013 0.101
-0.017 -0.015 0.097
-0.003 -0.009 0.097
-0.011 0.003 0.041
-0.009 0.003 0.041
-0.009 -0.001 0.049
-0.005 -0.003 0.039
-0.001 -0.005 0.039
-0.003 -0.001 0.045
0.003 0.013 0.045
0.003 0.017 0.045
0.003 0.027 0.043
0.007 0.029 0.045
0.005 0.031 0.053
0.003 0.001 0.063
0.011 -0.001 0.063
0.011 0.029 0.043
-0.005 -0.005 0.067
-0.001 -0.005 0.077
-0.001 -0.003 0.079
0.009 0.003 0.071
0.009 0.007 0.077
-0.005 -0.009 0.095
-0.005 -0.009 0.093
0.003 -0.007 0.083
0.009 0.007 0.083
0.009 0.007 0.085
0.013 0.011 0.087
-0.009 -0.013 0.097
-0.007 -0.011 0.097
0.007 -0.015 0.109
-0.021 0.001 0.037
-0.017 0.005 0.035
-0.013 0.003 0.039
-0.013 0.005 0.037
0.011 0.021 0.031
0.013 0.029 0.031
0.013 0.033 0.033
0.007 0.025 0.041
0.011 0.031 0.041
0.013 0.035 0.039
0.013 0.031 0.045
0.017 0.033 0.049
0.001 0.021 0.033
0.003 0.019 0.039
0.007 0.023 0.039
0.003 0.021 0.041
0.003 0.023 0.045
0.011 0.025 0.045
0.011 0.029 0.037
0.015 0.037 0.045
0.013 0.001 0.057
0.025 0.017 0.053
0.027 0.019 0.057
0.003 0.025 0.051
0.005 0.029 0.049
0.003 0.027 0.053
0.023 0.017 0.057
0.025 0.031 0.061
0.011 0.031 0.041
0.023 0.021 0.065
0.029 0.037 0.061
0.017 0.035 0.033
0.021 0.035 0.053
-0.001 0.001 0.071
0.005 0.003 0.071
0.009 0.005 0.075
0.017 0.013 0.075
0.021 0.019 0.077
0.019 0.019 0.079
0.029 0.021 0.079
0.007 0.005 0.085
0.023 0.015 0.089
0.025 0.015 0.089
0.021 0.011 0.091
0.019 0.011 0.091
0.027 0.021 0.069
0.027 0.021 0.073
0.039 0.033 0.079
