-0.049 -0.007 0.051
-0.027 -0.011 0.043
-0.029 -0.011 0.045
-0.035 -0.013 0.049
-0.021 -0.017 0.043
-0.011 -0.007 0.043
-0.029 -0.015 0.053
-0.025 -0.017 0.057
-0.027 -0.015 0.059
0.005 -0.013 0.037
0.023 -0.019 0.035
0.027 -0.021 0.037
0.005 -0.009 0.043
0.013 -0.015 0.037
0.025 -0.005 0.055
0.029 -0.019 0.043
0.029 -0.003 0.083
0.031 -0.003 0.093
-0.045 -0.001 0.039
-0.047 0.003 0.063
-0.041 -0.005 0.061
-0.039 -0.009 0.055
-0.023 -0.017 0.059
-0.025 0.001 0.069
-0.005 0.007 0.061
-0.033 0.003 0.069
-0.043 0.005 0.075
-0.021 0.001 0.077
-0.021 -0.003 0.073
-0.023 0.001 0.079
-0.023 0.011 0.093
-0.009 0.005 0.089
-0.011 0.003 0.089
-0.003 0.005 0.051
0.021 -0.015 0.043
0.037 -0.009 0.057
-0.001 0.001 0.077
-0.001 0.001 0.081
0.021 -0.001 0.083
0.025 -0.003 0.085
0.029 -0.003 0.085
0.035 -0.003 0.091
0.037 -0.007 0.097
0.031 -0.005 0.097
0.013 0.023 0.097
0.015 0.001 0.103
0.045 -0.001 0.103
-0.039 -0.015 0.047
-0.037 -0.009 0.053
-0.003 -0.015 0.033
-0.003 -0.013 0.037
-0.003 -0.015 0.035
0.007 -0.015 0.035
-0.023 -0.019 0.053
-0.023 -0.015 0.061
-0.039 -0.001 0.065
-0.021 -0.005 0.071
0.033 -0.019 0.031
0.035 -0.005 0.031
0.033 -0.021 0.035
0.033 -0.021 0.039
0.027 -0.021 0.037
0.037 -0.021 0.035
0.033 -0.023 0.037
0.035 -0.007 0.063
0.037 -0.021 0.033
0.039 -0.019 0.041
0.045 -0.003 0.035
0.035 -0.015 0.045
0.039 -0.011 0.047
0.035 -0.009 0.057
0.049 -0.005 0.053
0.041 -0.001 0.071
0.049 -0.013 0.083
0.055 -0.011 0.089
0.051 -0.009 0.101
-0.009 -0.015 0.035
-0.001 -0.013 0.033
-0.019 -0.015 0.041
-0.019 -0.017 0.045
-0.023 0.001 0.061
-0.021 -0.005 0.063
-0.013 -0.009 0.047
0.015 -0.015 0.037
0.017 -0.015 0.037
-0.009 -0.003 0.045
-0.019 0.001 0.055
-0.021 0.001 0.057
0.001 -0.001 0.059
-0.033 0.003 0.079
-0.039 0.009 0.081
-0.021 0.001 0.083
-0.021 0.001 0.077
-0.001 -0.001 0.071
-0.003 0.001 0.075
-0.023 0.003 0.087
-0.011 0.003 0.087
0.041 -0.007 0.035
0.039 -0.013 0.043
0.039 -0.009 0.053
0.049 -0.003 0.039
0.053 0.017 0.035
0.049 0.007 0.059
0.013 0.005 0.067
0.015 0.007 0.067
0.027 -0.001 0.075
0.013 0.005 0.067
0.027 -0.003 0.087
0.015 0.001 0.101
0.049 -0.009 0.097
-0.009 0.009 0.053
-0.007 0.009 0.051
0.019 0.021 0.043
0.025 0.023 0.039
0.037 0.021 0.039
0.041 0.019 0.041
0.037 0.021 0.049
0.035 0.021 0.043
0.031 0.013 0.063
0.033 0.013 0.063
0.039 0.013 0.059
0.035 0.013 0.069
0.031 0.019 0.097
0.047 0.007 0.087
0.053 0.005 0.085
0.057 0.003 0.085
0.059 -0.003 0.091
-0.027 0.021 0.043
-0.033 0.017 0.035
-0.025 0.021 0.045
-0.017 0.021 0.055
-0.025 0.021 0.061
-0.019 0.021 0.059
-0.041 0.011 0.073
-0.017 0.013 0.067
-0.021 0.019 0.077
-0.007 0.021 0.075
-0.021 0.019 0.071
-0.027 0.021 0.075
-0.023 0.021 0.083
-0.029 0.019 0.083
0.001 0.015 0.087
-0.003 0.015 0.089
-0.015 0.017 0.091
0.025 0.023 0.033
0.017 0.023 0.039
0.015 0.023 0.037
0.003 0.019 0.053
0.017 0.011 0.059
0.023 0.009 0.063
0.005 0.019 0.051
0.029 0.019 0.049
0.045 0.013 0.047
0.043 0.017 0.049
0.009 0.015 0.071
0.013 0.015 0.065
0.027 0.015 0.067
0.021 0.015 0.071
0.005 0.019 0.075
0.007 0.013 0.083
0.017 0.025 0.097
0.031 0.013 0.081
0.019 0.017 0.081
0.023 0.017 0.081
0.035 0.017 0.093
0.053 0.005 0.083
0.051 0.005 0.089
0.029 0.021 0.105
0.043 0.009 0.099
0.035 0.015 0.101
0.051 0.007 0.099
0.017 0.013 0.057
0.007 0.017 0.071
0.037 0.015 0.057
0.041 0.015 0.057
0.019 0.011 0.057
0.041 0.019 0.049
0.037 0.017 0.055
0.049 -0.005 0.045
0.051 0.007 0.051
0.049 0.005 0.039
0.051 0.001 0.053
0.051 -0.001 0.043
0.037 0.005 0.077
0.051 0.005 0.089
0.055 0.007 0.097
0.059 -0.005 0.089
0.057 0.001 0.105
0.029 0.021 0.043
-0.017 0.017 0.065
0.003 0.021 0.065
0.017 0.019 0.045
-0.015 0.023 0.039
-0.013 0.027 0.037
0.009 0.019 0.061
0.015 0.015 0.059
0.017 0.011 0.059
-0.019 0.021 0.059
-0.011 0.021 0.087
0.005 0.015 0.079
0.027 0.019 0.085
-0.023 0.021 0.077
0.017 0.023 0.091
0.025 0.021 0.087
-0.009 0.021 0.081
0.049 0.019 0.037
0.031 0.021 0.033
0.029 0.023 0.033
0.051 0.013 0.037
0.047 0.023 0.039
0.045 0.013 0.043
0.047 0.011 0.059
0.033 0.015 0.073
0.033 0.015 0.085
0.027 0.019 0.087
0.031 0.017 0.093
0.047 0.011 0.093
0.057 0.003 0.087
0.027 0.009 0.107
0.027 0.011 0.107
0.043 0.007 0.103
0.043 0.013 0.101
-0.041 -0.013 0.051
-0.049 -0.003 0.061
-0.031 -0.003 0.047
-0.031 -0.009 0.047
-0.031 -0.009 0.047
-0.021 -0.013 0.061
-0.021 -0.013 0.061
-0.009 -0.007 0.037
-0.027 -0.017 0.057
-0.027 -0.017 0.057
-0.001 -0.001 0.069
0.021 -0.007 0.051
0.005 -0.009 0.043
0.003 -0.003 0.051
0.011 -0.011 0.043
0.025 -0.013 0.051
0.023 -0.017 0.045
0.013 -0.005 0.051
0.025 -0.003 0.055
0.035 -0.009 0.057
0.023 -0.001 0.089
0.031 -0.005 0.097
0.049 -0.005 0.105
0.061 -0.007 0.093
-0.025 -0.001 0.047
-0.025 0.001 0.047
-0.029 0.001 0.047
-0.037 0.009 0.079
-0.033 0.003 0.079
-0.025 0.001 0.063
-0.019 0.001 0.085
-0.017 0.003 0.089
-0.027 0.011 0.093
-0.031 0.013 0.091
-0.031 0.001 0.073
-0.021 0.001 0.085
-0.027 0.013 0.093
-0.017 0.005 0.091
-0.007 0.005 0.089
0.023 -0.001 0.075
0.027 -0.003 0.071
-0.007 0.001 0.083
0.009 0.001 0.069
0.011 0.005 0.103
0.007 0.007 0.079
0.017 0.007 0.101
0.017 0.001 0.087
0.015 0.009 0.097
0.019 0.009 0.107
0.003 0.011 0.089
0.019 0.013 0.115
0.021 0.013 0.115
0.035 0.001 0.105
0.023 0.005 0.105
0.027 0.007 0.105
0.031 0.007 0.105
0.033 0.001 0.105
0.033 0.011 0.105
0.045 -0.001 0.103
0.037 0.011 0.105
0.035 0.001 0.105
0.037 0.009 0.105
-0.035 -0.015 0.039
-0.031 -0.013 0.033
-0.039 -0.015 0.039
-0.039 -0.015 0.043
-0.023 -0.017 0.049
-0.023 -0.019 0.055
-0.001 -0.015 0.033
-0.015 -0.009 0.045
-0.023 -0.015 0.059
0.039 -0.017 0.035
0.039 -0.007 0.033
0.037 -0.021 0.039
0.035 -0.015 0.045
0.033 -0.021 0.035
0.011 -0.007 0.051
0.031 -0.013 0.051
0.037 -0.021 0.043
0.037 -0.021 0.043
0.045 -0.007 0.047
0.045 -0.005 0.061
0.043 -0.009 0.099
-0.025 0.001 0.063
-0.011 -0.003 0.049
-0.011 -0.005 0.049
0.041 -0.011 0.043
0.013 -0.003 0.057
0.047 -0.007 0.055
-0.023 0.001 0.065
-0.025 0.001 0.073
-0.005 0.001 0.077
0.001 0.001 0.079
-0.041 0.005 0.085
-0.019 0.003 0.069
0.025 -0.001 0.075
-0.007 0.005 0.089
0.057 -0.013 0.085
0.055 -0.013 0.087
0.039 -0.011 0.035
0.039 -0.009 0.035
0.047 0.003 0.035
0.049 0.009 0.045
0.049 0.009 0.049
0.047 -0.005 0.057
0.053 0.017 0.035
0.051 0.003 0.051
0.009 0.003 0.071
0.039 -0.005 0.065
0.041 0.001 0.073
0.035 0.011 0.079
0.061 0.001 0.085
0.041 0.001 0.095
0.049 0.009 0.093
0.057 0.005 0.097
-0.041 -0.015 0.041
-0.043 -0.011 0.055
-0.021 -0.017 0.047
-0.005 -0.013 0.039
-0.011 -0.005 0.047
-0.025 -0.019 0.055
-0.021 -0.017 0.055
-0.025 -0.017 0.059
-0.023 -0.009 0.065
0.025 -0.011 0.053
0.043 -0.007 0.059
0.051 -0.011 0.087
0.055 -0.013 0.085
0.059 -0.007 0.093
-0.017 -0.013 0.045
-0.041 -0.001 0.067
-0.017 -0.011 0.045
-0.007 0.007 0.039
-0.009 0.001 0.047
-0.011 0.003 0.051
-0.035 0.005 0.075
-0.025 0.001 0.083
-0.047 0.005 0.089
-0.005 0.001 0.075
-0.011 0.003 0.077
-0.021 0.005 0.091
-0.025 0.009 0.091
-0.001 0.007 0.087
-0.007 0.007 0.091
0.017 -0.011 0.047
0.015 0.003 0.061
0.051 -0.003 0.053
0.049 -0.001 0.057
0.041 -0.001 0.071
0.009 0.005 0.073
0.027 -0.003 0.071
0.027 -0.001 0.075
0.003 0.005 0.083
0.007 0.005 0.087
0.015 0.001 0.089
0.043 0.001 0.071
0.037 -0.005 0.089
0.041 -0.009 0.099
0.007 0.017 0.113
0.007 0.017 0.113
0.035 0.009 0.105
-0.017 -0.005 0.031
-0.039 -0.011 0.053
-0.043 -0.005 0.063
-0.019 -0.015 0.033
-0.021 -0.015 0.041
-0.013 -0.007 0.049
0.009 -0.013 0.041
0.021 -0.015 0.041
0.033 -0.003 0.071
0.047 -0.011 0.085
0.043 -0.007 0.087
0.039 -0.007 0.095
0.051 -0.013 0.083
-0.019 -0.015 0.033
-0.037 0.001 0.059
-0.013 0.007 0.061
-0.017 0.005 0.065
-0.017 0.005 0.067
-0.015 0.007 0.073
-0.015 0.007 0.065
-0.023 0.011 0.095
0.017 -0.015 0.041
0.011 -0.009 0.045
0.015 0.003 0.061
0.027 -0.001 0.059
0.019 0.003 0.057
0.009 -0.007 0.049
0.007 -0.001 0.061
0.041 -0.005 0.033
0.043 -0.009 0.041
0.049 0.007 0.041
0.011 0.005 0.071
0.007 0.003 0.077
0.023 -0.001 0.077
0.031 -0.001 0.077
0.011 0.003 0.069
0.013 0.003 0.095
0.017 0.001 0.093
0.003 0.005 0.083
0.019 0.001 0.085
0.021 -0.001 0.087
0.035 -0.003 0.071
0.039 -0.003 0.069
0.035 -0.005 0.089
0.039 -0.007 0.087
0.015 0.001 0.095
0.017 0.001 0.099
-0.041 -0.005 0.033
-0.041 0.001 0.045
-0.049 -0.005 0.055
-0.035 0.009 0.041
-0.033 0.011 0.041
-0.027 -0.001 0.047
-0.047 0.007 0.065
-0.045 0.011 0.071
-0.027 0.019 0.051
-0.027 0.019 0.051
-0.003 0.017 0.057
-0.001 0.019 0.057
0.007 0.019 0.051
-0.003 0.019 0.061
0.011 0.015 0.089
-0.045 0.005 0.057
-0.027 0.021 0.041
-0.029 0.011 0.053
-0.053 0.005 0.083
-0.055 0.005 0.087
-0.037 0.015 0.073
-0.031 0.019 0.077
-0.021 0.019 0.075
-0.015 0.019 0.075
-0.025 0.019 0.087
-0.021 0.015 0.093
-0.015 0.017 0.091
-0.021 0.021 0.087
-0.009 0.021 0.081
0.013 0.017 0.035
0.013 0.023 0.037
-0.019 0.021 0.047
0.013 0.023 0.037
-0.003 0.021 0.075
-0.003 0.021 0.079
0.027 0.015 0.067
0.003 0.021 0.069
0.011 0.015 0.087
0.013 0.027 0.095
0.017 0.017 0.093
0.015 0.021 0.097
0.013 0.025 0.097
0.011 0.007 0.101
0.019 0.025 0.099
-0.045 0.001 0.047
-0.027 0.013 0.051
-0.029 0.005 0.047
-0.023 0.023 0.041
-0.019 0.023 0.045
0.009 -0.001 0.033
0.009 0.015 0.037
0.007 0.019 0.059
0.027 0.021 0.039
0.027 0.009 0.059
0.037 0.015 0.085
0.059 -0.003 0.091
-0.043 0.005 0.057
-0.029 0.019 0.041
-0.021 0.025 0.041
-0.027 0.009 0.049
-0.021 0.021 0.053
-0.007 0.015 0.065
-0.049 0.009 0.075
-0.047 0.011 0.079
-0.045 0.011 0.077
-0.047 0.005 0.089
-0.035 0.017 0.079
-0.021 0.019 0.067
-0.019 0.019 0.075
-0.007 0.015 0.091
-0.009 0.021 0.081
0.005 0.003 0.037
0.007 0.019 0.047
0.045 0.013 0.057
0.013 0.013 0.077
-0.001 0.019 0.085
0.025 0.019 0.083
0.019 0.017 0.083
0.035 0.013 0.077
0.033 0.015 0.083
0.009 0.007 0.101
0.039 0.015 0.101
