-0.015 -0.013 0.039
-0.013 -0.009 0.045
-0.025 -0.019 0.051
0.011 -0.007 0.049
0.017 -0.005 0.053
0.019 -0.003 0.055
0.035 -0.011 0.049
0.041 -0.009 0.055
0.031 -0.003 0.093
0.039 -0.005 0.089
0.051 -0.013 0.083
-0.047 -0.011 0.049
-0.049 -0.003 0.055
-0.047 0.001 0.063
-0.041 -0.005 0.061
-0.027 -0.011 0.043
-0.027 -0.017 0.055
-0.035 -0.007 0.051
-0.025 -0.017 0.059
-0.049 0.005 0.079
-0.003 0.001 0.079
-0.005 0.011 0.093
-0.031 0.007 0.087
0.043 -0.005 0.065
0.003 0.001 0.075
-0.007 0.001 0.073
0.007 0.005 0.093
0.009 0.003 0.095
0.009 0.003 0.089
0.013 0.023 0.095
0.025 0.001 0.081
0.037 -0.007 0.087
0.013 0.003 0.101
0.017 0.003 0.109
0.043 -0.009 0.099
0.045 -0.005 0.101
0.045 -0.005 0.101
-0.005 -0.015 0.033
-0.039 -0.011 0.053
-0.013 -0.013 0.033
-0.015 -0.009 0.041
-0.019 -0.015 0.049
-0.019 -0.009 0.057
0.049 -0.003 0.043
0.003 -0.001 0.071
0.037 -0.005 0.069
0.047 -0.009 0.099
0.053 -0.009 0.101
-0.015 -0.013 0.033
-0.007 -0.015 0.035
0.011 -0.009 0.047
0.009 -0.009 0.045
-0.003 -0.007 0.039
-0.009 0.003 0.041
-0.009 0.007 0.051
0.001 -0.001 0.059
-0.049 0.005 0.077
-0.019 0.005 0.071
-0.021 0.001 0.079
-0.011 0.011 0.093
0.047 -0.007 0.053
0.017 -0.001 0.057
0.051 0.001 0.047
0.053 0.015 0.035
0.029 -0.003 0.065
0.023 -0.001 0.073
0.013 0.003 0.087
0.037 -0.005 0.093
0.049 -0.013 0.083
0.047 -0.005 0.083
0.017 0.001 0.103
-0.007 0.011 0.043
-0.007 0.011 0.039
-0.011 0.009 0.057
-0.015 0.013 0.065
0.041 0.017 0.043
0.019 0.015 0.055
0.043 0.017 0.047
0.045 0.011 0.059
0.041 0.013 0.091
0.041 0.013 0.095
0.045 0.009 0.091
0.055 0.003 0.087
-0.029 0.021 0.039
-0.031 0.015 0.045
-0.019 0.027 0.039
-0.009 0.009 0.037
-0.007 0.011 0.043
-0.015 0.015 0.063
-0.051 0.007 0.087
-0.045 0.007 0.087
-0.023 0.019 0.069
-0.007 0.021 0.075
0.017 0.023 0.039
0.025 0.023 0.035
0.005 0.017 0.045
0.019 0.025 0.035
0.029 0.019 0.049
0.027 0.011 0.061
0.031 0.011 0.057
0.019 0.017 0.051
0.051 0.017 0.039
0.049 0.019 0.039
0.023 0.015 0.069
0.035 0.017 0.095
0.023 0.023 0.091
0.027 0.021 0.093
0.041 0.011 0.087
0.055 0.003 0.089
0.025 0.023 0.101
0.025 0.013 0.109
0.007 0.019 0.111
0.007 0.017 0.113
0.033 0.017 0.103
0.039 0.015 0.101
0.037 0.011 0.105
0.035 0.021 0.045
0.013 0.015 0.061
0.039 0.021 0.049
0.043 0.017 0.053
0.041 0.015 0.057
0.007 0.017 0.073
0.043 0.013 0.061
0.051 0.003 0.057
0.047 0.007 0.065
0.045 -0.005 0.037
0.049 -0.005 0.055
0.047 -0.001 0.061
0.049 0.001 0.089
0.047 -0.005 0.095
0.047 -0.005 0.095
-0.009 0.017 0.045
0.005 0.019 0.071
-0.009 0.017 0.049
-0.011 0.019 0.051
-0.011 0.021 0.041
-0.017 0.021 0.047
0.017 0.015 0.057
0.009 0.019 0.055
0.013 0.021 0.053
0.011 0.019 0.059
-0.021 0.021 0.061
-0.021 0.019 0.073
-0.021 0.019 0.071
0.017 0.025 0.087
-0.013 0.021 0.081
0.023 0.021 0.085
0.031 0.015 0.075
-0.021 0.019 0.071
-0.011 0.021 0.077
0.023 0.023 0.091
0.019 0.023 0.095
0.021 0.025 0.099
-0.015 0.019 0.089
0.017 0.025 0.089
0.039 0.021 0.049
0.037 0.021 0.051
0.013 0.021 0.053
0.009 0.019 0.057
0.053 0.015 0.037
0.027 0.017 0.079
0.025 0.017 0.081
0.027 0.015 0.071
0.045 0.009 0.083
0.027 0.021 0.089
0.039 0.013 0.087
0.027 0.017 0.105
0.035 0.013 0.105
0.033 0.013 0.105
0.025 0.013 0.109
-0.039 -0.013 0.051
-0.039 -0.007 0.057
-0.041 -0.003 0.065
-0.031 -0.005 0.047
-0.009 -0.011 0.037
0.025 -0.021 0.035
0.007 -0.013 0.039
0.009 -0.011 0.043
0.017 -0.015 0.041
0.023 -0.015 0.045
0.029 -0.015 0.047
0.021 -0.001 0.085
0.031 -0.005 0.085
0.055 -0.011 0.089
0.047 -0.009 0.101
0.033 -0.001 0.105
0.049 -0.005 0.105
-0.023 0.001 0.057
-0.029 0.001 0.047
-0.025 0.015 0.091
-0.015 0.003 0.089
-0.023 0.011 0.095
-0.049 0.003 0.085
-0.033 0.005 0.083
-0.049 0.007 0.087
-0.047 0.005 0.089
-0.037 0.009 0.083
-0.017 0.009 0.093
-0.001 0.001 0.081
-0.011 0.019 0.089
-0.009 0.015 0.091
-0.009 0.015 0.091
0.025 0.001 0.057
-0.001 0.009 0.089
-0.003 0.009 0.089
0.005 0.007 0.101
0.007 0.011 0.085
0.019 0.001 0.109
0.031 -0.005 0.087
0.025 -0.001 0.105
0.025 0.003 0.105
0.017 0.009 0.101
0.007 0.001 0.071
0.007 0.009 0.081
0.019 0.009 0.107
0.027 0.003 0.105
0.037 0.005 0.105
0.031 0.009 0.105
0.009 0.003 0.097
0.013 0.015 0.111
0.017 0.021 0.101
0.025 0.019 0.107
0.053 -0.001 0.105
-0.009 -0.015 0.033
-0.039 -0.015 0.047
-0.021 -0.017 0.053
-0.021 -0.015 0.055
-0.019 -0.011 0.055
0.037 -0.025 0.041
-0.011 -0.007 0.041
-0.015 -0.007 0.051
0.035 -0.023 0.037
0.035 -0.003 0.091
0.041 -0.003 0.069
0.057 -0.009 0.089
0.059 -0.009 0.087
-0.013 -0.009 0.043
0.033 -0.021 0.045
0.031 -0.021 0.045
0.041 -0.009 0.049
0.039 -0.009 0.051
0.045 -0.009 0.045
0.007 -0.003 0.057
0.041 -0.007 0.059
0.013 -0.001 0.059
-0.023 -0.009 0.067
-0.027 0.001 0.081
-0.021 0.001 0.081
-0.009 0.001 0.077
-0.017 0.001 0.083
-0.013 0.005 0.091
0.015 0.001 0.091
0.041 0.005 0.031
0.037 -0.005 0.065
0.047 0.015 0.041
0.051 0.011 0.035
0.053 0.015 0.037
0.051 0.017 0.037
0.043 -0.003 0.067
0.037 0.005 0.077
0.045 -0.003 0.067
0.061 -0.005 0.087
0.039 0.013 0.089
0.041 0.009 0.071
0.049 0.001 0.081
0.061 -0.007 0.091
0.055 -0.003 0.083
0.045 -0.009 0.099
0.047 -0.009 0.099
0.051 -0.009 0.103
-0.051 0.007 0.087
-0.041 0.005 0.087
-0.021 0.013 0.095
-0.001 0.017 0.087
-0.023 0.013 0.093
-0.011 0.005 0.091
0.003 0.013 0.089
0.001 0.019 0.113
0.037 -0.001 0.105
0.035 0.007 0.105
0.041 0.007 0.105
0.045 -0.001 0.103
-0.037 0.013 0.037
-0.041 0.003 0.043
-0.035 0.011 0.039
-0.053 0.009 0.079
-0.039 0.011 0.071
-0.017 0.025 0.045
-0.027 0.017 0.089
-0.043 0.011 0.077
-0.055 0.005 0.087
-0.045 0.005 0.087
-0.047 0.009 0.085
-0.019 0.013 0.095
-0.029 0.019 0.069
-0.009 0.021 0.077
-0.017 0.005 0.091
-0.021 0.021 0.087
0.015 0.017 0.057
-0.003 0.019 0.061
0.017 0.023 0.103
0.015 0.023 0.103
0.005 0.015 0.081
0.003 0.019 0.077
0.005 0.015 0.081
-0.001 0.013 0.091
0.015 0.023 0.097
0.021 0.019 0.101
0.007 0.007 0.103
0.009 0.007 0.103
0.011 0.007 0.101
0.023 0.023 0.101
-0.019 -0.017 0.045
-0.021 -0.015 0.055
-0.009 -0.005 0.041
0.029 -0.019 0.041
0.039 -0.021 0.037
0.045 -0.007 0.059
0.003 -0.001 0.067
0.031 -0.001 0.077
0.029 -0.005 0.097
0.055 -0.011 0.089
0.039 -0.007 0.099
-0.019 -0.015 0.047
-0.005 -0.005 0.039
-0.009 0.005 0.049
-0.007 0.007 0.047
-0.043 -0.001 0.067
-0.047 0.003 0.085
0.001 -0.001 0.069
-0.019 0.001 0.081
-0.025 0.005 0.089
-0.027 0.007 0.089
-0.013 0.011 0.095
0.003 0.011 0.087
0.039 -0.011 0.047
0.029 -0.011 0.055
0.045 -0.003 0.065
0.051 0.003 0.057
0.007 0.007 0.079
0.023 -0.001 0.087
0.025 -0.001 0.093
0.027 -0.001 0.103
0.045 0.001 0.069
0.043 0.001 0.071
0.047 -0.009 0.099
0.023 0.001 0.107
0.023 0.009 0.109
0.047 -0.003 0.105
-0.041 -0.015 0.041
-0.019 -0.013 0.037
-0.027 -0.015 0.059
-0.021 -0.011 0.063
0.015 -0.013 0.031
0.011 -0.015 0.037
0.027 -0.009 0.055
0.049 -0.005 0.055
0.051 -0.009 0.089
0.033 -0.005 0.099
0.047 -0.009 0.101
-0.031 -0.013 0.043
-0.011 -0.007 0.039
-0.009 -0.005 0.041
-0.013 -0.009 0.047
-0.021 -0.005 0.063
-0.023 -0.017 0.059
-0.001 0.001 0.055
-0.013 0.003 0.053
-0.047 0.005 0.079
-0.031 0.001 0.071
-0.005 0.003 0.065
-0.019 0.003 0.075
-0.025 0.001 0.083
0.017 -0.013 0.031
0.025 -0.021 0.033
0.017 -0.015 0.035
0.001 0.001 0.045
0.009 -0.007 0.051
0.011 -0.007 0.051
0.039 -0.019 0.039
0.039 -0.011 0.047
0.051 0.001 0.057
0.009 0.001 0.069
0.023 0.001 0.071
0.019 0.003 0.073
0.021 0.001 0.081
0.031 -0.003 0.093
0.029 -0.003 0.087
-0.037 0.011 0.037
-0.049 -0.007 0.049
-0.049 -0.003 0.051
-0.049 0.001 0.055
-0.029 -0.001 0.047
-0.029 0.007 0.045
-0.029 0.019 0.041
-0.027 0.021 0.043
-0.027 0.019 0.051
-0.025 0.019 0.055
-0.025 0.021 0.059
-0.023 0.021 0.051
-0.017 0.025 0.045
0.005 0.013 0.041
-0.003 0.017 0.057
0.019 0.015 0.101
0.021 0.015 0.107
-0.035 0.007 0.061
-0.035 0.009 0.041
-0.031 0.005 0.043
-0.021 0.023 0.043
-0.017 0.025 0.045
-0.021 0.021 0.053
-0.029 0.017 0.055
-0.005 0.017 0.063
-0.045 0.009 0.071
-0.035 0.015 0.065
-0.023 0.013 0.095
0.013 0.019 0.037
0.011 0.013 0.033
0.003 0.013 0.043
-0.001 0.019 0.063
0.037 0.013 0.059
0.023 0.023 0.095
0.017 0.015 0.105
0.013 0.025 0.103
0.021 0.015 0.107
0.019 0.025 0.099
-0.027 -0.017 0.055
-0.017 -0.011 0.047
-0.017 -0.011 0.047
-0.005 -0.011 0.037
-0.019 -0.009 0.055
-0.015 -0.009 0.051
0.001 -0.001 0.065
0.011 -0.009 0.045
0.025 -0.017 0.043
0.037 -0.013 0.045
0.039 -0.019 0.039
0.031 -0.005 0.097
0.049 -0.013 0.085
0.063 -0.007 0.093
0.061 -0.007 0.093
0.053 -0.009 0.101
0.005 -0.001 0.063
0.001 -0.001 0.071
-0.001 0.001 0.075
0.001 0.001 0.075
0.005 0.001 0.075
-0.001 0.001 0.075
-0.003 0.001 0.083
-0.039 0.003 0.065
-0.019 0.003 0.089
-0.031 0.007 0.087
-0.011 0.003 0.089
0.003 0.009 0.085
-0.019 0.001 0.085
-0.017 0.005 0.091
-0.019 0.009 0.093
-0.005 0.011 0.093
-0.003 0.013 0.093
0.043 -0.009 0.085
0.049 -0.013 0.085
0.041 -0.009 0.085
0.047 0.019 0.039
0.059 -0.009 0.087
0.017 0.001 0.095
0.003 0.003 0.081
0.039 -0.007 0.099
0.027 0.009 0.107
0.029 0.001 0.105
0.051 -0.005 0.089
0.043 -0.003 0.101
0.049 -0.003 0.107
0.057 -0.001 0.105
-0.049 -0.001 0.051
-0.025 0.021 0.043
-0.017 0.027 0.041
-0.035 0.009 0.059
-0.029 0.015 0.055
0.011 0.019 0.041
0.007 0.019 0.053
0.015 0.015 0.059
0.021 0.017 0.049
0.021 0.015 0.051
0.027 0.021 0.089
0.019 0.023 0.091
-0.041 0.009 0.033
-0.035 0.011 0.039
-0.027 0.019 0.045
-0.003 0.011 0.051
-0.007 0.011 0.061
-0.003 0.017 0.057
-0.023 0.021 0.055
-0.023 0.021 0.057
-0.057 0.005 0.079
-0.047 0.009 0.073
-0.049 0.009 0.085
-0.021 0.019 0.069
0.029 0.023 0.033
0.009 0.019 0.057
-0.009 0.021 0.083
0.009 0.007 0.093
0.019 0.017 0.081
0.017 0.025 0.087
0.027 0.017 0.079
0.031 0.015 0.077
0.025 0.021 0.091
0.027 0.021 0.095
0.055 0.003 0.087
0.003 0.019 0.111
0.027 0.021 0.101
0.019 0.013 0.115
0.037 0.015 0.103
