-0.047 -0.011 0.047
-0.039 -0.015 0.045
-0.033 -0.013 0.047
-0.049 -0.007 0.055
-0.029 -0.015 0.057
-0.021 -0.013 0.061
-0.007 -0.007 0.039
-0.025 -0.017 0.059
-0.019 -0.013 0.059
-0.047 -0.001 0.065
0.027 -0.019 0.045
0.017 -0.013 0.043
0.025 -0.003 0.055
0.029 -0.005 0.059
0.039 -0.011 0.047
0.049 -0.005 0.045
0.051 -0.003 0.053
0.053 -0.011 0.087
0.057 -0.009 0.089
0.053 -0.009 0.103
0.039 -0.003 0.101
0.053 -0.007 0.105
-0.025 -0.009 0.065
-0.011 -0.005 0.049
-0.021 0.001 0.077
-0.017 0.007 0.067
-0.015 0.003 0.057
-0.013 0.005 0.057
-0.027 0.001 0.063
-0.031 0.001 0.075
-0.003 0.001 0.063
-0.043 0.003 0.071
-0.037 0.007 0.075
-0.035 0.009 0.083
-0.047 0.005 0.089
-0.033 0.009 0.087
-0.033 0.009 0.087
-0.029 0.001 0.065
-0.019 0.003 0.069
-0.029 0.009 0.089
-0.015 0.007 0.091
-0.013 0.011 0.095
-0.029 0.011 0.091
0.013 -0.007 0.047
0.015 -0.005 0.049
0.023 -0.005 0.053
0.001 -0.001 0.071
0.023 -0.011 0.051
0.007 0.001 0.073
0.011 0.001 0.067
0.013 0.007 0.071
0.023 0.007 0.061
0.023 -0.001 0.073
0.011 0.007 0.073
0.037 -0.007 0.063
0.047 -0.007 0.051
0.031 -0.005 0.083
0.033 -0.005 0.089
0.001 0.001 0.077
0.023 -0.001 0.077
0.025 -0.003 0.091
0.015 0.001 0.095
0.007 0.007 0.079
0.013 0.003 0.103
0.009 0.003 0.097
0.031 -0.003 0.099
0.033 0.001 0.105
0.053 -0.009 0.101
0.017 0.001 0.101
0.019 0.001 0.099
0.017 0.003 0.105
0.017 0.011 0.109
0.023 0.013 0.115
0.047 0.003 0.103
0.049 -0.005 0.105
-0.035 -0.015 0.035
-0.037 -0.015 0.039
-0.047 -0.009 0.045
-0.041 -0.013 0.051
-0.037 -0.011 0.051
-0.045 -0.003 0.063
-0.027 -0.013 0.035
-0.037 -0.015 0.037
-0.027 -0.011 0.043
-0.015 -0.013 0.033
-0.011 -0.013 0.037
-0.023 -0.019 0.055
0.011 -0.015 0.037
0.027 -0.019 0.043
0.005 -0.003 0.043
0.025 -0.019 0.037
0.015 -0.009 0.045
0.031 -0.021 0.039
0.033 -0.019 0.045
0.037 -0.013 0.045
0.039 -0.013 0.045
0.043 -0.009 0.049
0.045 -0.009 0.083
0.045 -0.009 0.087
0.047 -0.007 0.089
0.053 -0.009 0.091
0.047 -0.009 0.101
-0.035 -0.015 0.045
-0.033 -0.015 0.043
-0.041 -0.001 0.067
-0.037 -0.015 0.041
-0.035 -0.013 0.047
-0.023 -0.019 0.055
-0.045 -0.011 0.051
-0.047 -0.011 0.053
-0.035 -0.007 0.051
-0.029 -0.013 0.059
-0.027 0.003 0.055
-0.029 -0.011 0.059
-0.041 -0.007 0.061
-0.029 0.001 0.065
-0.033 0.003 0.067
-0.041 0.005 0.075
-0.043 0.005 0.073
-0.029 0.001 0.069
-0.009 0.001 0.075
-0.023 0.001 0.081
-0.031 0.009 0.089
-0.021 0.005 0.091
-0.017 0.007 0.091
0.015 -0.015 0.039
0.001 0.003 0.047
0.007 -0.005 0.047
0.007 -0.005 0.051
-0.019 -0.013 0.059
0.011 -0.001 0.061
0.023 0.005 0.065
-0.005 0.005 0.059
-0.001 0.001 0.057
-0.005 0.003 0.063
0.003 -0.001 0.059
0.021 -0.013 0.047
0.033 -0.017 0.045
0.037 -0.005 0.067
0.041 -0.007 0.061
0.001 0.001 0.079
0.019 0.007 0.071
0.011 0.003 0.095
0.009 0.005 0.099
0.035 -0.007 0.087
0.013 0.003 0.099
0.009 0.003 0.101
0.017 0.003 0.105
0.019 -0.001 0.107
0.015 0.001 0.103
0.035 0.003 0.105
0.045 -0.009 0.101
0.047 -0.001 0.105
-0.025 -0.009 0.031
-0.039 -0.015 0.047
-0.033 -0.013 0.047
-0.019 -0.015 0.047
-0.045 -0.009 0.057
-0.039 -0.007 0.059
-0.027 -0.013 0.039
-0.021 -0.017 0.047
-0.017 -0.015 0.041
-0.003 -0.015 0.033
-0.003 -0.013 0.037
-0.003 -0.007 0.035
-0.023 -0.019 0.051
-0.023 -0.017 0.057
0.001 -0.001 0.063
0.031 -0.021 0.045
0.011 -0.009 0.047
0.021 -0.013 0.047
0.009 -0.007 0.051
0.039 -0.017 0.033
0.039 -0.015 0.033
0.007 -0.001 0.065
0.043 -0.009 0.085
0.061 -0.007 0.093
-0.023 -0.017 0.045
-0.007 -0.015 0.035
-0.017 -0.011 0.045
-0.015 -0.009 0.045
-0.009 0.001 0.041
0.009 -0.013 0.039
0.007 -0.011 0.043
0.015 -0.011 0.043
0.011 -0.009 0.047
-0.011 0.001 0.049
-0.013 0.003 0.055
0.007 -0.005 0.055
0.003 -0.001 0.061
0.003 -0.001 0.063
0.001 -0.001 0.059
-0.009 0.005 0.051
0.005 -0.003 0.057
0.009 -0.005 0.053
-0.031 0.001 0.073
-0.027 0.001 0.077
-0.027 0.001 0.079
-0.019 0.003 0.077
-0.019 0.001 0.079
-0.051 0.003 0.085
-0.041 0.005 0.083
-0.021 0.001 0.083
-0.021 -0.007 0.067
-0.027 0.001 0.073
-0.017 0.005 0.073
-0.017 0.001 0.079
0.001 -0.001 0.071
-0.003 0.001 0.073
-0.017 0.009 0.071
-0.013 0.003 0.087
0.037 -0.021 0.035
0.039 -0.013 0.033
0.031 -0.021 0.039
0.037 -0.023 0.039
0.041 -0.011 0.041
0.021 -0.009 0.051
0.011 -0.001 0.063
0.039 -0.009 0.051
0.035 -0.009 0.057
0.051 0.001 0.043
0.051 0.015 0.039
0.021 0.003 0.071
0.039 0.003 0.075
0.001 0.007 0.085
0.019 -0.001 0.095
0.041 -0.007 0.087
0.055 -0.011 0.083
0.057 -0.011 0.087
0.017 0.001 0.103
0.023 0.007 0.107
0.033 -0.001 0.105
0.027 0.011 0.109
0.051 -0.007 0.097
0.051 -0.009 0.103
-0.047 -0.011 0.049
-0.049 -0.007 0.047
-0.049 -0.001 0.057
-0.043 -0.005 0.063
-0.047 -0.009 0.057
-0.027 -0.013 0.047
-0.037 -0.007 0.053
-0.027 -0.007 0.059
-0.027 -0.015 0.059
-0.001 -0.001 0.071
0.005 -0.003 0.047
0.005 -0.013 0.037
0.009 -0.015 0.037
0.009 -0.015 0.037
0.017 -0.007 0.049
0.007 -0.005 0.055
-0.001 -0.001 0.069
0.003 -0.001 0.065
0.027 -0.009 0.055
0.027 -0.011 0.053
0.027 -0.019 0.045
0.025 -0.011 0.053
0.027 -0.003 0.069
0.025 -0.003 0.097
0.031 -0.005 0.097
0.049 -0.013 0.085
0.043 -0.009 0.099
-0.055 0.005 0.075
-0.047 0.003 0.063
-0.047 0.005 0.067
-0.045 0.003 0.069
-0.027 0.019 0.047
-0.033 0.003 0.079
-0.031 0.003 0.081
-0.031 0.005 0.085
-0.033 0.007 0.085
-0.049 0.011 0.081
-0.055 0.003 0.087
-0.057 0.005 0.081
-0.051 0.009 0.083
-0.037 0.013 0.081
-0.031 0.001 0.069
-0.025 0.001 0.083
-0.033 0.007 0.085
-0.031 0.019 0.081
-0.027 0.015 0.089
-0.011 0.009 0.091
-0.013 0.011 0.095
0.001 0.003 0.045
0.017 0.009 0.073
0.027 -0.001 0.065
-0.007 0.001 0.081
-0.001 0.011 0.091
0.013 0.013 0.083
0.011 0.015 0.087
0.009 0.003 0.089
0.009 0.003 0.089
0.007 0.005 0.089
0.013 0.013 0.083
0.013 0.011 0.085
0.009 0.003 0.093
0.013 0.013 0.095
0.015 0.023 0.093
0.013 0.011 0.093
0.019 -0.001 0.107
0.017 0.003 0.109
0.029 0.005 0.105
0.023 0.009 0.111
0.001 0.017 0.113
0.023 0.021 0.107
0.025 0.019 0.107
-0.023 0.021 0.047
-0.023 0.021 0.055
-0.047 0.001 0.051
-0.031 0.019 0.067
-0.013 0.013 0.061
0.043 0.021 0.039
0.021 0.017 0.045
0.019 0.017 0.051
0.029 0.021 0.047
0.023 0.013 0.053
0.025 0.007 0.057
0.047 0.013 0.049
0.049 0.009 0.055
0.051 0.005 0.089
0.043 0.011 0.087
0.043 0.011 0.085
0.053 0.005 0.085
0.061 -0.001 0.085
0.035 0.013 0.105
0.043 0.013 0.101
-0.039 0.011 0.035
-0.045 0.005 0.057
-0.029 0.019 0.065
-0.031 0.019 0.063
-0.021 0.029 0.037
-0.019 0.021 0.053
-0.027 0.019 0.057
-0.023 0.021 0.049
-0.053 0.009 0.079
-0.051 0.009 0.081
-0.041 0.011 0.081
-0.037 0.011 0.083
-0.043 0.011 0.083
-0.033 0.013 0.087
-0.017 0.021 0.083
-0.013 0.019 0.075
-0.005 0.021 0.079
-0.017 0.021 0.085
0.001 0.015 0.085
-0.001 0.013 0.089
-0.005 0.017 0.089
-0.005 0.017 0.089
-0.015 0.019 0.089
0.021 0.023 0.031
0.011 0.021 0.043
0.015 0.023 0.037
0.019 0.023 0.037
0.021 0.017 0.047
0.027 0.021 0.043
0.031 0.013 0.055
0.017 0.009 0.061
0.003 0.019 0.051
0.005 0.019 0.053
0.049 0.021 0.039
0.049 0.023 0.037
0.043 0.019 0.041
0.051 0.021 0.037
0.049 0.011 0.053
0.017 0.017 0.079
0.035 0.015 0.083
0.019 0.023 0.087
0.035 0.015 0.083
0.043 0.011 0.087
0.037 0.015 0.093
0.045 0.011 0.095
0.029 0.019 0.101
0.021 0.015 0.103
0.025 0.013 0.107
0.017 0.025 0.097
0.043 0.011 0.099
-0.035 -0.011 0.031
-0.035 -0.015 0.041
-0.037 -0.009 0.053
-0.019 -0.017 0.043
-0.029 -0.011 0.045
-0.023 -0.017 0.045
-0.019 -0.017 0.045
-0.007 -0.013 0.039
-0.013 -0.013 0.035
-0.015 -0.009 0.049
0.031 -0.021 0.033
0.013 -0.013 0.039
0.011 -0.011 0.043
0.005 -0.009 0.041
0.021 -0.015 0.037
0.023 -0.013 0.047
0.033 -0.011 0.051
0.027 -0.003 0.089
0.047 -0.011 0.085
0.039 -0.007 0.085
0.035 -0.005 0.089
0.051 -0.013 0.083
0.043 -0.009 0.097
-0.025 -0.011 0.033
-0.029 -0.013 0.039
-0.023 -0.013 0.063
0.001 0.001 0.047
-0.011 -0.007 0.041
-0.011 -0.013 0.037
-0.011 0.005 0.053
-0.039 0.001 0.067
-0.035 0.005 0.067
-0.041 0.005 0.087
-0.003 0.001 0.065
-0.007 0.005 0.069
-0.005 0.003 0.067
-0.003 0.001 0.065
-0.009 0.001 0.075
-0.027 0.003 0.085
-0.021 0.003 0.089
-0.009 0.005 0.089
-0.011 0.011 0.095
-0.003 0.001 0.081
0.025 -0.021 0.035
0.025 -0.021 0.035
0.023 -0.019 0.035
0.017 -0.013 0.043
0.027 -0.019 0.043
0.029 -0.007 0.057
0.033 -0.007 0.061
0.021 -0.009 0.051
0.017 -0.003 0.055
0.009 -0.001 0.063
0.047 -0.007 0.045
0.051 -0.003 0.045
0.049 -0.005 0.053
0.037 -0.007 0.059
0.037 -0.007 0.061
0.045 -0.009 0.049
0.009 0.005 0.073
0.017 0.009 0.071
0.005 0.011 0.085
0.019 0.001 0.085
0.031 0.001 0.081
0.023 -0.001 0.089
0.035 -0.005 0.069
0.043 -0.009 0.083
0.051 -0.005 0.083
0.025 -0.001 0.101
0.031 -0.003 0.103
0.031 -0.003 0.101
0.047 -0.009 0.097
-0.043 0.001 0.037
-0.039 0.011 0.035
-0.049 -0.003 0.055
-0.031 0.017 0.041
-0.025 -0.011 0.047
-0.031 0.011 0.055
-0.013 0.023 0.043
-0.009 0.017 0.047
0.007 0.019 0.055
0.005 0.019 0.053
0.015 0.015 0.059
0.025 0.021 0.041
-0.007 0.019 0.073
0.019 0.013 0.071
0.037 0.015 0.085
0.035 0.015 0.091
0.037 0.015 0.085
0.037 0.015 0.089
0.057 0.003 0.085
0.045 0.013 0.093
0.031 0.021 0.103
0.049 0.003 0.105
0.049 0.003 0.105
-0.045 0.001 0.041
-0.029 0.021 0.039
-0.027 0.023 0.041
-0.023 0.023 0.041
-0.027 0.015 0.049
-0.051 0.007 0.075
-0.053 0.009 0.079
-0.035 0.017 0.077
-0.053 0.009 0.081
-0.021 0.019 0.067
-0.021 0.021 0.081
-0.031 0.019 0.067
-0.031 0.019 0.071
-0.013 0.019 0.089
0.003 0.011 0.041
0.007 0.019 0.047
0.015 0.023 0.041
0.019 0.015 0.055
0.031 0.011 0.057
0.013 0.021 0.051
0.035 0.021 0.047
0.035 0.021 0.035
0.041 0.019 0.035
0.045 0.023 0.039
0.041 0.013 0.065
-0.003 0.021 0.075
0.003 0.019 0.073
0.003 0.013 0.089
0.013 0.011 0.089
0.015 0.017 0.089
0.011 0.015 0.093
0.015 0.025 0.095
0.031 0.015 0.067
0.031 0.017 0.083
0.033 0.017 0.089
0.039 0.015 0.095
0.029 0.021 0.099
0.029 0.019 0.101
0.025 0.021 0.103
0.025 0.023 0.101
0.043 0.011 0.097
