0.007 -0.001 0.063
0.039 -0.003 0.071
0.039 -0.007 0.087
0.023 -0.001 0.099
0.041 -0.009 0.099
-0.033 0.009 0.043
-0.009 -0.003 0.047
-0.009 0.005 0.051
-0.029 0.005 0.055
-0.015 0.007 0.065
-0.019 -0.005 0.065
-0.041 0.005 0.087
-0.035 0.011 0.087
-0.017 0.001 0.081
-0.009 0.003 0.085
-0.025 0.009 0.091
-0.031 0.005 0.085
-0.029 0.009 0.089
-0.019 0.013 0.095
-0.007 0.011 0.093
0.003 -0.001 0.057
0.005 0.007 0.081
0.029 -0.003 0.069
0.031 -0.003 0.101
0.049 -0.009 0.101
0.047 0.001 0.105
-0.043 -0.011 0.053
-0.007 -0.007 0.039
-0.029 -0.015 0.057
-0.023 -0.019 0.055
-0.021 -0.003 0.073
0.005 -0.009 0.041
0.005 -0.003 0.047
0.047 -0.007 0.089
0.045 -0.007 0.089
0.039 -0.007 0.099
0.045 -0.003 0.103
0.047 -0.009 0.097
0.049 -0.005 0.105
-0.047 -0.011 0.049
-0.025 -0.017 0.047
-0.029 0.005 0.051
-0.041 0.001 0.069
-0.039 0.001 0.069
-0.043 0.005 0.079
-0.023 -0.005 0.071
-0.003 0.007 0.089
0.007 -0.011 0.041
0.001 -0.001 0.053
0.001 -0.001 0.059
0.019 0.003 0.075
-0.011 0.001 0.083
0.005 0.005 0.095
0.033 -0.003 0.073
0.033 -0.005 0.087
0.033 -0.005 0.089
0.021 -0.001 0.107
-0.043 -0.005 0.063
-0.027 -0.017 0.057
-0.013 -0.013 0.035
0.025 -0.013 0.051
0.045 -0.007 0.037
0.045 -0.007 0.037
0.007 -0.001 0.067
-0.011 -0.005 0.049
0.003 -0.001 0.067
0.043 -0.003 0.033
0.039 -0.013 0.041
0.047 -0.005 0.039
0.031 -0.005 0.061
0.035 -0.011 0.051
0.015 0.003 0.061
0.035 0.001 0.077
0.041 0.001 0.073
0.035 0.011 0.079
0.057 -0.007 0.093
0.011 0.003 0.101
0.033 -0.003 0.103
0.039 -0.005 0.095
-0.047 -0.003 0.063
-0.029 -0.011 0.055
-0.027 -0.009 0.057
-0.025 -0.005 0.069
0.003 -0.003 0.053
0.057 -0.001 0.105
-0.047 0.003 0.061
-0.045 -0.001 0.065
-0.029 0.017 0.055
-0.017 0.027 0.041
-0.027 0.003 0.087
-0.021 0.011 0.095
-0.021 0.009 0.093
-0.023 0.011 0.095
-0.011 0.003 0.089
-0.005 0.003 0.087
-0.021 0.017 0.091
0.007 0.005 0.097
0.007 0.005 0.097
0.013 0.011 0.109
0.023 0.009 0.111
0.023 0.015 0.107
-0.019 0.027 0.041
-0.021 0.021 0.057
-0.039 0.003 0.057
-0.029 0.019 0.063
-0.009 0.017 0.043
-0.009 0.015 0.043
-0.003 -0.001 0.035
0.043 0.019 0.041
0.043 0.017 0.053
0.035 0.013 0.073
-0.029 0.019 0.065
-0.009 0.015 0.039
-0.027 0.021 0.043
0.005 0.019 0.057
-0.029 0.019 0.077
-0.031 0.019 0.065
0.019 0.023 0.031
0.029 0.015 0.067
0.017 0.025 0.087
0.019 0.025 0.093
0.043 0.011 0.087
0.043 0.011 0.091
0.021 0.019 0.101
0.027 0.021 0.107
0.005 0.019 0.111
0.005 0.019 0.113
-0.017 -0.011 0.049
0.053 -0.009 0.101
0.041 -0.011 0.041
0.055 -0.013 0.087
-0.021 -0.005 0.067
-0.021 -0.003 0.073
0.027 0.001 0.105
0.027 -0.001 0.103
-0.003 0.011 0.091
0.019 0.009 0.107
0.021 0.011 0.115
0.049 -0.001 0.089
0.055 0.001 0.089
0.035 0.017 0.055
0.057 0.003 0.087
0.055 0.007 0.099
0.053 0.015 0.037
0.049 0.007 0.061
0.057 0.005 0.081
0.043 0.017 0.053
0.049 0.001 0.107
0.053 -0.007 0.101
0.035 0.011 0.105
0.031 0.007 0.105
0.029 0.007 0.105
0.049 -0.003 0.107
0.059 0.001 0.103
0.057 0.003 0.087
0.025 0.011 0.113
0.031 0.019 0.103
0.053 -0.001 0.105
0.019 0.015 0.055
0.007 0.019 0.055
0.045 0.013 0.049
0.031 0.015 0.065
0.049 0.009 0.049
0.051 0.005 0.045
0.051 0.005 0.051
0.035 0.013 0.065
0.045 -0.007 0.039
0.055 0.001 0.097
0.061 -0.005 0.087
0.057 -0.001 0.091
-0.013 0.019 0.039
0.015 0.015 0.059
0.009 0.015 0.071
0.005 0.019 0.075
-0.009 0.019 0.089
0.041 0.019 0.051
0.029 0.021 0.047
0.049 0.009 0.093
0.043 0.013 0.093
0.035 0.013 0.105
0.059 0.003 0.103
-0.015 -0.011 0.047
0.033 -0.005 0.069
-0.013 -0.011 0.037
0.043 -0.007 0.061
-0.011 -0.007 0.045
0.057 -0.013 0.085
-0.023 -0.015 0.061
-0.021 -0.011 0.063
0.035 -0.005 0.069
0.039 -0.017 0.041
0.035 -0.011 0.055
0.045 -0.005 0.063
0.045 -0.007 0.037
0.039 -0.003 0.071
0.061 -0.003 0.091
0.053 -0.005 0.099
0.043 0.003 0.071
0.059 -0.007 0.093
0.061 -0.001 0.083
0.043 0.007 0.071
0.061 0.001 0.083
0.041 0.011 0.087
0.053 -0.003 0.105
0.053 0.001 0.105
0.023 0.005 0.105
0.055 -0.003 0.105
0.035 0.013 0.105
0.047 0.009 0.039
0.041 0.019 0.045
0.047 -0.001 0.065
0.043 0.005 0.071
0.057 -0.001 0.105
0.033 0.019 0.101
0.029 0.019 0.105
-0.041 -0.009 0.057
-0.039 -0.015 0.041
-0.049 -0.003 0.059
-0.031 -0.015 0.041
-0.029 -0.013 0.059
-0.027 -0.009 0.059
-0.009 -0.011 0.037
-0.007 -0.005 0.039
0.009 -0.007 0.051
0.041 -0.009 0.051
0.029 -0.003 0.091
-0.045 -0.001 0.065
-0.017 0.001 0.085
-0.021 0.001 0.065
-0.029 0.011 0.091
-0.043 0.009 0.085
-0.045 0.005 0.087
-0.023 0.001 0.085
-0.021 0.009 0.093
-0.005 0.017 0.089
-0.027 0.017 0.089
-0.003 0.007 0.089
0.017 0.003 0.109
-0.003 0.013 0.093
0.013 0.003 0.087
0.029 0.005 0.105
0.051 0.005 0.101
-0.021 -0.017 0.055
0.031 -0.013 0.051
0.033 -0.003 0.091
0.041 -0.009 0.099
0.053 -0.009 0.101
-0.009 -0.005 0.043
0.041 -0.009 0.049
0.045 -0.009 0.045
-0.021 -0.005 0.071
0.049 0.003 0.039
0.051 0.005 0.043
0.051 0.015 0.039
0.047 0.009 0.063
0.033 -0.001 0.075
0.019 -0.001 0.095
0.061 0.001 0.083
0.023 -0.001 0.103
0.057 0.005 0.103
-0.047 0.011 0.081
-0.055 0.003 0.087
-0.027 -0.009 0.057
-0.029 0.005 0.087
0.007 0.003 0.077
0.013 0.007 0.091
0.007 0.017 0.113
0.039 -0.001 0.105
0.049 0.001 0.107
0.049 -0.001 0.107
-0.037 0.005 0.041
-0.033 0.013 0.041
-0.017 0.025 0.045
-0.035 0.011 0.085
-0.025 0.019 0.085
-0.005 0.019 0.087
-0.021 0.019 0.089
0.007 0.019 0.049
0.013 0.015 0.085
0.021 0.021 0.101
0.017 0.015 0.109
-0.033 -0.015 0.037
-0.005 -0.013 0.039
-0.027 -0.017 0.057
0.017 -0.011 0.047
0.057 -0.007 0.093
0.051 -0.007 0.105
-0.019 -0.017 0.045
-0.019 -0.011 0.053
-0.023 -0.009 0.067
-0.019 -0.013 0.053
-0.019 -0.011 0.055
-0.011 0.001 0.081
-0.005 0.009 0.091
0.039 -0.007 0.061
0.049 0.001 0.039
0.003 -0.001 0.071
0.001 0.007 0.085
0.003 0.009 0.085
0.033 -0.005 0.089
0.043 0.001 0.071
0.043 0.007 0.103
-0.043 -0.009 0.035
-0.023 -0.015 0.041
-0.029 -0.011 0.055
-0.025 -0.007 0.065
0.029 -0.019 0.045
0.025 -0.013 0.051
0.049 -0.011 0.087
0.049 -0.009 0.089
-0.045 0.005 0.069
-0.045 0.001 0.069
-0.055 0.005 0.085
-0.033 0.005 0.083
-0.035 0.011 0.087
-0.027 -0.009 0.055
-0.025 -0.015 0.061
-0.047 -0.005 0.061
-0.033 0.003 0.079
0.029 -0.003 0.059
-0.005 0.001 0.079
0.007 0.005 0.087
0.021 -0.001 0.085
0.007 0.005 0.089
0.023 -0.001 0.093
-0.047 -0.003 0.045
-0.047 -0.003 0.043
-0.049 -0.003 0.061
-0.047 -0.001 0.065
-0.049 -0.003 0.055
-0.047 -0.005 0.043
-0.047 0.001 0.051
-0.027 0.009 0.049
0.033 -0.005 0.089
-0.049 0.001 0.057
-0.033 0.003 0.043
-0.031 0.017 0.041
-0.027 0.023 0.039
-0.027 0.013 0.051
-0.037 0.011 0.083
-0.035 0.013 0.083
-0.043 0.013 0.075
-0.025 0.005 0.089
-0.031 0.011 0.091
-0.025 0.007 0.089
-0.031 0.007 0.053
-0.021 0.021 0.047
-0.045 0.009 0.069
-0.029 0.017 0.045
-0.027 0.011 0.049
-0.029 0.019 0.063
-0.049 0.009 0.075
0.013 0.023 0.097
-0.023 0.017 0.091
0.013 0.015 0.105
-0.031 -0.013 0.033
-0.039 -0.007 0.057
-0.023 -0.015 0.041
-0.013 -0.007 0.041
-0.009 -0.005 0.045
-0.017 -0.011 0.051
0.017 -0.015 0.037
0.023 -0.001 0.075
0.035 -0.005 0.069
0.043 -0.003 0.067
0.049 -0.011 0.087
0.057 -0.007 0.091
0.027 -0.003 0.099
-0.023 -0.011 0.039
-0.025 -0.015 0.045
-0.027 -0.011 0.043
-0.009 0.007 0.053
-0.005 0.003 0.063
-0.029 -0.013 0.053
-0.009 0.005 0.071
-0.009 0.003 0.073
-0.021 0.009 0.093
-0.003 0.003 0.057
0.047 -0.007 0.053
0.021 0.001 0.077
0.009 0.003 0.095
0.013 0.003 0.095
0.019 0.001 0.091
0.039 -0.003 0.101
-0.027 -0.013 0.037
-0.019 -0.015 0.051
-0.021 -0.017 0.055
-0.025 -0.017 0.059
-0.015 -0.009 0.049
0.027 -0.021 0.037
0.017 -0.011 0.047
0.019 -0.007 0.051
0.035 -0.005 0.069
0.043 -0.001 0.069
0.047 -0.007 0.095
0.057 -0.001 0.105
-0.031 -0.015 0.037
-0.021 -0.015 0.057
-0.045 0.005 0.075
-0.029 0.003 0.083
-0.029 0.005 0.087
-0.001 0.007 0.087
-0.001 0.009 0.089
0.033 -0.021 0.039
0.033 -0.011 0.053
0.047 -0.007 0.041
0.005 0.001 0.073
0.039 -0.005 0.089
0.009 0.013 0.109
0.037 -0.007 0.097
-0.039 -0.015 0.047
-0.005 -0.013 0.039
0.047 -0.007 0.041
0.045 -0.009 0.049
0.007 -0.001 0.067
-0.009 0.003 0.047
0.003 -0.003 0.053
0.037 -0.007 0.085
-0.007 0.001 0.081
-0.011 0.011 0.095
0.039 -0.011 0.047
0.035 -0.011 0.055
0.033 -0.009 0.057
0.021 -0.001 0.099
0.035 -0.003 0.101
0.055 -0.003 0.105
0.017 0.011 0.109
-0.043 0.003 0.035
-0.047 0.005 0.061
-0.027 0.015 0.049
-0.021 0.023 0.043
-0.027 0.019 0.057
-0.025 0.019 0.067
-0.025 0.019 0.057
0.007 0.019 0.053
-0.003 0.019 0.063
0.013 0.007 0.093
0.001 0.021 0.075
0.011 0.015 0.089
0.015 0.017 0.089
0.013 0.015 0.105
-0.041 0.011 0.067
-0.047 0.011 0.081
-0.047 0.009 0.085
-0.031 0.019 0.075
-0.025 0.021 0.079
-0.037 0.009 0.083
-0.013 0.021 0.087
0.015 0.015 0.033
-0.025 0.019 0.053
-0.001 0.019 0.065
-0.009 0.019 0.089
0.007 0.007 0.093
0.003 0.015 0.085
0.021 0.017 0.083
0.015 0.025 0.087
-0.039 -0.013 0.049
-0.041 -0.005 0.061
-0.021 -0.005 0.071
0.023 -0.017 0.041
0.025 -0.017 0.043
0.027 -0.015 0.047
0.035 -0.015 0.045
-0.019 -0.011 0.061
-0.025 -0.015 0.061
-0.039 -0.003 0.061
-0.017 -0.007 0.053
-0.009 0.005 0.045
0.005 0.001 0.073
-0.017 0.005 0.067
-0.039 0.007 0.077
-0.019 0.003 0.067
-0.017 0.005 0.073
-0.015 0.003 0.087
-0.017 0.003 0.089
-0.007 0.003 0.087
-0.009 0.003 0.087
-0.003 0.013 0.093
-0.009 0.013 0.095
0.033 -0.003 0.073
0.055 -0.009 0.089
0.021 0.001 0.079
0.027 -0.003 0.091
0.053 -0.009 0.101
0.061 -0.007 0.093
0.023 0.011 0.113
0.027 0.009 0.107
0.027 0.013 0.107
0.055 -0.003 0.101
-0.041 0.007 0.037
-0.049 0.003 0.057
-0.029 0.005 0.047
-0.027 0.019 0.051
-0.029 -0.013 0.053
0.007 0.013 0.037
-0.005 0.013 0.057
0.013 0.027 0.095
0.035 0.015 0.085
0.049 0.005 0.101
-0.031 0.015 0.045
-0.025 0.025 0.037
-0.047 0.007 0.087
-0.021 0.019 0.073
-0.035 0.015 0.081
0.001 0.009 0.045
0.017 0.023 0.043
0.041 0.019 0.045
0.033 0.021 0.045
0.015 0.021 0.087
0.023 0.023 0.095
0.045 0.009 0.083
0.029 0.021 0.105
