-0.029 -0.013 0.033
-0.025 -0.011 0.033
-0.021 -0.011 0.037
-0.029 -0.015 0.055
0.017 -0.015 0.039
0.031 -0.021 0.035
0.027 -0.003 0.089
0.041 -0.009 0.085
0.041 -0.009 0.099
-0.043 -0.013 0.039
-0.037 -0.015 0.043
-0.041 -0.013 0.051
-0.045 -0.011 0.053
-0.041 -0.011 0.055
-0.021 -0.005 0.071
-0.049 0.003 0.085
-0.047 0.003 0.083
-0.033 0.009 0.087
-0.021 0.001 0.071
-0.013 0.003 0.077
-0.031 0.005 0.085
-0.021 0.003 0.089
-0.021 0.005 0.091
0.009 -0.009 0.047
0.001 -0.001 0.065
-0.007 0.007 0.063
0.007 0.003 0.077
-0.001 0.003 0.083
0.009 0.003 0.097
0.037 -0.001 0.075
0.031 -0.001 0.077
0.031 -0.005 0.095
0.009 0.003 0.101
0.001 0.017 0.113
0.039 -0.007 0.099
-0.015 -0.011 0.047
-0.009 -0.001 0.041
-0.019 -0.009 0.057
0.039 -0.003 0.031
0.007 -0.007 0.049
0.039 -0.011 0.047
0.059 -0.007 0.089
0.063 -0.005 0.093
-0.021 -0.017 0.045
0.001 -0.001 0.063
-0.021 -0.009 0.065
-0.015 0.003 0.089
-0.011 0.005 0.091
-0.009 0.003 0.085
0.045 -0.007 0.059
0.049 0.011 0.037
0.021 0.003 0.069
0.043 0.001 0.071
0.053 -0.009 0.091
0.033 -0.001 0.105
-0.047 -0.011 0.043
-0.043 -0.015 0.043
-0.029 -0.015 0.057
0.005 -0.003 0.043
0.009 -0.009 0.047
0.019 -0.011 0.049
0.007 -0.005 0.055
-0.001 -0.001 0.067
0.031 -0.011 0.055
0.045 -0.005 0.101
0.049 -0.001 0.107
-0.055 0.003 0.087
-0.027 0.019 0.047
-0.035 0.017 0.071
-0.055 0.005 0.087
-0.033 0.019 0.067
-0.055 0.003 0.087
-0.049 0.007 0.087
-0.023 0.017 0.091
-0.025 0.001 0.083
-0.033 0.011 0.089
-0.021 0.001 0.071
-0.019 0.009 0.093
-0.027 0.013 0.093
0.027 -0.003 0.067
-0.009 0.007 0.091
0.001 0.009 0.087
0.015 0.001 0.089
-0.019 0.015 0.093
0.011 0.015 0.089
0.009 0.003 0.097
0.001 0.017 0.113
0.015 0.001 0.095
0.023 0.007 0.107
0.037 0.003 0.105
0.013 0.013 0.097
0.001 0.019 0.113
-0.007 0.007 0.039
0.019 0.017 0.049
0.047 0.007 0.087
0.033 0.019 0.101
0.049 0.007 0.099
-0.025 0.021 0.047
-0.013 0.017 0.035
-0.027 0.023 0.037
-0.017 0.027 0.039
-0.015 0.027 0.041
-0.013 0.023 0.041
-0.013 0.015 0.061
-0.037 0.011 0.083
-0.025 0.021 0.077
-0.023 0.017 0.091
0.021 0.009 0.057
0.003 0.019 0.051
0.017 0.019 0.049
0.025 0.015 0.073
0.003 0.013 0.087
0.015 0.025 0.095
0.041 0.009 0.073
0.037 0.013 0.087
0.041 0.015 0.093
0.055 0.005 0.083
0.013 0.017 0.109
0.015 0.017 0.109
0.021 0.023 0.101
0.051 0.003 0.103
-0.017 -0.015 0.041
-0.021 -0.001 0.049
0.049 -0.013 0.085
0.037 -0.017 0.043
0.039 -0.013 0.037
0.055 -0.009 0.089
0.025 -0.001 0.105
0.037 0.007 0.105
0.033 0.003 0.105
-0.023 0.001 0.067
0.041 0.001 0.105
0.039 -0.001 0.105
0.017 0.005 0.107
-0.005 0.013 0.093
-0.009 0.013 0.095
0.021 -0.001 0.105
0.051 0.003 0.049
0.053 0.001 0.105
0.037 0.019 0.053
0.049 0.009 0.047
0.045 0.009 0.067
0.043 0.011 0.069
0.005 0.001 0.075
0.041 0.013 0.103
0.059 0.003 0.103
0.041 0.019 0.049
0.047 0.013 0.049
0.041 0.013 0.063
0.037 -0.019 0.031
0.047 -0.007 0.043
0.061 0.001 0.085
0.033 0.005 0.105
0.047 0.003 0.103
-0.019 0.029 0.037
-0.011 0.021 0.081
-0.007 0.019 0.087
0.007 0.019 0.071
0.005 0.019 0.071
-0.025 0.019 0.067
0.025 0.021 0.091
0.029 0.019 0.091
0.023 0.023 0.093
0.049 0.017 0.041
0.037 0.021 0.039
0.041 0.013 0.061
0.011 0.019 0.061
0.039 0.013 0.081
0.035 0.015 0.091
0.045 0.009 0.081
0.035 0.013 0.073
-0.017 -0.013 0.043
-0.015 -0.009 0.051
-0.013 -0.003 0.051
0.039 -0.019 0.035
0.037 -0.021 0.041
0.045 -0.009 0.043
0.049 -0.005 0.043
0.059 -0.007 0.093
0.049 0.001 0.063
0.047 -0.005 0.095
0.039 0.001 0.089
0.049 0.005 0.061
0.063 -0.005 0.093
0.051 0.001 0.107
-0.051 0.003 0.087
0.023 0.005 0.105
0.043 0.007 0.071
0.047 0.007 0.039
0.047 0.019 0.039
0.047 0.007 0.081
0.041 0.013 0.097
0.045 0.007 0.067
0.057 0.003 0.087
0.025 0.001 0.105
-0.025 -0.011 0.065
-0.037 -0.007 0.053
-0.019 -0.011 0.061
-0.023 -0.019 0.055
-0.027 -0.015 0.059
0.017 -0.005 0.053
0.051 -0.003 0.107
0.031 -0.003 0.103
0.049 -0.003 0.107
-0.037 0.001 0.059
-0.027 0.013 0.093
-0.039 0.005 0.073
-0.021 0.007 0.091
-0.019 0.001 0.085
-0.013 0.013 0.095
-0.007 0.001 0.083
-0.007 0.003 0.087
0.009 0.005 0.103
0.015 0.003 0.061
0.009 0.011 0.081
0.023 0.001 0.107
0.025 0.005 0.105
0.007 0.005 0.093
0.033 0.005 0.105
0.033 0.007 0.105
0.031 0.013 0.105
0.013 0.013 0.109
0.017 0.005 0.103
0.005 0.017 0.113
0.029 0.019 0.105
-0.015 -0.009 0.049
-0.015 -0.013 0.039
-0.003 -0.013 0.037
0.031 -0.021 0.033
0.039 -0.019 0.035
0.033 -0.011 0.055
0.049 -0.013 0.085
0.053 -0.007 0.083
0.059 -0.007 0.085
0.039 -0.019 0.041
-0.017 0.001 0.053
0.009 -0.005 0.055
-0.015 0.003 0.059
0.011 -0.007 0.051
0.033 -0.011 0.051
0.043 -0.009 0.055
-0.049 0.005 0.079
-0.023 0.001 0.085
-0.027 0.001 0.075
0.023 -0.001 0.073
0.023 -0.001 0.077
-0.013 0.003 0.087
-0.007 0.003 0.085
-0.001 0.001 0.081
0.043 -0.007 0.037
0.045 -0.009 0.045
0.047 0.007 0.037
0.049 0.007 0.043
0.051 0.013 0.037
0.053 -0.005 0.083
0.061 -0.003 0.087
0.051 -0.003 0.107
0.057 0.001 0.099
0.055 0.005 0.095
-0.033 0.005 0.083
-0.029 -0.013 0.055
-0.025 -0.015 0.061
-0.011 0.007 0.091
0.025 -0.003 0.055
0.007 0.007 0.087
0.011 0.013 0.091
0.007 0.007 0.103
-0.033 0.015 0.039
-0.045 0.007 0.059
-0.017 0.027 0.041
-0.013 0.021 0.045
-0.021 0.015 0.093
-0.055 0.007 0.079
-0.011 0.007 0.091
-0.027 0.021 0.075
-0.027 0.015 0.089
0.011 0.015 0.089
0.013 0.023 0.097
0.007 0.007 0.103
0.013 0.023 0.097
0.013 0.025 0.103
0.017 0.023 0.103
0.035 0.013 0.105
0.013 0.015 0.111
0.027 0.003 0.105
-0.039 -0.009 0.055
-0.037 -0.001 0.057
0.029 -0.021 0.039
0.023 -0.009 0.053
0.031 -0.009 0.057
0.033 -0.005 0.067
0.053 -0.011 0.087
-0.011 -0.007 0.039
-0.021 -0.017 0.049
-0.021 -0.019 0.051
-0.015 -0.009 0.045
-0.017 0.011 0.067
-0.047 0.005 0.079
-0.039 0.009 0.081
-0.019 0.005 0.069
-0.009 0.001 0.075
0.003 0.001 0.075
-0.015 0.007 0.091
-0.003 0.007 0.089
0.029 -0.017 0.047
0.035 -0.007 0.061
0.013 0.005 0.067
0.045 -0.007 0.059
0.053 0.015 0.037
0.009 0.005 0.075
0.017 0.003 0.077
0.023 0.001 0.071
0.027 -0.001 0.103
0.043 -0.001 0.089
0.041 -0.001 0.101
0.033 0.009 0.105
-0.043 -0.013 0.039
-0.029 -0.013 0.053
-0.027 -0.011 0.051
-0.029 -0.011 0.055
0.019 -0.015 0.041
0.035 -0.005 0.067
0.029 -0.005 0.097
0.049 -0.009 0.089
-0.045 -0.003 0.039
-0.049 -0.009 0.049
-0.023 0.001 0.071
-0.057 0.005 0.079
-0.047 0.003 0.087
-0.021 0.009 0.093
-0.043 0.001 0.069
-0.031 0.001 0.067
-0.023 -0.003 0.071
0.009 -0.001 0.063
-0.021 0.001 0.069
-0.027 0.001 0.083
-0.047 0.003 0.087
0.017 0.001 0.087
0.031 -0.003 0.091
0.017 0.015 0.103
-0.045 -0.011 0.039
-0.037 0.003 0.043
-0.041 0.005 0.041
-0.049 0.001 0.055
-0.047 -0.003 0.043
-0.047 0.003 0.053
-0.047 0.003 0.061
-0.047 0.003 0.055
-0.049 0.003 0.057
-0.021 0.003 0.089
0.009 0.003 0.093
0.043 -0.009 0.085
-0.053 0.007 0.085
-0.045 0.003 0.071
-0.021 0.019 0.089
-0.035 0.007 0.041
-0.027 0.021 0.043
0.009 0.019 0.059
-0.035 0.015 0.079
0.009 0.003 0.093
0.015 0.011 0.095
0.013 0.025 0.097
0.025 0.017 0.105
0.017 0.009 0.101
0.027 -0.021 0.035
0.005 -0.011 0.037
0.007 -0.015 0.035
0.023 -0.017 0.041
0.027 -0.021 0.037
0.003 -0.003 0.051
0.041 -0.009 0.055
0.037 -0.007 0.059
0.035 -0.007 0.061
0.025 -0.003 0.089
0.039 -0.007 0.095
0.045 -0.007 0.089
0.039 -0.001 0.105
-0.013 -0.009 0.043
-0.029 0.013 0.047
-0.035 0.005 0.079
-0.021 0.009 0.093
0.007 -0.013 0.039
0.011 -0.001 0.063
-0.001 -0.001 0.059
0.007 0.009 0.081
0.023 -0.001 0.095
0.033 -0.003 0.073
0.049 -0.013 0.085
0.027 -0.001 0.093
0.015 0.001 0.101
0.019 0.001 0.097
-0.035 -0.011 0.049
-0.035 -0.009 0.051
-0.021 -0.019 0.051
0.029 -0.017 0.047
0.045 -0.009 0.045
0.043 -0.009 0.053
-0.029 -0.011 0.045
-0.005 -0.015 0.037
-0.013 -0.007 0.049
-0.001 0.001 0.051
-0.003 0.001 0.059
-0.047 0.003 0.085
-0.005 0.001 0.071
-0.011 0.005 0.091
0.051 -0.003 0.049
0.031 -0.005 0.067
0.019 0.003 0.083
0.057 0.003 0.081
0.035 -0.003 0.103
-0.039 -0.003 0.061
-0.019 -0.013 0.047
-0.023 -0.017 0.059
0.035 -0.025 0.041
0.037 -0.015 0.043
0.039 -0.017 0.035
0.051 -0.009 0.089
0.035 -0.007 0.087
0.039 -0.007 0.087
0.037 -0.007 0.095
0.055 -0.007 0.091
-0.021 -0.003 0.071
-0.009 0.001 0.047
-0.017 -0.007 0.053
0.013 -0.003 0.055
0.031 -0.005 0.067
0.003 -0.001 0.071
0.003 0.001 0.075
-0.005 0.001 0.075
-0.021 -0.003 0.073
-0.045 0.003 0.085
-0.023 0.001 0.071
-0.001 0.009 0.089
-0.003 0.003 0.085
-0.007 0.007 0.091
0.045 -0.007 0.059
0.047 -0.005 0.059
0.041 -0.003 0.069
0.051 0.001 0.049
0.039 -0.005 0.089
0.041 -0.009 0.099
0.033 -0.005 0.099
0.055 -0.013 0.087
0.057 -0.001 0.103
-0.049 0.001 0.055
-0.025 0.019 0.057
-0.003 0.019 0.063
-0.011 0.021 0.087
-0.033 0.017 0.037
-0.045 0.003 0.053
-0.037 0.013 0.035
-0.033 0.013 0.061
-0.047 0.009 0.073
-0.035 0.013 0.085
-0.027 0.021 0.073
-0.035 0.011 0.087
-0.019 0.021 0.085
-0.025 0.021 0.049
0.035 0.019 0.053
-0.007 0.021 0.077
0.009 0.019 0.067
0.023 0.017 0.075
-0.005 0.021 0.083
0.015 0.025 0.089
0.017 0.025 0.093
0.017 0.015 0.097
0.001 0.019 0.113
0.019 0.025 0.099
-0.021 -0.017 0.043
-0.003 -0.009 0.037
-0.019 -0.015 0.049
0.003 -0.001 0.061
0.037 -0.007 0.095
-0.023 0.001 0.053
-0.021 0.001 0.075
-0.017 -0.011 0.051
-0.023 0.001 0.053
-0.001 -0.001 0.071
-0.001 -0.001 0.065
-0.015 0.009 0.093
0.023 -0.007 0.053
0.031 -0.009 0.057
0.027 -0.011 0.053
0.039 -0.005 0.089
0.027 -0.003 0.085
0.025 0.001 0.105
0.025 0.005 0.105
0.055 -0.011 0.089
0.023 0.007 0.107
0.025 0.009 0.111
0.025 0.011 0.111
-0.047 -0.001 0.045
-0.029 0.005 0.047
0.005 0.017 0.047
0.029 0.021 0.041
0.029 0.021 0.043
0.017 0.025 0.089
0.039 0.013 0.091
-0.023 0.025 0.039
-0.011 0.019 0.051
-0.001 0.019 0.057
-0.001 0.019 0.057
-0.039 0.009 0.065
-0.041 0.007 0.087
-0.035 0.013 0.085
-0.009 0.017 0.069
-0.003 0.021 0.069
0.023 0.019 0.043
0.011 0.019 0.059
0.005 0.019 0.075
0.021 0.015 0.073
0.035 0.015 0.089
