0.005 -0.009 0.037
0.005 -0.003 0.043
0.029 -0.003 0.073
0.031 -0.003 0.091
0.051 -0.007 0.105
-0.045 -0.001 0.039
-0.005 0.007 0.089
-0.027 0.007 0.089
-0.023 0.007 0.091
-0.001 0.001 0.055
0.027 -0.017 0.047
0.027 -0.013 0.051
0.017 0.003 0.077
0.017 0.003 0.077
0.007 0.005 0.089
0.029 -0.003 0.091
0.009 0.005 0.091
0.017 0.001 0.089
0.035 -0.003 0.071
-0.039 -0.013 0.035
-0.039 -0.015 0.043
-0.023 -0.019 0.051
-0.007 -0.015 0.033
0.009 -0.011 0.043
0.017 -0.013 0.043
0.011 -0.009 0.045
0.017 -0.011 0.047
0.021 -0.015 0.039
0.021 -0.015 0.043
0.031 -0.003 0.071
0.053 -0.009 0.101
-0.015 -0.011 0.039
-0.023 -0.019 0.053
-0.011 -0.007 0.043
0.025 -0.019 0.037
-0.009 0.003 0.043
-0.015 -0.007 0.051
-0.013 -0.007 0.049
-0.017 0.001 0.053
0.001 -0.001 0.063
-0.001 -0.001 0.063
-0.041 0.005 0.075
-0.021 -0.007 0.067
-0.015 0.003 0.089
0.005 0.009 0.083
0.035 -0.007 0.061
0.047 0.009 0.037
0.049 0.011 0.039
0.027 -0.001 0.077
0.003 0.005 0.083
0.049 -0.011 0.081
0.049 0.003 0.095
0.047 0.003 0.095
0.055 0.003 0.081
0.009 0.003 0.101
0.023 -0.001 0.105
0.037 -0.001 0.105
0.053 -0.009 0.101
-0.023 -0.017 0.059
-0.021 -0.005 0.047
-0.019 -0.005 0.051
0.007 -0.005 0.051
0.005 -0.005 0.041
0.027 -0.013 0.051
0.035 -0.005 0.069
0.023 -0.001 0.093
0.045 -0.009 0.099
-0.043 -0.003 0.065
-0.047 -0.001 0.065
-0.045 -0.001 0.065
-0.049 0.007 0.087
-0.057 0.005 0.081
-0.047 0.001 0.067
-0.055 0.007 0.081
-0.037 0.011 0.083
-0.031 0.005 0.085
-0.027 0.001 0.081
-0.023 0.003 0.087
-0.011 0.003 0.089
0.015 0.007 0.077
0.005 0.011 0.087
-0.005 0.003 0.085
-0.005 0.003 0.087
-0.011 0.005 0.091
0.017 0.001 0.085
0.009 0.007 0.103
0.005 0.007 0.101
0.013 0.011 0.093
0.019 0.011 0.109
-0.021 0.021 0.047
-0.009 0.017 0.045
0.045 0.013 0.053
0.033 0.015 0.075
0.051 0.005 0.089
-0.031 0.017 0.033
-0.009 0.017 0.041
-0.017 0.029 0.033
-0.023 0.021 0.047
-0.013 0.015 0.059
-0.025 0.021 0.071
-0.047 0.011 0.079
-0.001 0.013 0.089
0.021 0.025 0.033
0.025 0.023 0.035
0.025 0.011 0.063
0.047 0.017 0.041
0.043 0.021 0.035
0.045 0.023 0.039
0.051 0.021 0.035
0.051 0.007 0.051
0.007 0.015 0.077
0.001 0.021 0.073
0.033 0.015 0.085
0.041 0.011 0.069
0.039 0.009 0.075
0.019 0.015 0.109
0.027 0.013 0.107
0.055 0.005 0.101
0.011 0.015 0.067
0.043 0.013 0.061
0.041 0.019 0.053
0.015 0.017 0.055
0.047 0.011 0.053
0.037 0.013 0.067
0.039 0.013 0.069
0.049 -0.005 0.047
0.051 -0.001 0.043
0.049 -0.003 0.057
0.049 0.005 0.087
0.059 0.003 0.099
-0.003 0.019 0.061
0.007 0.019 0.061
-0.003 0.021 0.081
0.051 0.013 0.037
0.037 0.021 0.051
0.027 0.021 0.039
0.031 0.013 0.059
0.003 0.019 0.057
0.027 0.017 0.075
0.027 0.021 0.089
0.029 0.021 0.099
0.025 0.023 0.109
-0.027 0.021 0.069
0.001 0.019 0.055
0.001 0.019 0.057
0.043 0.015 0.045
0.029 0.019 0.093
0.057 0.001 0.089
0.035 0.013 0.105
0.047 0.003 0.103
-0.039 0.011 0.033
-0.041 0.003 0.043
-0.045 0.001 0.047
-0.031 0.015 0.045
-0.031 0.019 0.069
-0.009 0.013 0.055
-0.027 0.019 0.077
-0.021 0.021 0.079
-0.025 0.021 0.073
-0.023 0.015 0.091
-0.001 0.019 0.057
0.017 0.013 0.059
0.037 0.019 0.041
0.025 0.015 0.071
0.007 0.019 0.065
0.015 0.025 0.103
0.011 0.007 0.101
0.043 0.013 0.101
0.035 -0.009 0.057
0.053 -0.009 0.101
0.037 -0.017 0.043
0.045 -0.009 0.045
0.045 -0.007 0.059
0.043 -0.007 0.061
0.043 -0.007 0.061
0.043 -0.003 0.089
0.057 -0.013 0.085
0.053 -0.009 0.103
0.051 -0.001 0.107
0.047 -0.005 0.095
0.047 0.009 0.063
0.047 0.001 0.065
0.057 0.001 0.105
0.043 0.011 0.087
0.027 0.007 0.105
0.051 -0.003 0.051
0.049 0.015 0.041
0.045 0.019 0.039
0.047 0.009 0.063
0.047 0.009 0.037
0.057 0.001 0.105
0.047 -0.001 0.089
0.027 0.021 0.093
0.057 0.003 0.087
0.049 -0.001 0.107
0.033 0.005 0.105
0.025 0.009 0.109
0.033 0.011 0.105
-0.037 -0.015 0.041
-0.021 -0.013 0.059
-0.027 -0.017 0.057
0.027 -0.017 0.047
0.019 -0.009 0.049
0.001 -0.001 0.063
0.009 -0.003 0.057
0.025 -0.003 0.055
0.033 -0.023 0.043
0.035 -0.007 0.085
0.035 -0.007 0.097
0.025 -0.001 0.101
-0.047 0.001 0.067
-0.021 0.005 0.091
-0.023 0.003 0.087
-0.019 0.007 0.091
-0.043 0.001 0.069
-0.047 0.003 0.087
-0.041 0.003 0.073
-0.037 0.009 0.083
-0.035 0.015 0.077
-0.029 0.001 0.075
-0.013 0.005 0.091
0.001 0.007 0.085
0.019 0.001 0.093
0.015 0.011 0.099
0.021 0.001 0.077
0.031 -0.003 0.103
0.041 0.001 0.105
0.019 0.011 0.109
0.023 0.013 0.115
0.041 0.007 0.105
0.051 -0.001 0.107
-0.023 -0.017 0.047
-0.023 -0.017 0.059
-0.019 -0.015 0.035
-0.001 -0.015 0.033
-0.007 -0.009 0.039
-0.023 -0.019 0.053
0.037 -0.015 0.043
0.045 -0.009 0.043
0.043 -0.009 0.095
0.053 -0.009 0.103
0.053 -0.009 0.103
0.037 -0.023 0.041
-0.005 -0.013 0.039
0.037 -0.025 0.041
-0.017 -0.011 0.043
-0.021 0.001 0.061
0.039 -0.019 0.039
0.035 -0.015 0.045
-0.017 0.001 0.051
0.033 -0.005 0.065
-0.043 0.005 0.075
-0.041 0.005 0.087
-0.005 0.001 0.077
0.007 0.001 0.069
0.033 -0.005 0.067
0.025 -0.001 0.075
0.055 -0.013 0.087
0.039 -0.015 0.041
0.037 -0.011 0.047
0.047 0.011 0.041
0.047 0.003 0.035
0.051 0.019 0.035
0.049 0.003 0.061
0.047 0.007 0.063
0.057 0.001 0.089
0.041 0.001 0.073
0.059 0.003 0.099
-0.047 -0.007 0.059
-0.035 0.011 0.085
-0.033 0.005 0.083
-0.025 -0.009 0.065
0.029 -0.017 0.047
0.009 0.013 0.111
0.033 0.005 0.105
-0.041 0.009 0.035
-0.039 0.011 0.075
-0.037 0.013 0.075
-0.019 0.021 0.087
-0.045 0.009 0.085
-0.043 0.011 0.083
-0.005 0.021 0.079
-0.007 0.021 0.081
0.019 0.017 0.053
0.023 0.019 0.043
-0.003 0.013 0.093
0.019 0.015 0.073
0.029 0.021 0.047
0.039 0.019 0.053
0.003 0.013 0.089
0.015 0.025 0.103
0.013 0.025 0.103
0.005 0.015 0.113
0.019 0.013 0.115
0.015 0.017 0.109
-0.015 -0.013 0.037
-0.023 -0.017 0.059
-0.019 -0.015 0.041
-0.009 -0.005 0.041
-0.019 -0.011 0.057
0.009 -0.015 0.035
0.027 -0.019 0.043
0.029 -0.005 0.061
0.045 -0.007 0.039
0.033 -0.007 0.085
0.037 -0.007 0.087
0.037 -0.003 0.103
-0.005 -0.009 0.039
-0.007 0.007 0.039
-0.007 0.005 0.041
-0.009 0.005 0.051
-0.005 0.003 0.063
-0.047 0.005 0.079
-0.009 0.001 0.083
-0.023 0.001 0.085
0.039 -0.007 0.061
0.031 -0.005 0.067
0.019 0.003 0.079
0.013 0.007 0.069
0.009 0.013 0.109
0.027 0.011 0.109
-0.047 -0.011 0.049
-0.041 -0.011 0.055
-0.025 -0.015 0.045
-0.019 -0.003 0.051
-0.029 -0.015 0.055
-0.027 -0.017 0.057
0.035 -0.001 0.075
0.027 -0.003 0.099
0.045 -0.007 0.101
-0.049 0.001 0.061
-0.035 0.009 0.041
-0.025 -0.005 0.065
-0.055 0.005 0.087
-0.035 0.003 0.073
-0.019 0.001 0.081
-0.003 0.001 0.077
-0.047 0.005 0.089
-0.027 0.011 0.093
-0.047 -0.007 0.059
-0.027 -0.009 0.053
-0.021 0.001 0.069
-0.023 -0.007 0.069
0.017 -0.003 0.055
0.011 0.003 0.087
0.015 0.001 0.101
0.009 0.013 0.107
0.017 0.003 0.109
-0.033 -0.011 0.031
-0.047 -0.011 0.043
-0.021 -0.017 0.047
-0.007 -0.015 0.037
0.033 -0.021 0.033
0.027 -0.019 0.041
0.053 -0.009 0.105
-0.049 -0.003 0.061
-0.029 0.005 0.049
-0.015 -0.011 0.047
-0.005 0.003 0.063
-0.007 0.005 0.065
-0.027 -0.013 0.061
-0.025 -0.007 0.067
-0.045 -0.003 0.065
-0.001 0.001 0.079
-0.023 -0.007 0.069
-0.005 0.003 0.067
-0.019 0.001 0.081
-0.003 0.005 0.087
0.025 0.001 0.065
0.009 -0.001 0.061
0.035 -0.011 0.053
0.023 0.003 0.067
0.025 -0.001 0.095
0.037 -0.001 0.073
0.023 0.009 0.111
0.009 0.003 0.101
0.023 0.011 0.113
0.037 -0.003 0.103
-0.037 -0.009 0.031
-0.045 -0.013 0.045
-0.049 -0.005 0.059
-0.037 -0.011 0.051
-0.025 -0.011 0.035
-0.003 -0.015 0.033
-0.019 -0.013 0.059
0.029 -0.019 0.031
0.005 -0.009 0.043
0.017 -0.015 0.041
0.023 -0.013 0.049
0.039 -0.019 0.035
0.025 -0.001 0.075
0.035 -0.005 0.065
0.049 -0.011 0.087
0.043 -0.009 0.097
-0.007 -0.015 0.033
-0.007 0.005 0.043
-0.045 0.005 0.077
-0.017 0.009 0.069
-0.005 0.001 0.075
-0.009 0.001 0.081
-0.027 0.001 0.081
-0.021 0.003 0.087
0.011 -0.009 0.045
0.013 -0.007 0.047
0.033 -0.005 0.063
0.043 -0.007 0.037
0.049 0.011 0.035
0.027 -0.001 0.065
0.029 -0.003 0.085
0.005 0.007 0.101
0.011 0.003 0.097
0.015 0.001 0.101
0.017 0.001 0.095
0.053 -0.007 0.099
-0.029 -0.013 0.035
0.035 -0.023 0.043
0.053 -0.007 0.103
-0.011 -0.007 0.043
-0.013 -0.005 0.051
-0.017 -0.009 0.053
0.017 -0.001 0.057
-0.011 0.011 0.093
-0.009 0.007 0.091
0.035 -0.005 0.065
0.037 -0.005 0.065
0.021 -0.001 0.085
0.057 -0.013 0.085
0.039 -0.005 0.089
0.051 -0.003 0.107
0.051 -0.001 0.107
0.047 0.003 0.065
0.055 0.001 0.097
0.061 -0.005 0.093
0.029 0.007 0.105
0.019 0.001 0.109
0.057 -0.001 0.105
-0.045 -0.001 0.039
-0.047 0.001 0.049
-0.039 0.005 0.041
-0.033 0.001 0.045
-0.029 0.007 0.045
-0.027 0.019 0.047
-0.027 0.019 0.059
-0.017 0.021 0.055
0.011 0.015 0.089
-0.041 0.009 0.033
-0.025 0.025 0.039
-0.027 0.023 0.039
-0.029 0.007 0.051
-0.043 0.013 0.075
-0.037 0.013 0.071
-0.011 0.017 0.091
-0.005 0.021 0.081
-0.015 0.025 0.043
0.013 0.023 0.037
0.011 0.021 0.045
0.001 0.021 0.063
0.009 0.019 0.059
0.017 0.023 0.043
-0.005 0.021 0.075
-0.001 0.021 0.069
0.015 0.025 0.097
0.009 0.007 0.097
0.019 0.025 0.099
-0.023 -0.017 0.059
-0.039 -0.013 0.049
0.025 -0.021 0.035
0.017 -0.011 0.047
0.039 -0.015 0.041
-0.013 0.007 0.061
-0.005 0.001 0.075
-0.017 0.003 0.063
-0.045 0.003 0.087
-0.031 0.003 0.081
-0.005 0.001 0.079
-0.019 0.011 0.095
0.027 -0.011 0.053
0.041 -0.009 0.085
0.015 0.007 0.065
0.027 -0.003 0.089
0.033 -0.003 0.103
0.007 0.005 0.095
0.039 -0.007 0.099
0.053 -0.001 0.105
0.051 -0.007 0.105
0.039 0.009 0.105
-0.031 0.019 0.037
-0.045 0.001 0.043
-0.047 0.005 0.063
-0.021 0.023 0.043
-0.035 0.017 0.073
0.001 0.017 0.051
-0.001 0.019 0.065
0.017 0.013 0.059
0.025 0.017 0.049
0.029 0.011 0.055
0.021 0.021 0.087
0.033 0.019 0.101
-0.055 0.007 0.075
0.015 0.021 0.051
0.039 0.019 0.041
0.033 0.017 0.053
0.005 0.019 0.069
0.025 0.017 0.075
0.013 0.015 0.085
0.015 0.025 0.093
0.031 0.017 0.085
0.023 0.015 0.105
0.007 0.019 0.111
0.029 0.021 0.103
0.019 0.013 0.113
0.037 0.015 0.103
