-0.009 -0.015 0.033
-0.039 -0.015 0.047
-0.031 -0.013 0.033
-0.039 -0.015 0.043
-0.043 -0.013 0.051
-0.041 -0.011 0.053
-0.041 -0.013 0.051
-0.041 -0.011 0.055
-0.017 -0.015 0.035
-0.017 -0.013 0.045
-0.007 -0.015 0.035
-0.003 -0.015 0.033
-0.003 -0.015 0.035
-0.003 -0.015 0.035
-0.005 -0.013 0.039
-0.009 -0.003 0.041
-0.025 -0.017 0.057
-0.017 -0.011 0.051
-0.021 -0.013 0.055
-0.015 -0.009 0.049
-0.015 -0.009 0.051
-0.011 -0.005 0.049
-0.041 -0.003 0.065
-0.041 -0.003 0.065
-0.021 -0.009 0.065
-0.021 -0.007 0.069
-0.019 -0.005 0.065
-0.021 -0.005 0.071
0.025 -0.021 0.033
0.035 -0.021 0.033
0.017 -0.015 0.039
0.027 -0.021 0.035
0.027 -0.021 0.035
0.031 -0.021 0.037
0.035 -0.023 0.037
0.037 -0.021 0.035
0.039 -0.019 0.035
0.009 -0.007 0.051
0.025 -0.013 0.051
0.031 -0.011 0.053
0.033 -0.011 0.055
0.035 -0.011 0.055
0.033 -0.007 0.059
0.041 -0.005 0.033
0.043 -0.007 0.035
0.045 -0.005 0.035
0.051 -0.003 0.045
0.037 -0.009 0.057
0.041 -0.007 0.061
0.039 -0.005 0.067
0.061 -0.005 0.085
0.031 -0.005 0.097
0.043 -0.009 0.099
0.045 -0.009 0.099
0.047 -0.009 0.097
-0.019 -0.015 0.033
-0.001 -0.007 0.033
0.009 -0.015 0.033
-0.019 -0.015 0.039
-0.019 -0.015 0.039
-0.005 -0.015 0.037
-0.005 -0.013 0.039
-0.039 -0.009 0.055
-0.023 -0.019 0.055
-0.023 -0.015 0.059
-0.021 -0.013 0.061
-0.005 -0.009 0.039
-0.015 -0.011 0.047
-0.013 -0.009 0.047
-0.011 -0.007 0.045
0.009 -0.013 0.041
0.011 -0.011 0.041
0.017 -0.015 0.039
0.017 -0.015 0.037
-0.009 -0.001 0.047
0.007 -0.009 0.045
0.011 -0.011 0.043
0.019 -0.015 0.041
-0.025 0.003 0.055
-0.019 0.001 0.055
-0.019 0.001 0.057
0.013 -0.005 0.053
0.017 -0.005 0.053
-0.001 -0.001 0.061
0.001 -0.001 0.063
0.003 -0.001 0.061
0.001 -0.001 0.057
-0.023 -0.009 0.067
-0.039 0.007 0.077
-0.041 0.005 0.079
-0.041 0.005 0.079
-0.021 -0.003 0.073
-0.019 0.003 0.067
-0.051 0.003 0.083
-0.043 0.005 0.081
-0.041 0.007 0.083
-0.045 0.003 0.085
-0.045 0.003 0.087
-0.021 0.001 0.069
0.001 -0.001 0.067
-0.001 -0.001 0.071
-0.007 0.001 0.075
-0.003 0.001 0.075
0.005 0.003 0.077
0.009 0.005 0.073
-0.017 0.003 0.089
-0.021 0.003 0.089
-0.009 0.005 0.089
-0.001 0.011 0.091
0.001 0.013 0.091
-0.015 0.001 0.085
-0.001 0.001 0.079
-0.005 0.001 0.083
0.041 -0.005 0.033
0.037 -0.021 0.037
0.039 -0.021 0.037
0.037 -0.021 0.035
0.037 -0.011 0.049
0.047 -0.001 0.035
0.045 -0.009 0.043
0.047 -0.007 0.049
0.015 0.001 0.059
0.047 -0.007 0.053
0.035 -0.007 0.061
0.045 -0.005 0.063
0.031 -0.013 0.051
0.017 0.005 0.059
0.045 0.001 0.033
0.047 0.003 0.035
0.045 0.003 0.033
0.051 0.011 0.035
0.051 0.003 0.043
0.049 0.015 0.041
0.049 0.001 0.037
0.053 0.015 0.035
0.051 0.015 0.039
0.051 0.003 0.055
0.051 0.001 0.053
0.049 -0.001 0.057
0.051 0.005 0.051
0.051 0.001 0.057
0.011 0.003 0.069
0.009 0.003 0.071
0.031 -0.005 0.067
0.033 -0.005 0.065
0.029 -0.003 0.073
0.013 0.007 0.071
0.013 0.007 0.071
0.027 -0.003 0.067
0.005 0.007 0.081
0.011 0.003 0.087
0.013 0.003 0.087
0.017 0.001 0.085
0.007 0.009 0.081
0.031 -0.005 0.087
0.031 0.001 0.081
0.019 -0.001 0.095
0.009 0.011 0.081
0.035 -0.003 0.091
0.053 -0.005 0.083
0.055 -0.013 0.083
0.057 -0.009 0.085
0.055 -0.013 0.087
0.057 -0.007 0.091
0.057 -0.007 0.091
0.059 -0.007 0.085
0.061 0.003 0.083
0.061 -0.007 0.093
0.023 -0.001 0.095
0.019 0.001 0.099
0.037 -0.007 0.097
0.035 -0.005 0.099
0.031 -0.003 0.103
0.031 -0.003 0.103
0.037 -0.001 0.105
0.027 0.001 0.105
0.049 -0.007 0.103
0.023 0.013 0.115
0.051 0.001 0.097
0.051 -0.009 0.099
0.053 0.001 0.097
0.053 -0.009 0.101
0.055 -0.001 0.099
0.059 0.003 0.101
-0.039 -0.015 0.043
-0.027 -0.013 0.041
-0.035 -0.015 0.039
-0.045 -0.013 0.047
-0.033 -0.015 0.043
-0.035 -0.007 0.051
-0.039 -0.007 0.059
-0.041 -0.007 0.061
-0.043 -0.007 0.061
-0.035 -0.013 0.049
-0.027 -0.017 0.049
-0.011 -0.013 0.037
-0.005 -0.015 0.035
-0.005 -0.013 0.039
-0.011 -0.007 0.039
-0.027 -0.017 0.057
-0.025 -0.017 0.059
-0.025 -0.017 0.059
-0.025 -0.017 0.059
-0.005 -0.005 0.039
-0.013 -0.009 0.047
-0.023 -0.019 0.055
-0.023 -0.017 0.057
-0.023 -0.015 0.061
-0.025 -0.013 0.061
-0.027 -0.013 0.061
-0.025 -0.007 0.067
-0.025 -0.007 0.067
0.029 -0.021 0.039
0.025 -0.021 0.035
0.029 -0.019 0.043
0.005 -0.003 0.045
0.017 -0.015 0.041
0.025 -0.017 0.043
0.023 -0.017 0.045
0.017 -0.009 0.047
0.023 -0.011 0.051
0.033 -0.023 0.043
0.035 -0.025 0.041
0.037 -0.021 0.043
0.031 -0.013 0.051
0.039 -0.011 0.047
0.045 -0.009 0.051
0.047 -0.007 0.055
0.045 -0.005 0.063
0.025 -0.003 0.089
0.025 -0.003 0.091
0.025 -0.001 0.093
0.039 -0.005 0.067
0.043 -0.003 0.067
0.035 -0.003 0.073
0.041 -0.005 0.089
0.057 -0.011 0.087
0.045 -0.007 0.089
0.051 -0.009 0.089
0.057 -0.007 0.091
0.053 -0.007 0.091
0.057 -0.007 0.093
0.047 -0.009 0.099
0.063 -0.007 0.093
0.021 -0.001 0.101
0.037 -0.003 0.103
0.047 -0.005 0.103
0.051 -0.007 0.105
-0.049 -0.007 0.051
-0.047 -0.005 0.061
-0.047 -0.003 0.063
-0.041 -0.003 0.065
-0.039 0.005 0.073
-0.043 -0.009 0.059
-0.029 0.003 0.047
-0.025 0.001 0.047
-0.039 -0.001 0.065
-0.029 -0.011 0.059
-0.023 -0.013 0.063
-0.041 0.001 0.069
-0.035 0.005 0.065
-0.031 0.001 0.069
-0.027 0.003 0.057
-0.013 0.005 0.059
-0.005 0.005 0.061
-0.005 0.003 0.061
-0.025 0.001 0.077
-0.007 0.007 0.065
-0.037 0.007 0.075
-0.033 0.005 0.081
-0.055 0.005 0.079
-0.053 0.003 0.083
-0.045 0.003 0.071
-0.045 0.005 0.075
-0.047 0.003 0.083
-0.051 0.003 0.087
-0.051 0.003 0.087
-0.051 0.003 0.083
-0.017 0.001 0.083
-0.033 0.011 0.089
-0.029 0.011 0.091
-0.027 0.005 0.087
-0.029 0.009 0.089
-0.023 0.011 0.093
-0.021 0.011 0.095
-0.011 0.001 0.085
-0.015 0.003 0.089
-0.007 0.005 0.089
-0.013 0.007 0.091
-0.025 0.013 0.093
-0.023 0.011 0.095
-0.013 0.011 0.095
0.005 -0.001 0.039
0.005 -0.003 0.045
0.005 -0.001 0.039
0.001 0.003 0.045
-0.001 -0.001 0.061
-0.001 -0.001 0.069
-0.005 0.001 0.069
-0.001 -0.001 0.065
0.009 -0.001 0.063
0.007 -0.001 0.067
-0.003 0.001 0.067
-0.005 0.005 0.061
0.003 0.001 0.077
0.021 0.007 0.059
-0.015 0.001 0.079
0.025 0.001 0.057
0.027 -0.001 0.061
0.031 -0.005 0.065
0.025 0.003 0.063
0.027 -0.003 0.067
0.029 -0.003 0.073
0.007 0.001 0.071
0.003 0.003 0.081
0.019 0.003 0.073
0.017 0.003 0.081
0.019 0.003 0.081
0.015 0.009 0.081
-0.007 0.007 0.091
0.015 0.001 0.089
0.007 0.005 0.097
0.003 0.013 0.089
0.007 0.007 0.103
0.015 0.021 0.095
0.011 0.013 0.107
0.017 0.011 0.107
0.043 -0.001 0.069
0.031 -0.005 0.085
0.027 -0.003 0.097
0.035 -0.007 0.097
0.035 -0.007 0.095
0.035 -0.005 0.099
0.023 -0.001 0.099
0.027 -0.001 0.103
0.037 -0.007 0.097
0.045 -0.009 0.101
0.011 0.013 0.107
0.017 0.003 0.109
0.005 0.015 0.113
0.019 0.011 0.115
0.045 0.001 0.103
0.031 0.005 0.105
0.055 0.001 0.105
-0.043 0.007 0.035
-0.047 -0.001 0.047
-0.049 -0.003 0.047
-0.039 -0.001 0.047
-0.049 -0.001 0.057
-0.041 0.005 0.057
-0.049 0.003 0.059
-0.047 0.005 0.063
-0.031 0.019 0.039
-0.031 0.019 0.037
-0.031 0.013 0.045
-0.029 0.005 0.049
-0.029 0.005 0.047
-0.023 0.021 0.043
-0.023 0.023 0.041
-0.023 0.023 0.041
-0.027 0.017 0.051
-0.023 0.021 0.049
-0.027 -0.011 0.053
-0.033 0.015 0.061
-0.031 0.019 0.071
0.011 0.015 0.037
0.007 0.017 0.043
0.003 0.005 0.039
0.007 0.005 0.035
0.007 0.007 0.035
0.005 0.007 0.039
0.007 0.015 0.041
0.011 0.017 0.039
0.013 0.019 0.037
0.011 0.021 0.039
0.017 0.023 0.039
0.003 0.019 0.051
0.023 0.007 0.061
0.013 0.021 0.041
0.017 0.023 0.039
0.029 0.021 0.045
0.023 0.017 0.045
0.033 0.019 0.051
0.033 0.017 0.053
0.023 0.007 0.059
0.019 0.011 0.067
0.013 0.025 0.097
0.015 0.025 0.089
0.039 0.013 0.087
0.035 0.015 0.089
0.035 0.017 0.093
0.041 0.015 0.093
0.043 0.011 0.091
-0.029 0.015 0.033
-0.023 0.021 0.035
-0.023 0.027 0.035
-0.021 0.013 0.031
-0.023 0.025 0.035
-0.045 0.001 0.049
-0.041 0.001 0.049
-0.043 0.007 0.059
-0.037 0.003 0.057
-0.039 0.005 0.059
-0.035 0.013 0.063
-0.033 0.015 0.061
-0.033 0.011 0.043
-0.029 0.017 0.047
-0.015 0.027 0.041
-0.027 0.023 0.039
-0.023 0.023 0.041
-0.019 0.023 0.043
-0.015 0.025 0.045
-0.027 0.019 0.051
-0.025 0.021 0.063
-0.021 0.019 0.065
-0.007 0.013 0.063
-0.017 0.017 0.063
-0.021 0.021 0.057
-0.045 0.007 0.071
-0.037 0.011 0.067
-0.039 0.011 0.069
-0.041 0.011 0.069
-0.049 0.009 0.085
-0.049 0.009 0.085
-0.047 0.011 0.081
-0.045 0.011 0.081
-0.041 0.011 0.081
-0.025 0.021 0.071
-0.029 0.019 0.077
-0.031 0.019 0.079
-0.027 0.019 0.079
-0.021 0.019 0.073
-0.013 0.015 0.071
-0.009 0.019 0.073
-0.011 0.021 0.081
-0.023 0.019 0.065
-0.029 0.019 0.073
-0.019 0.019 0.075
-0.003 0.021 0.069
-0.003 0.021 0.077
-0.031 0.015 0.087
-0.021 0.015 0.093
-0.017 0.021 0.087
-0.011 0.021 0.083
-0.021 0.019 0.089
-0.017 0.017 0.091
-0.029 0.017 0.087
-0.019 0.021 0.083
-0.019 0.019 0.089
-0.005 0.017 0.089
0.019 0.025 0.035
0.019 0.025 0.033
0.005 0.009 0.037
0.007 0.013 0.039
0.009 0.015 0.037
0.013 0.019 0.037
0.013 0.023 0.037
0.009 0.019 0.045
0.021 0.023 0.041
0.023 0.017 0.045
0.027 0.019 0.047
0.009 0.019 0.063
0.021 0.015 0.051
0.017 0.017 0.055
0.007 0.019 0.061
0.025 0.007 0.057
0.013 0.019 0.055
0.009 0.019 0.057
0.031 0.023 0.037
0.029 0.023 0.037
0.035 0.021 0.037
0.035 0.021 0.043
0.043 0.021 0.037
0.033 0.021 0.037
0.049 0.017 0.041
0.039 0.019 0.053
0.047 0.011 0.059
0.043 0.013 0.059
0.037 0.021 0.051
0.041 0.019 0.053
0.011 0.017 0.065
0.013 0.013 0.079
0.019 0.011 0.067
0.013 0.013 0.079
0.013 0.013 0.077
-0.001 0.021 0.073
0.001 0.019 0.079
-0.001 0.017 0.087
0.013 0.015 0.091
0.013 0.015 0.083
0.013 0.015 0.091
0.003 0.017 0.081
0.019 0.023 0.087
0.041 0.013 0.085
0.039 0.013 0.087
0.045 0.013 0.093
0.039 0.015 0.095
0.051 0.005 0.081
0.057 0.005 0.081
0.045 0.011 0.095
0.015 0.025 0.103
0.021 0.015 0.105
0.019 0.015 0.105
0.021 0.015 0.105
0.023 0.021 0.105
0.023 0.021 0.105
0.025 0.013 0.111
0.019 0.025 0.101
0.027 0.021 0.101
0.019 0.013 0.115
0.057 0.005 0.099
0.057 0.005 0.103
