-0.023 -0.019 0.055
-0.015 -0.009 0.043
-0.045 -0.013 0.047
-0.043 -0.015 0.045
-0.045 -0.011 0.053
-0.043 -0.011 0.053
-0.033 -0.013 0.047
-0.047 -0.009 0.057
-0.045 -0.011 0.051
-0.045 -0.011 0.055
-0.041 -0.011 0.053
-0.033 -0.005 0.049
-0.047 -0.005 0.061
-0.021 -0.019 0.051
-0.023 -0.019 0.051
-0.023 -0.019 0.055
-0.025 -0.019 0.055
-0.019 -0.015 0.051
-0.025 -0.017 0.059
-0.023 -0.017 0.059
-0.023 -0.013 0.063
-0.005 -0.015 0.037
-0.015 -0.011 0.047
-0.005 -0.007 0.039
-0.005 -0.009 0.039
-0.015 -0.011 0.047
-0.009 -0.005 0.043
-0.009 -0.003 0.047
-0.011 -0.005 0.049
-0.027 -0.017 0.057
-0.019 -0.015 0.051
-0.019 -0.013 0.053
-0.019 -0.011 0.061
-0.019 -0.013 0.057
-0.021 -0.013 0.061
-0.023 -0.011 0.063
-0.015 -0.009 0.051
-0.021 -0.007 0.069
-0.023 -0.005 0.071
-0.023 -0.005 0.071
-0.021 -0.003 0.073
0.011 -0.011 0.043
0.013 -0.011 0.043
0.029 -0.015 0.047
0.023 -0.013 0.049
0.025 -0.013 0.051
0.033 -0.023 0.043
0.027 -0.021 0.037
0.025 -0.019 0.041
0.013 -0.013 0.039
0.011 -0.009 0.045
0.013 -0.007 0.047
0.015 -0.013 0.041
0.025 -0.019 0.041
0.023 -0.013 0.047
0.021 -0.011 0.049
0.017 -0.013 0.043
0.019 -0.013 0.045
0.017 -0.007 0.049
0.019 -0.009 0.049
0.007 -0.005 0.055
0.011 -0.007 0.051
0.009 -0.007 0.051
0.011 -0.005 0.053
0.009 -0.003 0.057
0.029 -0.013 0.051
0.025 -0.011 0.053
0.023 -0.007 0.053
0.029 -0.003 0.065
0.037 -0.023 0.043
0.037 -0.021 0.043
0.039 -0.017 0.041
0.035 -0.011 0.049
0.043 -0.009 0.051
0.037 -0.013 0.045
0.043 -0.009 0.047
0.049 -0.005 0.051
0.049 -0.007 0.049
0.049 -0.005 0.055
0.035 -0.011 0.049
0.043 -0.007 0.061
0.045 -0.007 0.057
0.045 -0.005 0.061
0.051 -0.001 0.055
0.049 -0.003 0.059
0.025 -0.003 0.089
0.031 -0.005 0.087
0.039 -0.003 0.069
0.045 -0.003 0.067
0.045 -0.007 0.089
0.053 -0.011 0.089
0.055 -0.011 0.089
0.057 -0.007 0.093
0.047 -0.009 0.101
0.059 -0.007 0.091
0.059 -0.005 0.093
0.057 -0.001 0.091
0.021 -0.001 0.101
0.029 -0.003 0.099
0.027 -0.001 0.103
0.045 -0.009 0.099
0.033 -0.003 0.103
0.041 -0.007 0.099
0.045 -0.009 0.101
0.043 -0.005 0.099
0.033 -0.001 0.105
0.053 -0.009 0.103
0.049 -0.007 0.103
0.055 -0.003 0.105
-0.033 0.005 0.041
-0.027 -0.013 0.061
-0.017 -0.007 0.053
-0.039 -0.007 0.059
-0.039 -0.007 0.059
-0.035 -0.001 0.049
-0.037 -0.001 0.057
-0.035 0.007 0.041
-0.033 0.011 0.043
-0.047 0.001 0.067
-0.035 0.005 0.063
-0.027 0.003 0.055
-0.029 -0.001 0.047
-0.031 0.005 0.053
-0.031 0.003 0.061
-0.031 0.005 0.057
-0.029 0.001 0.063
-0.011 -0.003 0.049
-0.007 0.007 0.047
-0.031 0.001 0.065
-0.025 0.001 0.071
-0.023 -0.005 0.071
-0.019 0.003 0.061
-0.023 0.001 0.077
-0.017 0.001 0.079
-0.027 0.001 0.075
-0.021 0.001 0.077
-0.019 -0.005 0.065
-0.025 -0.005 0.069
-0.031 0.001 0.075
-0.031 0.003 0.079
-0.009 0.007 0.053
-0.003 0.001 0.071
-0.005 0.001 0.071
-0.011 0.007 0.057
-0.005 0.001 0.073
-0.005 0.001 0.075
-0.031 0.003 0.083
-0.021 0.003 0.087
-0.005 0.001 0.083
-0.047 0.001 0.067
-0.039 -0.001 0.065
-0.039 0.005 0.073
-0.033 0.005 0.081
-0.037 0.007 0.075
-0.041 0.003 0.073
-0.041 0.005 0.079
-0.037 0.007 0.073
-0.043 0.005 0.087
-0.039 0.007 0.079
-0.051 0.003 0.083
-0.051 0.005 0.087
-0.045 0.003 0.087
-0.041 0.007 0.087
-0.031 0.001 0.071
-0.029 0.001 0.075
-0.019 0.001 0.081
-0.017 0.001 0.083
-0.007 0.001 0.077
-0.013 0.001 0.083
-0.029 0.005 0.087
-0.023 0.007 0.091
-0.017 0.005 0.091
-0.007 0.003 0.087
-0.013 0.007 0.091
-0.003 0.011 0.091
-0.029 0.003 0.083
-0.029 0.005 0.087
-0.021 0.003 0.087
-0.031 0.009 0.089
-0.029 0.009 0.089
-0.025 0.013 0.093
-0.007 0.005 0.089
-0.015 0.013 0.095
-0.007 0.009 0.091
-0.007 0.013 0.093
-0.005 0.013 0.093
-0.023 0.011 0.095
-0.023 0.011 0.095
-0.011 0.013 0.095
-0.007 0.013 0.093
0.025 -0.005 0.055
0.023 0.005 0.057
0.001 -0.001 0.061
0.021 -0.009 0.051
0.011 0.001 0.067
0.009 0.001 0.069
0.019 0.007 0.061
0.027 -0.003 0.067
0.017 0.007 0.063
-0.001 -0.001 0.071
0.011 0.005 0.071
0.017 -0.001 0.057
0.023 -0.001 0.075
0.017 0.007 0.061
0.027 -0.003 0.087
0.003 0.001 0.077
0.007 0.003 0.075
0.011 0.005 0.071
0.009 0.007 0.077
0.041 -0.007 0.059
0.035 -0.005 0.067
0.039 -0.003 0.069
0.039 -0.003 0.071
0.035 -0.003 0.073
0.029 -0.001 0.077
0.041 -0.009 0.083
0.041 -0.009 0.085
0.007 0.003 0.077
0.009 0.007 0.077
0.007 0.005 0.087
0.011 0.003 0.093
0.021 0.001 0.077
0.027 -0.003 0.089
0.015 0.001 0.089
0.007 0.007 0.079
0.003 0.011 0.089
0.001 0.011 0.089
0.021 -0.001 0.101
0.023 -0.001 0.105
0.001 0.011 0.089
0.011 0.003 0.101
0.007 0.005 0.097
0.011 0.005 0.103
0.017 0.001 0.087
0.027 -0.001 0.103
0.029 -0.003 0.101
0.015 0.011 0.099
0.019 0.011 0.109
0.033 -0.005 0.095
0.033 -0.005 0.093
0.039 -0.007 0.085
0.037 -0.005 0.099
0.037 -0.003 0.101
0.035 -0.003 0.103
0.029 -0.001 0.103
0.031 -0.001 0.105
0.029 -0.001 0.103
0.033 -0.001 0.105
0.035 -0.001 0.105
0.039 -0.005 0.099
0.039 -0.003 0.101
0.039 -0.001 0.105
0.039 0.001 0.105
0.047 -0.007 0.101
0.057 -0.007 0.093
0.051 -0.005 0.105
0.049 -0.003 0.107
0.011 0.003 0.097
0.011 0.003 0.101
0.015 0.001 0.103
0.013 0.011 0.109
0.017 0.001 0.099
0.017 0.001 0.103
0.017 0.005 0.107
0.021 0.011 0.111
0.013 0.015 0.111
0.013 0.015 0.111
0.017 0.011 0.105
0.017 0.011 0.107
0.017 0.011 0.109
0.029 0.019 0.105
0.031 0.021 0.103
0.029 0.021 0.105
0.019 0.011 0.115
0.043 -0.001 0.101
0.033 0.009 0.105
0.033 0.013 0.105
0.035 0.003 0.105
0.037 0.007 0.105
0.047 -0.003 0.105
0.047 0.001 0.105
0.053 0.001 0.105
-0.049 -0.003 0.047
-0.047 0.001 0.049
-0.049 -0.003 0.047
-0.045 0.001 0.049
-0.033 0.001 0.045
-0.047 0.003 0.053
-0.037 -0.001 0.053
-0.037 0.013 0.037
-0.031 0.001 0.045
-0.029 0.015 0.047
-0.021 0.023 0.043
-0.029 -0.011 0.055
-0.035 0.007 0.059
-0.035 0.017 0.067
-0.007 0.013 0.065
0.011 0.021 0.039
0.013 0.017 0.035
-0.011 0.023 0.041
-0.001 0.009 0.049
0.001 0.013 0.047
0.007 0.015 0.039
0.009 0.015 0.037
0.011 0.021 0.039
0.005 0.017 0.049
0.009 0.019 0.055
0.009 0.019 0.055
0.017 0.013 0.059
0.021 0.009 0.065
0.011 0.021 0.041
0.011 0.019 0.051
0.015 0.023 0.041
0.019 0.023 0.041
0.015 0.023 0.039
0.021 0.023 0.039
0.019 0.023 0.041
0.031 0.019 0.051
0.037 0.021 0.049
0.027 0.011 0.053
0.029 0.013 0.063
0.039 0.017 0.055
0.019 0.015 0.073
0.017 0.013 0.075
0.011 0.015 0.087
0.025 0.015 0.071
0.021 0.015 0.071
0.029 0.015 0.067
0.015 0.025 0.089
0.031 0.017 0.085
0.019 0.025 0.097
0.027 0.021 0.097
0.045 0.009 0.085
0.053 0.005 0.085
0.035 0.015 0.091
0.017 0.011 0.103
0.015 0.015 0.097
0.013 0.025 0.103
0.019 0.025 0.101
0.029 0.021 0.099
0.025 0.023 0.101
0.031 0.021 0.103
0.039 0.015 0.101
0.051 0.003 0.103
0.051 0.003 0.105
0.053 0.001 0.105
-0.039 0.011 0.033
-0.035 0.013 0.031
-0.043 0.003 0.041
-0.045 0.001 0.049
-0.041 0.005 0.059
-0.033 0.017 0.035
-0.029 0.017 0.043
-0.029 0.015 0.047
-0.029 0.017 0.047
-0.017 0.027 0.037
-0.019 0.021 0.049
-0.015 0.025 0.045
-0.001 0.011 0.047
-0.025 0.025 0.039
-0.025 0.023 0.041
-0.027 0.021 0.041
-0.011 0.023 0.043
-0.017 0.025 0.045
-0.015 0.025 0.045
-0.027 0.019 0.051
-0.029 0.017 0.055
-0.027 0.011 0.049
-0.029 0.015 0.055
-0.033 0.017 0.065
-0.029 0.019 0.065
-0.005 0.013 0.057
-0.023 0.021 0.059
-0.023 0.021 0.061
-0.007 0.011 0.061
-0.003 0.017 0.057
-0.025 0.019 0.055
-0.023 0.021 0.055
-0.027 0.019 0.057
-0.021 0.021 0.061
-0.055 0.007 0.075
-0.055 0.007 0.077
-0.041 0.011 0.071
-0.043 0.009 0.065
-0.037 0.015 0.073
-0.041 0.011 0.075
-0.039 0.011 0.079
-0.037 0.013 0.079
-0.035 0.017 0.067
-0.033 0.019 0.069
-0.053 0.009 0.081
-0.047 0.009 0.083
-0.045 0.011 0.083
-0.047 0.009 0.085
-0.035 0.013 0.085
-0.033 0.019 0.067
-0.035 0.017 0.073
-0.029 0.019 0.067
-0.029 0.019 0.069
-0.027 0.019 0.067
-0.021 0.019 0.065
-0.025 0.021 0.079
-0.021 0.019 0.073
-0.009 0.015 0.069
-0.017 0.017 0.065
-0.025 0.021 0.071
-0.027 0.021 0.073
-0.025 0.021 0.077
-0.007 0.019 0.071
-0.027 0.019 0.085
-0.031 0.013 0.091
-0.029 0.015 0.089
-0.029 0.013 0.091
-0.019 0.015 0.093
-0.019 0.021 0.085
-0.015 0.019 0.089
-0.013 0.019 0.089
-0.017 0.015 0.093
-0.007 0.017 0.089
-0.025 0.021 0.083
-0.031 0.017 0.085
-0.021 0.021 0.087
0.013 0.011 0.031
0.015 0.023 0.033
0.019 0.025 0.033
0.013 0.021 0.035
0.001 0.009 0.043
0.015 0.021 0.033
0.007 0.019 0.047
0.009 0.019 0.045
0.013 0.021 0.047
0.013 0.023 0.037
0.025 0.023 0.035
0.017 0.017 0.055
0.027 0.017 0.049
0.027 0.013 0.053
0.025 0.009 0.055
0.011 0.019 0.049
0.027 0.023 0.037
0.027 0.023 0.035
0.045 0.017 0.041
0.045 0.013 0.043
0.033 0.019 0.033
0.039 0.021 0.039
0.043 0.017 0.047
0.047 0.023 0.037
0.049 0.023 0.037
0.051 0.021 0.033
0.041 0.019 0.053
0.047 0.011 0.059
0.043 0.015 0.055
0.043 0.011 0.065
-0.005 0.021 0.073
0.015 0.011 0.069
0.019 0.011 0.069
0.021 0.011 0.067
0.019 0.011 0.067
0.015 0.013 0.075
0.011 0.013 0.081
0.007 0.013 0.085
0.011 0.015 0.087
0.011 0.013 0.091
0.011 0.007 0.095
0.011 0.015 0.089
0.011 0.015 0.087
0.013 0.015 0.089
0.013 0.015 0.085
0.019 0.019 0.085
0.013 0.011 0.089
0.015 0.021 0.091
0.015 0.025 0.087
0.021 0.021 0.085
0.037 0.013 0.071
0.035 0.013 0.065
0.031 0.015 0.075
0.023 0.021 0.087
0.037 0.015 0.085
0.035 0.015 0.087
0.033 0.015 0.083
0.041 0.013 0.083
0.041 0.013 0.085
0.027 0.021 0.095
0.031 0.019 0.095
0.041 0.013 0.095
0.049 0.007 0.083
0.057 0.005 0.081
0.057 0.003 0.087
0.049 0.009 0.093
0.047 0.011 0.093
0.009 0.007 0.101
0.011 0.007 0.101
0.017 0.011 0.101
0.017 0.005 0.103
0.017 0.015 0.103
0.017 0.013 0.103
0.009 0.017 0.107
0.019 0.015 0.107
0.021 0.015 0.105
0.023 0.015 0.105
0.015 0.017 0.107
0.021 0.013 0.111
0.005 0.019 0.111
0.013 0.017 0.109
0.019 0.025 0.101
0.017 0.025 0.103
0.001 0.019 0.113
0.027 0.021 0.103
0.033 0.019 0.101
0.025 0.021 0.105
0.051 0.003 0.103
0.059 0.005 0.101
0.033 0.019 0.101
