-0.029 -0.013 0.059
0.035 -0.021 0.043
0.027 -0.015 0.047
0.019 -0.013 0.045
0.043 -0.009 0.055
0.059 -0.007 0.091
-0.033 0.009 0.043
-0.039 0.001 0.069
-0.035 0.005 0.075
-0.025 -0.015 0.061
-0.031 0.005 0.055
-0.027 0.001 0.069
-0.021 -0.009 0.065
-0.003 0.001 0.059
-0.031 0.003 0.083
-0.039 0.007 0.079
-0.019 0.003 0.069
-0.001 -0.001 0.071
-0.001 0.011 0.091
0.013 0.001 0.063
0.025 -0.001 0.073
0.015 0.005 0.063
0.011 0.005 0.071
0.021 0.001 0.075
0.041 -0.005 0.067
0.041 -0.003 0.069
0.017 0.001 0.093
0.001 0.007 0.085
0.019 0.003 0.109
0.031 -0.005 0.095
0.037 -0.001 0.105
0.007 0.005 0.103
0.015 0.001 0.103
-0.047 -0.011 0.043
-0.011 -0.013 0.037
-0.025 -0.017 0.057
0.027 -0.021 0.035
0.025 -0.019 0.037
0.019 -0.015 0.037
0.031 -0.021 0.037
0.027 -0.019 0.039
0.037 -0.011 0.051
0.029 -0.003 0.073
0.039 -0.007 0.083
0.051 -0.011 0.087
0.051 -0.009 0.089
0.049 -0.007 0.103
-0.025 -0.017 0.057
-0.033 0.003 0.067
-0.045 0.003 0.071
-0.007 0.009 0.065
0.013 -0.011 0.041
0.021 0.001 0.055
-0.009 0.005 0.069
0.025 -0.013 0.047
0.025 -0.001 0.069
0.027 -0.003 0.069
0.027 -0.003 0.057
0.017 0.005 0.079
0.021 0.001 0.077
-0.003 0.003 0.085
0.001 0.011 0.089
0.031 -0.001 0.075
0.031 -0.005 0.097
0.013 0.003 0.103
0.007 0.005 0.103
0.007 0.007 0.103
0.031 -0.001 0.105
0.033 0.001 0.105
0.031 0.003 0.105
-0.041 -0.015 0.041
-0.043 -0.009 0.059
-0.041 -0.013 0.051
-0.023 -0.019 0.051
-0.041 -0.011 0.053
-0.015 -0.011 0.047
-0.003 -0.009 0.035
-0.023 -0.017 0.057
0.017 -0.011 0.047
0.033 -0.009 0.057
0.033 -0.003 0.073
0.025 -0.001 0.095
0.049 -0.013 0.085
0.057 -0.013 0.085
0.055 -0.011 0.089
0.047 -0.009 0.099
0.047 -0.009 0.101
-0.013 -0.013 0.033
-0.007 -0.015 0.033
0.013 -0.011 0.041
-0.009 -0.005 0.045
-0.011 -0.003 0.049
-0.053 0.005 0.077
-0.047 0.005 0.079
-0.041 -0.003 0.065
-0.027 0.001 0.073
-0.043 0.005 0.085
0.043 -0.001 0.033
0.029 -0.021 0.039
0.039 -0.019 0.039
0.039 -0.013 0.037
0.033 -0.009 0.057
0.053 0.015 0.035
0.051 0.001 0.057
0.037 0.005 0.077
0.037 0.007 0.077
0.047 0.007 0.065
0.037 -0.003 0.103
0.045 -0.003 0.103
0.059 0.001 0.101
-0.035 -0.013 0.049
-0.027 -0.011 0.061
-0.027 -0.009 0.055
-0.027 -0.009 0.063
-0.025 -0.007 0.061
0.005 -0.003 0.047
0.023 -0.015 0.045
0.017 -0.007 0.049
0.017 -0.007 0.049
0.029 -0.005 0.061
0.027 -0.011 0.053
0.025 -0.003 0.091
0.023 -0.001 0.099
0.035 -0.007 0.097
0.043 -0.005 0.099
0.043 -0.005 0.099
-0.049 -0.001 0.053
-0.049 -0.001 0.061
-0.027 0.003 0.057
-0.031 0.017 0.041
-0.035 0.017 0.071
-0.045 0.003 0.087
-0.027 0.005 0.087
-0.013 0.019 0.089
-0.033 0.011 0.089
-0.007 0.001 0.083
-0.001 0.011 0.091
-0.013 0.013 0.095
0.005 0.005 0.095
0.019 0.013 0.109
0.023 0.009 0.111
0.019 0.011 0.115
0.025 0.009 0.111
-0.015 0.025 0.043
-0.007 0.013 0.049
-0.015 0.021 0.053
-0.017 0.015 0.067
0.015 0.021 0.045
0.035 0.015 0.091
0.047 0.007 0.085
0.049 0.009 0.097
0.053 0.005 0.085
0.045 0.005 0.101
0.049 0.007 0.099
0.057 0.005 0.103
-0.043 0.003 0.053
-0.041 0.005 0.057
-0.019 0.027 0.039
-0.013 0.017 0.035
-0.019 0.017 0.067
-0.019 0.021 0.059
-0.013 0.019 0.053
-0.043 0.009 0.065
-0.043 0.013 0.075
-0.033 0.017 0.079
-0.021 0.019 0.069
-0.021 0.019 0.075
-0.021 0.019 0.069
-0.001 0.021 0.077
-0.029 0.013 0.091
0.025 0.023 0.031
0.041 0.021 0.037
0.015 0.023 0.039
0.015 0.017 0.057
0.021 0.013 0.055
0.027 0.015 0.051
0.027 0.013 0.063
0.035 0.021 0.045
0.045 0.013 0.049
0.033 0.013 0.063
0.011 0.011 0.073
0.021 0.015 0.071
0.007 0.013 0.085
0.035 0.015 0.083
0.041 0.013 0.067
0.041 0.009 0.073
0.039 0.007 0.075
0.019 0.013 0.103
0.033 0.013 0.105
0.031 0.019 0.103
0.049 0.007 0.099
0.033 0.017 0.097
-0.011 -0.007 0.039
0.057 -0.013 0.085
0.029 -0.011 0.055
0.055 -0.011 0.089
0.037 -0.003 0.101
0.047 -0.005 0.103
0.063 -0.007 0.093
0.061 -0.007 0.093
0.051 -0.001 0.107
0.043 0.003 0.103
0.025 0.009 0.109
-0.041 0.007 0.087
0.025 0.007 0.107
-0.023 0.001 0.085
-0.017 0.015 0.093
-0.017 0.015 0.093
0.049 -0.001 0.089
0.047 0.011 0.055
0.045 0.015 0.051
0.049 0.009 0.059
0.045 0.009 0.067
0.021 0.003 0.107
0.039 0.015 0.101
0.051 0.003 0.105
0.049 0.009 0.097
0.027 0.011 0.109
0.019 0.003 0.109
0.043 0.011 0.103
0.043 0.009 0.101
0.011 0.019 0.057
0.045 0.015 0.051
0.041 0.019 0.045
0.037 0.019 0.053
0.031 0.015 0.067
0.049 0.015 0.041
0.039 -0.015 0.039
0.049 0.011 0.053
0.051 -0.003 0.049
0.043 0.005 0.089
0.049 0.003 0.089
0.059 0.001 0.087
0.057 -0.001 0.091
0.059 0.005 0.101
0.031 0.021 0.049
-0.001 0.021 0.077
-0.023 0.021 0.077
0.009 0.017 0.069
-0.023 0.021 0.077
0.023 0.023 0.093
0.021 0.023 0.095
0.031 0.017 0.085
0.037 0.021 0.037
0.053 0.015 0.037
0.051 0.017 0.039
0.051 0.005 0.043
0.035 0.013 0.073
0.003 0.021 0.071
0.029 0.019 0.091
0.045 0.009 0.085
0.017 0.025 0.089
0.021 0.023 0.089
0.043 0.011 0.081
0.045 0.009 0.087
0.049 0.011 0.095
0.047 0.011 0.095
0.055 0.005 0.083
0.051 0.005 0.089
0.035 0.015 0.103
0.059 0.003 0.103
-0.017 -0.015 0.043
-0.017 -0.011 0.051
-0.021 -0.011 0.063
-0.019 -0.015 0.035
-0.015 -0.013 0.039
-0.003 -0.013 0.035
0.033 -0.021 0.045
-0.023 -0.015 0.059
0.037 -0.023 0.039
0.037 -0.023 0.039
0.033 -0.019 0.045
0.039 -0.009 0.057
0.039 -0.013 0.035
0.045 -0.005 0.035
0.037 -0.011 0.051
0.051 -0.003 0.051
0.037 -0.005 0.067
0.043 -0.001 0.069
0.043 -0.009 0.095
0.061 -0.003 0.085
0.055 -0.003 0.101
0.037 -0.023 0.039
0.041 -0.011 0.045
0.047 -0.007 0.053
-0.025 0.001 0.063
0.037 -0.007 0.063
-0.057 0.005 0.079
-0.029 0.001 0.079
-0.017 0.001 0.081
-0.021 -0.003 0.073
0.007 0.001 0.071
0.023 -0.001 0.075
0.025 -0.001 0.079
-0.023 0.001 0.081
0.001 0.003 0.083
0.043 -0.007 0.035
0.043 -0.003 0.033
0.045 0.003 0.033
0.051 0.003 0.045
0.047 0.007 0.037
0.051 0.013 0.035
0.051 0.015 0.039
0.033 -0.001 0.075
0.039 -0.003 0.071
0.055 -0.013 0.087
0.027 -0.003 0.089
0.059 0.001 0.087
0.051 0.003 0.093
0.061 -0.001 0.083
0.055 0.005 0.095
0.053 0.003 0.081
0.053 -0.009 0.103
0.053 -0.007 0.103
0.055 -0.003 0.105
-0.035 0.011 0.087
-0.025 -0.007 0.067
0.005 0.005 0.095
0.031 -0.001 0.105
0.035 0.001 0.105
-0.039 0.011 0.035
-0.033 0.011 0.043
-0.035 0.005 0.041
-0.037 0.013 0.077
-0.015 0.021 0.049
-0.023 0.021 0.083
-0.045 0.011 0.075
-0.011 0.007 0.091
-0.021 0.019 0.089
-0.025 0.021 0.079
-0.019 0.007 0.091
0.021 0.021 0.041
0.011 0.021 0.045
0.013 0.015 0.083
0.027 0.015 0.051
0.013 0.027 0.095
0.031 0.021 0.049
0.001 0.007 0.085
0.007 0.005 0.089
0.011 0.013 0.091
0.013 0.007 0.101
0.015 0.023 0.103
0.019 0.011 0.115
0.027 0.015 0.103
0.023 0.013 0.111
0.019 0.023 0.103
0.033 0.009 0.105
-0.037 -0.015 0.043
-0.037 -0.015 0.041
-0.031 -0.015 0.041
-0.043 -0.007 0.061
-0.043 -0.005 0.063
-0.005 -0.015 0.035
-0.003 -0.015 0.035
-0.025 -0.015 0.061
-0.023 -0.009 0.067
0.029 -0.021 0.033
0.015 -0.015 0.033
0.023 -0.009 0.053
0.031 -0.005 0.063
0.035 -0.025 0.041
0.047 -0.007 0.043
0.029 -0.003 0.091
0.041 -0.009 0.083
-0.029 -0.013 0.039
-0.009 0.007 0.037
-0.023 -0.007 0.069
0.003 -0.001 0.061
-0.005 0.003 0.063
-0.029 0.001 0.073
-0.023 0.001 0.079
-0.001 -0.001 0.067
-0.017 0.001 0.081
-0.027 0.007 0.089
-0.017 0.011 0.095
-0.015 0.005 0.091
-0.013 0.007 0.091
-0.001 0.007 0.087
0.029 -0.017 0.047
0.019 -0.013 0.045
0.031 -0.005 0.063
0.051 -0.003 0.049
0.029 -0.003 0.073
0.011 0.003 0.097
0.047 -0.001 0.089
0.053 0.001 0.097
0.017 0.011 0.109
0.011 0.015 0.111
0.055 -0.003 0.103
-0.041 -0.015 0.045
-0.023 -0.017 0.047
-0.029 -0.013 0.033
-0.023 -0.019 0.051
0.025 -0.019 0.037
0.009 -0.015 0.037
0.025 -0.019 0.037
0.017 -0.011 0.045
0.025 -0.003 0.087
0.039 -0.005 0.067
-0.025 -0.015 0.045
-0.023 -0.011 0.039
-0.007 0.005 0.043
-0.007 -0.015 0.037
-0.021 0.001 0.059
-0.007 0.007 0.049
-0.033 0.003 0.067
-0.035 0.005 0.067
-0.021 -0.003 0.069
-0.021 0.001 0.075
-0.009 0.005 0.071
-0.003 0.005 0.087
0.019 -0.013 0.033
0.011 -0.013 0.037
0.017 -0.015 0.035
0.033 -0.013 0.047
0.025 -0.011 0.053
0.029 -0.005 0.061
0.019 -0.011 0.049
0.019 -0.007 0.051
0.039 -0.019 0.039
0.045 -0.009 0.049
0.049 -0.003 0.059
0.039 -0.007 0.083
0.021 -0.001 0.105
-0.047 -0.001 0.047
-0.047 -0.001 0.049
-0.049 0.001 0.057
-0.043 0.003 0.041
-0.021 0.025 0.041
-0.025 0.021 0.049
0.007 0.019 0.053
0.013 0.021 0.051
0.011 0.007 0.097
0.011 0.015 0.087
0.013 0.007 0.097
0.015 0.017 0.089
0.013 0.015 0.105
0.015 0.011 0.099
-0.031 0.019 0.039
-0.025 0.023 0.041
-0.031 0.017 0.041
-0.029 0.019 0.041
-0.017 0.025 0.045
-0.053 0.007 0.083
-0.051 0.009 0.083
-0.043 0.013 0.075
-0.027 0.013 0.093
-0.023 0.015 0.091
0.013 0.013 0.033
0.011 0.021 0.039
-0.015 0.027 0.041
0.041 0.019 0.041
-0.021 0.021 0.079
-0.011 0.021 0.077
-0.009 0.021 0.083
0.013 0.015 0.083
0.011 0.007 0.091
0.023 0.019 0.103
0.023 0.021 0.107
-0.029 0.009 0.051
-0.035 0.011 0.061
-0.001 0.011 0.047
0.005 0.009 0.039
0.003 0.013 0.043
0.021 0.009 0.065
0.009 0.019 0.051
0.015 0.021 0.091
0.013 0.027 0.095
0.037 0.013 0.067
0.031 0.015 0.071
0.021 0.021 0.085
0.023 0.021 0.085
0.023 0.023 0.097
0.049 0.007 0.085
0.041 0.015 0.093
0.035 0.017 0.099
-0.025 0.011 0.031
-0.043 0.003 0.039
-0.045 0.007 0.059
-0.015 0.025 0.045
-0.031 0.011 0.055
-0.001 0.013 0.049
-0.001 0.019 0.061
-0.047 0.007 0.065
-0.037 0.013 0.067
-0.043 0.011 0.079
-0.023 0.019 0.069
-0.027 0.021 0.073
-0.035 0.017 0.075
-0.019 0.013 0.095
0.003 0.013 0.043
-0.001 0.011 0.047
0.013 0.021 0.043
0.025 0.021 0.041
0.027 0.019 0.045
0.021 0.017 0.049
0.027 0.023 0.037
0.043 0.021 0.037
0.037 0.017 0.055
0.041 0.015 0.057
0.003 0.021 0.067
0.001 0.019 0.081
0.009 0.007 0.089
0.015 0.025 0.087
0.023 0.023 0.095
0.041 0.013 0.065
0.055 0.005 0.083
0.023 0.013 0.109
0.029 0.021 0.099
0.039 0.015 0.097
0.039 0.015 0.101
0.047 0.007 0.099
