-0.045 -0.013 0.041
-0.035 -0.015 0.035
-0.023 -0.017 0.049
-0.019 -0.017 0.045
-0.021 -0.009 0.065
0.023 -0.017 0.041
0.009 -0.011 0.043
0.013 -0.007 0.047
0.025 -0.019 0.037
0.009 -0.005 0.055
0.015 -0.003 0.055
0.039 -0.013 0.045
0.029 -0.001 0.075
0.033 -0.005 0.093
0.053 -0.013 0.085
0.037 -0.007 0.097
0.047 -0.003 0.105
-0.049 -0.003 0.061
-0.025 -0.017 0.059
-0.045 -0.011 0.055
-0.043 -0.009 0.057
-0.041 -0.007 0.059
-0.019 -0.011 0.061
-0.041 -0.001 0.067
-0.033 0.003 0.069
-0.045 0.003 0.081
-0.051 0.003 0.087
-0.021 0.001 0.077
-0.009 0.007 0.091
-0.013 0.003 0.087
0.001 0.001 0.047
-0.001 0.003 0.049
0.007 -0.009 0.045
0.009 -0.003 0.057
-0.003 0.007 0.053
0.025 0.003 0.063
-0.003 0.001 0.065
0.021 -0.007 0.051
0.013 -0.005 0.051
0.025 -0.013 0.051
0.029 -0.007 0.057
0.041 -0.007 0.057
0.027 -0.001 0.061
0.003 -0.001 0.071
0.011 0.003 0.097
0.019 0.003 0.081
0.009 0.005 0.099
0.023 -0.001 0.075
0.037 -0.001 0.075
0.023 -0.001 0.089
0.033 -0.005 0.093
0.031 -0.003 0.093
0.039 -0.007 0.099
0.031 -0.003 0.101
0.035 -0.001 0.105
0.033 0.005 0.105
-0.031 -0.013 0.033
-0.043 -0.011 0.053
-0.021 -0.019 0.051
-0.015 -0.013 0.033
-0.001 -0.015 0.033
-0.003 -0.015 0.035
-0.003 -0.015 0.035
-0.023 -0.019 0.055
-0.023 -0.019 0.053
-0.021 -0.015 0.053
-0.021 -0.015 0.055
0.037 -0.017 0.031
0.011 -0.009 0.047
0.017 -0.003 0.055
0.009 -0.003 0.057
0.027 -0.011 0.053
0.037 -0.017 0.043
0.049 -0.011 0.087
0.047 -0.011 0.085
0.043 -0.009 0.095
0.057 -0.007 0.091
0.061 -0.007 0.091
-0.019 -0.015 0.039
-0.017 -0.013 0.043
-0.023 0.001 0.057
-0.009 -0.005 0.045
0.011 -0.011 0.041
-0.013 -0.007 0.049
-0.017 0.003 0.057
0.007 -0.005 0.055
-0.015 0.007 0.063
-0.001 -0.001 0.063
-0.035 0.003 0.073
-0.001 -0.001 0.065
-0.005 0.001 0.073
0.007 0.001 0.071
-0.017 0.001 0.081
-0.019 0.001 0.085
-0.015 0.003 0.089
0.039 -0.019 0.037
0.007 -0.003 0.057
0.037 -0.009 0.055
0.051 0.017 0.039
0.049 0.007 0.059
0.051 -0.003 0.053
0.033 -0.003 0.071
0.027 -0.003 0.069
0.047 -0.011 0.081
0.037 0.001 0.091
0.045 0.001 0.069
0.043 0.005 0.071
0.057 -0.009 0.089
0.063 -0.007 0.093
-0.029 -0.015 0.053
-0.025 -0.009 0.049
-0.025 -0.015 0.061
-0.025 -0.007 0.061
-0.027 -0.017 0.055
-0.027 -0.017 0.055
-0.029 -0.013 0.053
0.005 -0.011 0.037
0.005 -0.003 0.043
0.005 -0.013 0.037
0.015 -0.015 0.039
0.017 -0.011 0.047
0.007 -0.007 0.049
0.015 -0.011 0.043
0.025 -0.011 0.053
0.029 -0.005 0.063
0.029 -0.011 0.055
0.025 -0.001 0.067
0.023 -0.001 0.099
0.049 -0.011 0.087
0.037 -0.003 0.103
0.031 -0.003 0.103
0.041 -0.009 0.099
0.039 -0.007 0.099
-0.037 0.013 0.037
-0.049 -0.001 0.059
-0.045 -0.001 0.065
-0.043 -0.001 0.067
-0.055 0.005 0.075
-0.023 0.029 0.035
-0.021 0.023 0.043
-0.033 0.003 0.065
-0.043 0.005 0.087
-0.043 0.007 0.087
-0.027 0.001 0.083
-0.035 0.009 0.085
-0.031 0.005 0.085
-0.031 0.007 0.087
-0.031 0.009 0.089
-0.053 0.007 0.083
-0.043 0.007 0.087
-0.031 0.001 0.075
-0.029 0.001 0.079
-0.027 0.001 0.083
-0.019 0.015 0.093
-0.011 0.011 0.095
-0.031 0.007 0.087
-0.025 0.011 0.093
-0.021 0.011 0.095
-0.007 0.001 0.083
0.005 0.001 0.075
0.017 0.003 0.079
-0.013 0.011 0.095
-0.015 0.009 0.093
-0.015 0.009 0.093
0.013 0.015 0.083
0.007 0.005 0.089
0.001 0.017 0.113
0.017 0.001 0.093
0.005 0.007 0.101
0.019 0.001 0.103
0.019 0.009 0.107
0.007 0.005 0.097
0.035 0.009 0.105
-0.021 0.025 0.041
-0.023 0.021 0.047
-0.031 0.017 0.041
-0.041 0.005 0.041
-0.027 0.017 0.053
-0.011 0.023 0.041
-0.013 0.015 0.061
-0.009 0.009 0.055
-0.017 0.013 0.071
0.019 0.009 0.059
0.049 -0.001 0.039
0.051 0.007 0.049
0.039 0.013 0.061
0.041 0.013 0.061
0.047 0.011 0.059
0.051 0.005 0.085
0.045 0.005 0.101
0.051 0.007 0.099
-0.013 0.013 0.033
-0.039 0.011 0.035
-0.041 0.005 0.041
-0.019 0.021 0.051
-0.027 0.019 0.045
-0.031 0.019 0.037
-0.023 0.025 0.039
-0.019 0.027 0.039
-0.019 0.029 0.035
-0.017 0.027 0.039
-0.023 0.021 0.059
-0.027 0.019 0.061
-0.017 0.019 0.061
-0.013 0.019 0.055
-0.035 0.017 0.079
-0.031 0.019 0.065
-0.025 0.019 0.065
-0.007 0.019 0.087
0.037 0.019 0.035
0.015 0.023 0.039
0.007 0.017 0.045
0.037 0.021 0.039
0.015 0.023 0.039
0.015 0.011 0.065
0.013 0.015 0.063
0.049 0.017 0.041
0.049 0.021 0.039
0.043 0.015 0.049
0.047 0.009 0.063
0.029 0.015 0.077
0.019 0.017 0.083
0.017 0.025 0.093
0.017 0.025 0.095
0.023 0.023 0.095
0.043 0.011 0.097
0.013 0.015 0.105
0.029 0.019 0.105
0.017 0.015 0.057
0.019 0.011 0.057
0.015 0.017 0.055
0.041 0.019 0.053
0.017 0.015 0.057
0.041 0.013 0.067
0.029 0.015 0.067
0.051 0.003 0.049
0.035 0.013 0.065
0.039 -0.019 0.037
0.049 0.001 0.037
0.061 -0.005 0.085
0.061 -0.001 0.085
0.059 -0.001 0.089
0.051 0.001 0.107
-0.011 0.019 0.041
0.015 0.021 0.049
0.029 0.021 0.045
-0.013 0.023 0.045
0.017 0.015 0.057
0.019 0.011 0.057
-0.007 0.021 0.085
-0.021 0.019 0.071
0.007 0.019 0.069
-0.017 0.021 0.079
0.017 0.025 0.093
-0.019 0.015 0.093
0.019 0.025 0.099
-0.007 0.021 0.085
-0.007 0.017 0.089
0.045 0.021 0.039
0.033 0.021 0.041
0.039 0.013 0.065
0.043 0.013 0.061
0.019 0.015 0.055
0.007 0.019 0.055
0.013 0.019 0.055
0.011 0.019 0.061
0.049 0.007 0.041
0.047 0.021 0.039
0.043 0.015 0.055
0.037 0.015 0.089
0.043 0.011 0.087
0.025 0.021 0.091
0.029 0.019 0.093
0.031 0.019 0.095
0.033 0.015 0.069
0.043 0.011 0.081
0.045 0.013 0.093
0.031 0.007 0.105
0.029 0.021 0.105
0.027 0.011 0.109
0.023 0.013 0.113
0.039 0.015 0.099
-0.035 0.003 0.041
-0.039 0.005 0.041
-0.019 0.021 0.059
-0.029 0.017 0.057
-0.015 0.021 0.049
-0.001 -0.013 0.033
0.011 0.019 0.059
0.015 0.017 0.057
0.023 0.007 0.057
0.015 0.013 0.061
0.031 0.017 0.051
0.041 0.013 0.067
0.047 0.011 0.059
0.023 0.021 0.089
0.025 0.021 0.095
0.029 0.015 0.079
0.029 0.021 0.099
0.033 0.005 0.105
0.047 0.001 0.105
-0.039 0.005 0.041
-0.023 0.021 0.045
-0.029 0.017 0.057
-0.013 0.023 0.043
-0.011 0.019 0.051
-0.001 0.015 0.051
-0.019 0.025 0.041
-0.025 0.021 0.061
-0.027 0.019 0.051
-0.011 0.015 0.057
-0.013 0.015 0.061
-0.043 0.009 0.067
-0.043 0.011 0.073
-0.015 0.021 0.079
-0.017 0.015 0.093
-0.003 0.013 0.091
0.001 0.013 0.047
0.031 0.021 0.039
0.027 0.021 0.041
0.025 0.017 0.047
0.011 0.019 0.049
0.011 0.019 0.057
0.033 0.021 0.049
0.011 0.015 0.069
0.019 0.017 0.081
0.013 0.015 0.083
0.011 0.007 0.095
0.041 0.013 0.067
0.029 0.019 0.093
0.045 0.009 0.083
0.035 0.017 0.093
0.011 0.007 0.097
0.007 0.019 0.109
0.027 0.011 0.109
0.017 0.025 0.103
0.043 0.013 0.101
0.033 0.005 0.105
-0.037 -0.013 0.033
-0.033 -0.013 0.033
-0.045 -0.011 0.053
-0.019 -0.015 0.047
-0.003 -0.015 0.035
-0.025 -0.019 0.055
0.009 -0.007 0.051
0.047 -0.005 0.039
0.033 -0.023 0.043
0.045 -0.009 0.045
0.033 -0.005 0.093
0.029 -0.003 0.101
0.045 -0.009 0.099
0.049 -0.009 0.097
-0.013 -0.013 0.033
-0.039 -0.013 0.049
-0.021 -0.017 0.043
-0.023 -0.017 0.045
-0.021 -0.017 0.049
-0.011 -0.003 0.049
-0.013 0.003 0.055
-0.009 0.009 0.055
-0.007 0.007 0.063
-0.055 0.005 0.077
-0.035 0.005 0.075
-0.019 0.005 0.071
-0.025 0.001 0.079
-0.003 0.001 0.065
-0.013 0.003 0.079
-0.003 0.003 0.085
-0.007 0.011 0.093
0.025 -0.021 0.033
0.039 -0.003 0.031
0.039 -0.017 0.033
0.005 -0.003 0.045
0.019 -0.005 0.053
0.043 -0.009 0.045
0.049 0.003 0.039
0.041 -0.009 0.039
0.051 -0.003 0.053
0.051 0.001 0.057
0.015 0.009 0.071
0.011 0.003 0.087
0.025 -0.003 0.091
0.041 -0.001 0.071
0.045 -0.009 0.083
0.041 -0.009 0.083
0.037 -0.007 0.095
0.037 -0.003 0.101
0.039 -0.001 0.103
-0.043 0.001 0.035
-0.043 0.007 0.035
-0.037 0.011 0.037
-0.047 -0.001 0.047
-0.029 0.005 0.049
-0.029 0.005 0.049
-0.031 0.015 0.043
-0.027 0.019 0.043
-0.023 0.021 0.051
-0.027 0.019 0.057
-0.021 0.021 0.049
0.003 0.013 0.043
0.005 0.013 0.041
0.005 0.015 0.043
-0.005 0.015 0.089
0.011 0.015 0.093
0.015 0.019 0.087
0.013 0.005 0.103
-0.033 0.017 0.035
-0.027 0.023 0.037
-0.019 0.021 0.051
-0.031 0.007 0.055
-0.031 0.013 0.057
-0.029 0.013 0.053
-0.023 0.021 0.055
-0.021 0.021 0.053
-0.029 0.019 0.061
-0.023 0.019 0.069
-0.033 0.017 0.081
-0.035 0.011 0.085
-0.031 0.013 0.091
0.011 0.013 0.033
0.013 0.017 0.035
0.013 0.019 0.037
0.025 0.017 0.047
0.001 0.019 0.061
0.019 0.017 0.079
-0.005 0.019 0.087
-0.005 0.021 0.083
0.007 0.005 0.093
0.013 0.011 0.089
0.021 0.023 0.091
0.031 0.015 0.073
0.025 0.017 0.077
0.015 0.011 0.105
0.023 0.021 0.103
-0.041 -0.009 0.057
-0.017 -0.015 0.043
-0.019 -0.009 0.059
0.031 -0.021 0.043
0.011 -0.009 0.045
0.025 -0.017 0.045
0.037 -0.015 0.043
0.021 -0.013 0.047
0.039 -0.021 0.037
0.037 -0.015 0.043
0.039 -0.011 0.037
0.041 -0.011 0.043
0.027 -0.003 0.097
0.041 -0.003 0.099
-0.039 -0.001 0.059
0.005 -0.001 0.065
-0.001 -0.001 0.069
0.003 -0.001 0.071
-0.003 0.001 0.073
-0.019 0.005 0.071
-0.025 0.003 0.087
-0.045 0.005 0.087
-0.041 0.005 0.087
-0.019 0.003 0.065
-0.005 0.001 0.075
-0.017 0.003 0.087
-0.019 0.011 0.095
0.039 -0.009 0.057
0.051 -0.013 0.085
0.027 -0.003 0.085
0.041 -0.009 0.049
0.051 0.007 0.053
0.009 0.003 0.071
0.009 0.005 0.073
0.025 -0.003 0.089
0.011 0.003 0.087
0.025 -0.003 0.091
0.049 -0.007 0.103
0.041 0.001 0.105
0.021 0.011 0.113
0.007 0.017 0.113
0.057 0.001 0.105
-0.027 0.017 0.035
-0.045 -0.007 0.037
-0.029 0.021 0.039
-0.035 0.015 0.063
-0.003 0.017 0.061
0.011 0.019 0.051
0.031 0.021 0.039
0.025 0.021 0.043
0.021 0.013 0.055
0.031 0.013 0.055
0.029 0.019 0.091
-0.043 0.007 0.035
-0.015 0.027 0.037
-0.027 0.011 0.049
-0.041 0.009 0.065
-0.035 0.017 0.071
-0.029 0.019 0.081
-0.025 0.021 0.081
-0.013 0.017 0.073
-0.021 0.019 0.069
-0.007 0.021 0.077
-0.031 0.019 0.081
-0.025 0.021 0.083
-0.023 0.019 0.087
-0.019 0.021 0.087
0.003 0.011 0.041
0.029 0.011 0.059
0.015 0.013 0.075
-0.005 0.019 0.087
0.011 0.015 0.087
0.025 0.023 0.097
0.037 0.015 0.089
0.013 0.007 0.097
0.021 0.025 0.099
0.025 0.023 0.107
0.045 0.011 0.097
