-0.021 -0.013 0.035
-0.043 -0.013 0.039
-0.043 -0.015 0.045
-0.047 -0.011 0.053
-0.033 -0.015 0.037
-0.019 -0.015 0.033
-0.031 -0.015 0.041
-0.023 -0.015 0.041
-0.015 -0.013 0.039
-0.023 -0.015 0.061
0.031 -0.021 0.037
0.001 -0.001 0.059
0.015 -0.005 0.053
0.035 -0.011 0.053
0.033 -0.003 0.071
0.045 -0.009 0.085
0.049 -0.007 0.103
-0.037 -0.015 0.043
-0.049 -0.001 0.059
-0.033 -0.013 0.045
-0.027 -0.017 0.049
-0.025 -0.019 0.055
-0.025 -0.019 0.055
-0.043 -0.009 0.057
-0.005 0.003 0.063
-0.041 -0.003 0.065
-0.045 0.005 0.071
-0.053 0.003 0.085
-0.045 0.003 0.081
-0.023 0.001 0.069
-0.025 0.001 0.075
-0.005 0.003 0.065
-0.015 0.005 0.075
-0.031 0.003 0.083
-0.009 0.009 0.067
-0.025 0.001 0.083
-0.023 0.001 0.081
-0.021 0.003 0.089
-0.013 0.001 0.081
-0.009 0.001 0.083
-0.005 0.001 0.081
-0.011 0.011 0.093
-0.011 0.005 0.091
0.007 0.001 0.035
0.003 -0.001 0.047
0.007 -0.009 0.045
0.003 -0.003 0.053
0.017 -0.001 0.057
0.025 0.005 0.059
0.025 0.003 0.063
0.017 -0.009 0.047
0.025 -0.013 0.051
0.035 -0.011 0.051
0.021 -0.003 0.055
0.021 -0.009 0.051
0.027 0.001 0.059
0.041 -0.009 0.055
0.043 -0.007 0.061
0.025 0.005 0.059
0.013 0.007 0.071
0.005 0.001 0.073
-0.001 0.001 0.077
0.021 0.005 0.069
0.017 0.003 0.077
-0.001 0.005 0.085
0.005 0.009 0.083
0.009 0.011 0.081
0.007 0.005 0.093
0.015 0.003 0.087
0.005 0.005 0.095
0.007 0.007 0.099
0.007 0.005 0.097
0.021 -0.001 0.083
0.039 -0.005 0.089
0.023 -0.001 0.089
0.033 -0.003 0.091
0.049 -0.009 0.089
0.023 0.001 0.107
0.007 0.005 0.101
-0.031 -0.015 0.041
-0.039 -0.013 0.051
-0.041 -0.011 0.055
-0.019 -0.015 0.033
-0.013 -0.013 0.033
-0.019 -0.017 0.043
-0.017 -0.013 0.041
-0.007 -0.015 0.037
0.035 -0.019 0.031
0.009 -0.013 0.041
0.013 -0.001 0.059
0.033 -0.011 0.055
0.029 -0.011 0.053
0.035 -0.007 0.059
0.037 -0.023 0.043
0.051 -0.001 0.047
0.031 -0.003 0.089
0.031 -0.003 0.091
0.051 -0.011 0.087
0.037 -0.003 0.093
0.055 -0.013 0.085
0.053 -0.007 0.083
0.055 -0.011 0.089
0.057 -0.009 0.089
0.045 -0.009 0.101
-0.009 -0.015 0.035
-0.021 -0.011 0.063
0.009 -0.007 0.051
-0.017 0.003 0.061
-0.017 0.003 0.063
-0.041 -0.003 0.065
-0.041 -0.001 0.067
-0.041 0.003 0.071
-0.005 0.001 0.077
-0.001 0.001 0.077
-0.021 0.003 0.087
-0.001 0.001 0.081
-0.011 0.005 0.091
-0.009 0.005 0.089
0.007 0.011 0.083
0.007 0.005 0.087
0.033 -0.023 0.037
0.039 -0.015 0.041
0.037 -0.015 0.043
0.047 -0.001 0.037
0.049 -0.005 0.047
0.033 -0.007 0.059
0.025 -0.011 0.053
0.045 -0.003 0.035
0.049 -0.001 0.041
0.049 0.011 0.039
0.049 0.015 0.041
0.051 0.007 0.051
0.047 -0.003 0.061
0.015 0.009 0.071
0.015 0.009 0.069
0.009 0.005 0.075
0.035 -0.001 0.075
0.013 0.003 0.065
0.005 0.007 0.081
0.027 -0.001 0.079
0.019 0.001 0.091
0.033 0.007 0.081
0.045 0.003 0.069
0.041 0.003 0.073
0.033 0.011 0.081
0.049 -0.009 0.089
0.031 -0.005 0.097
0.043 -0.009 0.099
0.039 -0.001 0.103
0.015 0.011 0.109
0.023 0.007 0.107
0.045 -0.007 0.095
0.047 -0.009 0.101
0.057 0.005 0.097
0.057 -0.001 0.103
-0.021 -0.013 0.061
-0.041 -0.009 0.057
-0.043 -0.009 0.059
-0.023 -0.015 0.061
-0.019 -0.013 0.059
-0.017 -0.011 0.051
-0.013 -0.013 0.037
-0.013 -0.009 0.047
-0.023 -0.015 0.061
-0.023 -0.009 0.067
0.009 -0.011 0.043
0.039 -0.019 0.041
0.053 -0.011 0.089
0.035 -0.011 0.055
0.039 -0.007 0.061
0.053 -0.009 0.091
0.033 -0.005 0.093
0.055 -0.011 0.089
0.053 -0.009 0.091
0.059 -0.007 0.091
0.047 -0.005 0.103
0.047 -0.007 0.101
-0.019 0.001 0.059
-0.013 0.003 0.055
-0.011 0.001 0.085
-0.023 -0.003 0.071
-0.017 0.003 0.089
-0.003 0.005 0.087
-0.001 -0.001 0.071
-0.009 0.011 0.095
-0.025 0.001 0.083
-0.023 0.001 0.061
0.003 0.013 0.089
-0.015 0.001 0.085
-0.011 0.003 0.089
-0.017 0.009 0.093
-0.003 0.003 0.085
-0.003 0.007 0.089
-0.003 0.013 0.093
-0.019 0.017 0.091
0.029 0.001 0.105
0.025 0.007 0.107
0.021 0.005 0.105
0.025 0.005 0.105
0.033 0.003 0.105
0.051 -0.003 0.107
0.051 -0.001 0.107
0.053 0.003 0.103
0.053 0.003 0.103
0.055 -0.007 0.105
0.055 -0.007 0.105
0.053 -0.005 0.105
0.021 0.005 0.105
0.021 0.007 0.103
0.013 0.003 0.103
0.021 0.013 0.115
0.047 -0.005 0.103
0.037 0.001 0.105
0.035 0.003 0.105
0.043 0.005 0.103
0.021 0.011 0.113
0.041 0.005 0.105
0.051 0.001 0.107
0.057 0.001 0.105
-0.043 0.001 0.043
-0.045 0.007 0.059
-0.041 0.001 0.049
-0.021 0.021 0.057
-0.031 0.019 0.067
-0.015 0.019 0.059
-0.013 0.013 0.061
-0.013 0.015 0.061
-0.017 0.017 0.065
-0.017 0.013 0.069
0.017 0.021 0.043
0.029 0.021 0.045
0.013 0.015 0.063
0.015 0.013 0.063
0.037 0.013 0.059
0.031 0.013 0.063
0.041 0.017 0.043
0.043 0.015 0.055
0.035 0.013 0.077
0.031 0.017 0.093
0.037 0.015 0.097
0.043 0.011 0.085
0.043 0.011 0.091
0.031 0.021 0.103
0.055 0.001 0.105
-0.033 0.015 0.033
-0.019 0.027 0.041
-0.017 0.021 0.047
-0.009 0.015 0.043
-0.007 0.011 0.041
-0.019 0.029 0.037
-0.011 0.011 0.059
-0.013 0.017 0.057
-0.035 0.017 0.071
-0.033 0.019 0.071
-0.043 0.011 0.073
-0.033 0.017 0.079
-0.001 0.021 0.077
0.001 0.019 0.079
-0.011 0.021 0.077
-0.015 0.021 0.085
-0.019 0.017 0.091
-0.007 0.013 0.093
-0.007 0.015 0.091
0.035 0.011 0.031
0.013 0.023 0.039
0.015 0.023 0.039
0.021 0.025 0.035
0.013 0.021 0.043
0.021 0.025 0.035
0.021 0.017 0.047
0.031 0.021 0.047
0.003 0.019 0.053
0.003 0.019 0.063
0.049 0.021 0.039
0.035 0.021 0.037
0.049 0.003 0.037
0.039 0.021 0.039
0.037 0.017 0.055
0.013 0.011 0.069
0.009 0.013 0.077
0.023 0.015 0.069
0.007 0.013 0.083
0.033 0.015 0.083
0.019 0.025 0.093
0.041 0.007 0.073
0.035 0.013 0.073
0.045 0.009 0.083
0.035 0.015 0.085
0.061 0.003 0.083
0.009 0.017 0.111
0.019 0.015 0.109
0.043 0.009 0.101
0.039 0.015 0.097
0.051 0.003 0.105
-0.031 -0.011 0.031
-0.037 -0.013 0.033
-0.039 -0.005 0.059
-0.019 -0.015 0.035
-0.027 -0.013 0.041
-0.023 -0.017 0.045
-0.019 -0.015 0.047
-0.015 -0.009 0.051
-0.021 -0.007 0.067
0.037 -0.015 0.031
0.009 -0.011 0.043
0.003 -0.001 0.045
0.017 -0.015 0.033
0.009 -0.007 0.051
0.037 -0.021 0.033
0.043 -0.009 0.047
0.049 -0.005 0.047
0.001 -0.001 0.069
0.051 -0.013 0.083
0.051 -0.009 0.089
0.051 -0.009 0.101
-0.011 -0.013 0.033
-0.007 -0.015 0.033
-0.027 -0.009 0.063
-0.017 -0.015 0.035
-0.011 -0.003 0.049
-0.039 0.001 0.069
-0.041 -0.001 0.067
-0.043 0.005 0.073
-0.047 0.005 0.077
-0.043 0.005 0.073
-0.041 0.005 0.075
-0.019 0.003 0.069
-0.017 0.009 0.071
-0.003 0.001 0.071
-0.021 0.001 0.075
-0.029 0.003 0.083
-0.023 0.001 0.083
-0.019 0.001 0.085
0.003 0.003 0.081
0.027 -0.021 0.035
0.017 -0.011 0.047
0.017 -0.009 0.047
0.029 -0.019 0.043
0.003 -0.001 0.049
0.049 0.011 0.035
0.051 0.011 0.035
0.045 -0.005 0.061
0.049 -0.003 0.057
0.037 -0.009 0.053
0.005 0.005 0.079
0.019 0.001 0.087
0.029 -0.003 0.091
0.037 0.005 0.077
0.039 -0.007 0.083
0.043 0.003 0.095
0.045 0.007 0.093
0.043 -0.003 0.089
0.045 0.007 0.093
0.055 -0.013 0.087
0.009 0.003 0.101
0.009 0.013 0.107
0.021 -0.001 0.101
0.021 -0.001 0.099
0.025 -0.001 0.103
0.029 -0.001 0.103
0.033 -0.003 0.103
0.039 -0.001 0.103
-0.041 -0.013 0.049
-0.045 -0.013 0.043
-0.047 -0.011 0.047
-0.033 -0.013 0.045
-0.043 -0.011 0.055
-0.043 -0.009 0.059
-0.039 -0.007 0.059
-0.039 -0.003 0.061
-0.031 -0.015 0.037
-0.025 -0.019 0.055
-0.029 -0.011 0.045
-0.023 -0.015 0.043
-0.031 -0.007 0.047
-0.025 -0.017 0.059
-0.009 -0.009 0.037
-0.009 -0.007 0.037
-0.013 -0.009 0.047
-0.023 -0.015 0.061
-0.027 -0.013 0.061
-0.021 -0.013 0.061
-0.027 -0.009 0.063
-0.023 -0.009 0.067
0.013 -0.015 0.033
0.031 -0.021 0.037
0.009 -0.015 0.033
0.007 -0.011 0.041
0.031 -0.013 0.049
0.031 -0.021 0.045
0.043 -0.009 0.051
0.037 -0.009 0.057
0.035 -0.003 0.073
0.055 -0.013 0.085
0.049 -0.009 0.089
0.043 -0.003 0.101
0.047 -0.005 0.103
-0.045 0.003 0.071
-0.027 -0.001 0.047
-0.023 -0.009 0.067
-0.009 -0.001 0.047
-0.033 0.003 0.069
-0.031 0.001 0.067
-0.005 0.003 0.063
-0.055 0.005 0.085
-0.041 0.001 0.069
-0.041 0.005 0.087
-0.027 0.007 0.089
-0.009 0.011 0.093
-0.031 0.011 0.091
-0.027 0.011 0.093
-0.017 0.013 0.095
0.007 -0.003 0.059
-0.001 -0.001 0.071
0.007 -0.001 0.067
-0.005 0.001 0.077
-0.011 0.003 0.075
0.035 0.001 0.077
0.041 -0.007 0.061
0.043 -0.007 0.061
0.037 -0.005 0.067
0.033 -0.005 0.069
0.001 0.003 0.083
0.001 0.001 0.079
-0.007 0.007 0.091
0.011 0.003 0.093
0.007 0.005 0.103
0.019 -0.001 0.095
0.015 0.005 0.103
0.027 -0.003 0.095
0.029 -0.003 0.101
0.027 -0.003 0.099
0.031 -0.005 0.097
0.027 0.001 0.105
0.035 -0.001 0.105
0.045 -0.009 0.097
0.043 -0.003 0.101
0.013 0.011 0.107
0.019 0.009 0.107
0.019 0.011 0.109
0.035 0.001 0.105
0.049 -0.003 0.107
0.027 0.009 0.107
-0.033 0.017 0.035
-0.041 0.005 0.041
-0.047 -0.001 0.045
-0.049 0.003 0.057
-0.031 0.017 0.041
-0.025 0.023 0.041
-0.027 0.021 0.043
-0.021 0.021 0.045
-0.025 -0.009 0.049
-0.035 0.017 0.067
0.007 -0.005 0.033
0.011 0.021 0.039
-0.015 0.025 0.043
0.007 0.015 0.039
0.003 0.019 0.053
-0.003 0.011 0.051
-0.003 0.017 0.061
0.005 0.019 0.057
0.011 0.019 0.051
0.037 0.021 0.049
0.035 0.021 0.051
0.037 0.019 0.053
0.017 0.015 0.077
0.025 0.015 0.073
0.033 0.015 0.069
0.017 0.025 0.095
0.037 0.015 0.101
-0.041 0.009 0.035
-0.033 0.013 0.059
-0.023 0.023 0.041
-0.017 0.025 0.043
-0.029 0.013 0.053
-0.029 0.013 0.053
-0.025 0.019 0.051
-0.013 0.019 0.053
-0.015 0.019 0.059
-0.017 0.019 0.061
-0.007 0.013 0.063
-0.019 0.021 0.053
-0.019 0.019 0.063
-0.053 0.009 0.079
-0.045 0.009 0.069
-0.035 0.013 0.087
-0.021 0.019 0.065
-0.021 0.019 0.071
-0.007 0.007 0.065
-0.035 0.013 0.085
-0.017 0.017 0.091
-0.025 0.021 0.081
0.017 0.023 0.031
0.005 0.005 0.037
0.013 0.023 0.037
0.005 0.019 0.063
0.019 0.017 0.053
-0.001 0.019 0.057
0.039 0.017 0.043
0.043 0.021 0.037
0.019 0.011 0.067
0.001 0.021 0.065
0.003 0.021 0.071
0.011 0.013 0.081
0.013 0.027 0.095
0.017 0.025 0.087
0.035 0.015 0.087
0.039 0.013 0.091
0.007 0.007 0.097
0.019 0.025 0.099
0.019 0.025 0.101
0.017 0.025 0.103
