-0.033 0.013 0.041
-0.025 0.021 0.045
-0.049 0.001 0.053
-0.043 0.003 0.041
-0.041 0.001 0.049
-0.039 -0.001 0.047
-0.041 0.005 0.039
-0.041 0.005 0.041
-0.043 0.003 0.039
-0.043 0.001 0.051
-0.047 0.001 0.047
-0.041 0.003 0.055
-0.043 0.003 0.053
-0.041 0.005 0.057
-0.035 -0.003 0.051
-0.047 0.001 0.047
-0.047 0.001 0.051
-0.035 0.001 0.043
-0.033 -0.003 0.049
-0.049 0.001 0.061
-0.041 0.009 0.063
-0.043 0.009 0.063
-0.043 0.003 0.053
-0.037 0.009 0.063
-0.045 0.009 0.069
-0.039 0.007 0.063
-0.025 0.021 0.049
-0.021 0.021 0.053
-0.021 0.019 0.051
-0.025 0.019 0.053
-0.031 0.015 0.045
-0.027 0.019 0.047
-0.021 0.021 0.049
-0.019 0.021 0.047
-0.029 0.017 0.057
-0.027 0.019 0.059
-0.019 0.021 0.057
-0.013 0.019 0.051
-0.013 0.019 0.053
-0.013 0.019 0.053
-0.017 0.021 0.049
-0.015 0.021 0.047
-0.011 0.019 0.051
-0.011 0.019 0.051
-0.017 0.021 0.057
-0.013 0.019 0.055
-0.015 0.019 0.059
-0.023 0.019 0.069
-0.023 0.019 0.071
-0.029 0.019 0.067
-0.027 0.019 0.065
-0.021 0.019 0.069
-0.029 0.019 0.071
-0.027 0.021 0.075
-0.021 0.019 0.073
-0.021 0.019 0.073
-0.027 0.021 0.075
-0.027 0.021 0.073
-0.025 0.021 0.071
-0.013 0.017 0.059
-0.025 0.021 0.077
-0.025 0.021 0.079
-0.003 0.021 0.075
0.003 0.017 0.047
0.011 0.021 0.045
0.013 0.021 0.045
0.013 0.021 0.045
0.017 0.021 0.043
0.027 0.021 0.043
0.023 0.009 0.055
0.021 0.013 0.055
0.003 0.019 0.051
0.005 0.019 0.053
0.001 0.017 0.051
0.003 0.019 0.053
0.009 0.019 0.045
0.005 0.019 0.051
0.003 0.019 0.059
0.007 0.019 0.059
0.003 0.019 0.055
0.003 0.019 0.053
0.003 0.019 0.057
0.009 0.019 0.059
0.011 0.019 0.051
0.017 0.017 0.055
0.017 0.017 0.055
0.025 0.017 0.047
0.021 0.017 0.045
0.025 0.017 0.049
0.017 0.013 0.059
-0.001 0.019 0.061
0.007 0.019 0.063
0.011 0.017 0.065
0.011 0.017 0.063
-0.001 0.021 0.071
0.007 0.019 0.069
0.017 0.011 0.059
0.019 0.009 0.061
0.015 0.013 0.063
0.019 0.009 0.059
0.027 0.015 0.069
0.025 0.015 0.071
0.027 0.009 0.059
0.029 0.013 0.061
0.029 0.019 0.049
0.031 0.017 0.051
0.033 0.021 0.049
0.033 0.021 0.049
0.037 0.021 0.051
0.041 0.019 0.053
0.041 0.019 0.049
0.029 0.011 0.059
0.035 0.013 0.059
0.041 0.017 0.055
0.043 0.017 0.051
0.041 0.013 0.063
0.033 0.015 0.069
0.045 0.011 0.063
0.003 0.019 0.077
0.001 0.019 0.079
0.019 0.017 0.081
0.025 0.019 0.083
0.019 0.025 0.099
0.027 0.021 0.095
0.019 0.025 0.099
0.023 0.023 0.101
0.027 0.021 0.103
0.027 0.021 0.097
0.031 0.017 0.093
0.035 0.017 0.093
0.039 0.013 0.091
0.031 0.019 0.097
0.027 0.021 0.103
0.033 0.017 0.103
0.043 0.011 0.091
0.047 0.007 0.087
0.053 0.005 0.087
0.057 0.001 0.089
0.061 -0.001 0.087
0.053 0.009 0.097
0.021 0.015 0.105
0.043 0.011 0.103
0.039 0.011 0.103
0.039 0.009 0.105
0.043 0.003 0.103
0.047 0.001 0.105
0.039 -0.001 0.105
0.047 -0.001 0.105
0.049 0.003 0.103
0.051 0.003 0.103
0.049 0.005 0.101
0.047 0.001 0.105
0.051 0.001 0.107
0.049 0.001 0.107
0.051 0.001 0.107
0.053 -0.001 0.105
0.057 -0.001 0.105
-0.043 0.007 0.035
-0.029 0.019 0.041
-0.021 0.023 0.043
-0.025 0.025 0.039
-0.021 0.027 0.039
-0.041 0.007 0.037
-0.039 0.005 0.041
-0.043 0.001 0.043
-0.041 0.003 0.043
-0.037 0.003 0.043
-0.035 0.001 0.043
-0.033 0.013 0.041
-0.049 0.001 0.053
-0.049 0.001 0.061
-0.045 0.003 0.055
-0.047 0.003 0.055
-0.047 0.005 0.061
-0.043 0.009 0.063
-0.041 0.011 0.067
-0.033 0.015 0.061
-0.033 0.019 0.067
-0.029 0.017 0.043
-0.025 0.021 0.049
-0.017 0.027 0.041
-0.025 0.021 0.059
-0.013 0.019 0.049
-0.011 0.023 0.043
-0.011 0.017 0.055
-0.007 0.013 0.045
-0.007 0.013 0.049
-0.007 0.013 0.047
-0.029 0.019 0.041
-0.025 0.025 0.039
-0.023 0.023 0.041
-0.021 0.025 0.041
-0.021 0.029 0.035
-0.021 0.029 0.037
-0.017 0.021 0.047
-0.017 0.027 0.041
-0.013 0.023 0.043
-0.015 0.027 0.041
-0.013 0.023 0.045
-0.011 0.019 0.045
-0.013 0.023 0.045
-0.011 0.021 0.043
-0.025 0.021 0.063
-0.025 0.021 0.063
-0.023 0.019 0.065
-0.027 0.017 0.055
-0.029 0.017 0.059
-0.029 0.017 0.057
-0.031 0.019 0.067
-0.031 0.019 0.069
-0.023 0.019 0.069
-0.017 0.015 0.067
-0.031 0.019 0.061
-0.017 0.019 0.059
-0.013 0.017 0.059
-0.013 0.017 0.057
-0.015 0.017 0.061
-0.007 0.011 0.051
-0.003 0.019 0.061
-0.009 0.013 0.055
-0.001 0.015 0.053
-0.003 0.017 0.059
-0.007 0.015 0.065
-0.005 0.021 0.073
-0.013 0.015 0.061
-0.011 0.013 0.059
-0.015 0.013 0.065
-0.001 0.019 0.061
-0.027 0.019 0.051
-0.023 0.021 0.055
-0.021 0.021 0.053
-0.027 0.019 0.059
-0.031 0.019 0.065
-0.015 0.021 0.051
-0.015 0.019 0.059
-0.055 0.007 0.081
-0.049 0.009 0.077
-0.043 0.013 0.075
-0.043 0.013 0.075
-0.041 0.011 0.075
-0.045 0.011 0.073
-0.041 0.011 0.075
-0.039 0.009 0.067
-0.033 0.019 0.077
-0.043 0.011 0.069
-0.035 0.017 0.067
-0.033 0.019 0.067
-0.045 0.011 0.077
-0.041 0.011 0.079
-0.041 0.011 0.081
-0.035 0.017 0.079
-0.041 0.011 0.075
-0.039 0.011 0.077
-0.033 0.019 0.073
-0.049 0.009 0.085
-0.051 0.007 0.085
-0.047 0.009 0.085
-0.045 0.007 0.087
-0.043 0.007 0.087
-0.033 0.015 0.085
-0.035 0.013 0.085
-0.033 0.013 0.089
-0.033 0.013 0.089
-0.031 0.019 0.079
-0.027 0.019 0.079
-0.025 0.021 0.075
-0.019 0.017 0.067
-0.019 0.021 0.081
-0.017 0.021 0.079
-0.011 0.021 0.077
-0.011 0.021 0.077
-0.009 0.019 0.073
-0.009 0.021 0.075
-0.003 0.021 0.081
-0.013 0.017 0.073
-0.007 0.019 0.073
-0.015 0.021 0.083
-0.013 0.021 0.083
-0.011 0.021 0.087
-0.009 0.019 0.087
-0.029 0.019 0.067
-0.021 0.019 0.069
-0.021 0.019 0.073
-0.025 0.021 0.075
-0.025 0.021 0.079
-0.019 0.019 0.077
-0.021 0.021 0.079
-0.023 0.021 0.081
-0.011 0.017 0.073
-0.015 0.019 0.075
-0.009 0.021 0.079
-0.015 0.021 0.081
-0.005 0.021 0.075
-0.027 0.017 0.089
-0.023 0.017 0.091
-0.017 0.015 0.093
-0.023 0.013 0.093
-0.023 0.013 0.093
-0.019 0.015 0.093
-0.025 0.013 0.093
-0.025 0.015 0.091
-0.027 0.013 0.093
-0.025 0.013 0.093
-0.023 0.015 0.091
-0.023 0.011 0.095
-0.013 0.017 0.091
-0.011 0.019 0.089
-0.011 0.015 0.091
-0.003 0.017 0.087
-0.007 0.015 0.091
-0.015 0.013 0.095
-0.007 0.013 0.093
-0.015 0.013 0.095
-0.011 0.013 0.093
-0.007 0.013 0.093
-0.003 0.013 0.091
-0.007 0.015 0.091
-0.007 0.013 0.093
-0.029 0.017 0.085
-0.021 0.021 0.083
-0.019 0.021 0.083
-0.017 0.021 0.081
-0.019 0.021 0.085
-0.021 0.019 0.089
-0.017 0.017 0.091
-0.013 0.021 0.087
-0.005 0.021 0.083
-0.011 0.017 0.091
0.019 0.023 0.039
0.025 0.023 0.031
0.007 0.017 0.045
0.007 0.017 0.043
0.001 0.017 0.051
0.001 0.017 0.051
0.003 0.015 0.045
0.021 0.023 0.039
0.015 0.023 0.039
0.013 0.023 0.039
0.021 0.025 0.035
0.027 0.023 0.037
0.021 0.019 0.041
0.019 0.023 0.041
0.025 0.017 0.049
0.029 0.021 0.047
-0.001 0.019 0.061
0.001 0.019 0.057
0.011 0.017 0.067
0.013 0.013 0.067
0.011 0.015 0.069
0.013 0.015 0.065
0.015 0.013 0.063
0.013 0.015 0.065
0.023 0.007 0.057
0.023 0.013 0.053
0.021 0.013 0.055
0.029 0.017 0.051
0.029 0.011 0.055
0.031 0.013 0.055
0.015 0.013 0.063
0.023 0.007 0.059
0.021 0.011 0.067
0.025 0.009 0.061
0.025 0.009 0.061
0.023 0.011 0.065
0.017 0.013 0.059
0.029 0.011 0.057
0.015 0.019 0.053
0.015 0.017 0.057
0.015 0.017 0.057
0.011 0.017 0.063
0.039 0.019 0.041
0.037 0.021 0.039
0.047 0.017 0.041
0.045 0.013 0.045
0.047 0.011 0.045
0.047 0.011 0.043
0.049 0.017 0.041
0.047 0.013 0.049
0.049 0.011 0.051
0.049 0.011 0.051
0.035 0.021 0.035
0.035 0.021 0.039
0.037 0.021 0.039
0.039 0.021 0.039
0.041 0.021 0.039
0.039 0.021 0.049
0.039 0.021 0.047
0.049 0.023 0.037
0.037 0.015 0.057
0.043 0.017 0.053
0.043 0.017 0.053
0.035 0.013 0.061
0.049 0.009 0.059
0.049 0.009 0.059
0.043 0.017 0.049
0.041 0.019 0.049
0.041 0.019 0.053
0.007 0.017 0.075
0.009 0.015 0.073
0.009 0.015 0.073
0.015 0.009 0.071
0.001 0.017 0.083
0.007 0.013 0.083
0.011 0.011 0.077
0.023 0.017 0.075
0.023 0.015 0.073
0.023 0.021 0.089
0.027 0.019 0.087
0.019 0.015 0.075
0.021 0.017 0.077
0.027 0.017 0.075
0.031 0.015 0.079
0.009 0.019 0.067
0.005 0.019 0.075
0.007 0.017 0.075
0.003 0.019 0.079
0.003 0.019 0.079
0.001 0.015 0.087
0.005 0.013 0.085
0.013 0.015 0.093
0.003 0.015 0.083
0.013 0.015 0.083
0.013 0.011 0.093
0.011 0.015 0.093
0.013 0.007 0.099
0.013 0.015 0.093
0.013 0.015 0.093
0.013 0.025 0.097
0.017 0.023 0.091
0.015 0.025 0.095
0.029 0.017 0.085
0.031 0.017 0.083
0.031 0.017 0.085
0.031 0.017 0.085
0.015 0.025 0.101
0.027 0.021 0.103
0.015 0.025 0.097
0.023 0.021 0.085
0.017 0.023 0.091
0.029 0.017 0.085
0.029 0.019 0.089
0.017 0.023 0.091
0.017 0.023 0.099
0.019 0.025 0.099
0.019 0.023 0.095
0.019 0.025 0.097
0.029 0.019 0.091
0.033 0.015 0.069
0.043 0.011 0.067
0.041 0.011 0.069
0.037 0.009 0.077
0.039 0.007 0.075
0.029 0.017 0.085
0.033 0.015 0.075
0.035 0.011 0.079
0.035 0.011 0.079
0.033 0.017 0.091
0.043 0.011 0.087
0.047 0.007 0.083
0.041 0.013 0.085
0.029 0.021 0.103
0.047 0.009 0.097
0.035 0.017 0.093
0.045 0.013 0.093
0.043 0.011 0.095
0.043 0.011 0.095
0.047 0.007 0.085
0.055 0.003 0.085
0.051 0.007 0.083
0.045 0.013 0.093
0.051 0.005 0.089
0.057 0.003 0.087
0.051 0.009 0.097
0.033 0.017 0.095
0.005 0.019 0.109
0.009 0.007 0.099
0.011 0.017 0.107
0.011 0.017 0.111
0.011 0.017 0.111
0.021 0.013 0.109
0.019 0.015 0.107
0.017 0.015 0.105
0.023 0.021 0.107
0.029 0.021 0.105
0.027 0.011 0.109
0.019 0.015 0.105
0.023 0.021 0.107
0.015 0.025 0.097
0.009 0.017 0.111
0.023 0.021 0.105
0.031 0.019 0.101
0.029 0.021 0.103
0.025 0.023 0.101
0.025 0.021 0.105
0.019 0.025 0.101
0.025 0.023 0.109
0.037 0.011 0.105
0.037 0.015 0.103
0.041 0.013 0.101
0.041 0.013 0.103
0.039 0.007 0.105
0.045 0.003 0.103
0.037 0.015 0.101
0.039 0.015 0.101
0.037 0.015 0.103
0.041 0.013 0.099
0.043 0.011 0.103
0.033 0.007 0.105
0.037 0.009 0.105
0.059 0.005 0.101
0.059 0.005 0.101
0.051 0.001 0.107
