-0.049 -0.013 0.039
-0.043 -0.021 0.039
-0.033 -0.021 0.035
-0.053 -0.015 0.037
-0.051 -0.017 0.037
-0.051 -0.015 0.039
-0.049 -0.007 0.041
-0.045 -0.017 0.041
-0.045 -0.015 0.041
-0.047 -0.011 0.041
-0.037 -0.021 0.051
-0.049 -0.007 0.057
-0.049 -0.003 0.059
-0.033 -0.021 0.041
-0.017 -0.023 0.043
-0.041 -0.019 0.041
-0.039 -0.021 0.047
-0.045 -0.013 0.043
-0.039 -0.021 0.047
-0.035 -0.021 0.051
-0.021 -0.015 0.053
-0.023 -0.011 0.053
-0.039 -0.019 0.053
-0.039 -0.019 0.053
-0.017 -0.017 0.053
-0.011 -0.017 0.063
-0.039 -0.019 0.053
-0.039 -0.017 0.055
-0.039 -0.015 0.057
-0.021 -0.015 0.053
-0.041 -0.013 0.067
-0.033 -0.015 0.069
-0.027 -0.015 0.069
-0.041 -0.011 0.071
-0.041 -0.013 0.065
-0.043 -0.011 0.069
-0.041 -0.007 0.073
-0.045 -0.009 0.081
-0.045 -0.009 0.083
-0.061 -0.001 0.085
-0.059 -0.001 0.087
-0.055 -0.005 0.081
-0.055 -0.003 0.085
-0.053 -0.009 0.095
-0.057 -0.005 0.097
-0.037 -0.015 0.085
-0.035 -0.015 0.087
-0.045 -0.009 0.085
-0.047 -0.007 0.087
-0.045 -0.013 0.093
-0.041 -0.015 0.093
-0.053 -0.009 0.095
-0.045 -0.009 0.097
-0.009 -0.019 0.067
-0.033 -0.015 0.069
-0.027 -0.015 0.069
-0.045 -0.009 0.085
-0.041 -0.013 0.083
-0.043 -0.011 0.087
-0.013 -0.013 0.065
-0.035 -0.015 0.087
-0.031 -0.017 0.085
-0.027 -0.019 0.083
-0.025 -0.021 0.087
-0.025 -0.021 0.091
-0.029 -0.021 0.099
-0.053 -0.009 0.097
-0.043 -0.009 0.103
-0.035 -0.017 0.093
-0.027 -0.021 0.089
-0.035 -0.017 0.093
-0.037 -0.015 0.089
-0.039 -0.015 0.099
-0.039 -0.015 0.099
-0.035 -0.015 0.103
-0.051 -0.003 0.105
-0.043 -0.011 0.103
-0.047 -0.007 0.099
-0.049 -0.003 0.105
-0.045 -0.003 0.103
-0.039 -0.007 0.105
-0.029 -0.021 0.099
-0.023 -0.023 0.099
-0.013 -0.017 0.109
-0.033 -0.019 0.101
-0.029 -0.017 0.105
-0.027 -0.017 0.105
-0.043 -0.009 0.103
-0.041 -0.009 0.103
-0.039 -0.009 0.105
-0.027 -0.017 0.105
-0.027 -0.005 0.105
-0.031 -0.013 0.105
-0.027 -0.013 0.107
-0.015 -0.017 0.109
-0.041 -0.017 0.055
-0.039 -0.017 0.055
0.013 -0.019 0.039
0.015 -0.025 0.041
0.013 -0.023 0.045
0.015 -0.021 0.047
0.017 -0.027 0.041
0.011 -0.021 0.041
0.011 -0.023 0.043
0.015 -0.021 0.051
-0.021 -0.017 0.047
-0.013 -0.021 0.047
-0.019 -0.017 0.053
-0.015 -0.021 0.051
-0.021 -0.015 0.053
-0.035 -0.013 0.063
-0.013 -0.021 0.053
-0.019 -0.017 0.051
-0.019 -0.017 0.053
-0.021 -0.015 0.053
-0.017 -0.013 0.057
0.011 -0.019 0.053
0.011 -0.017 0.055
-0.011 -0.019 0.061
-0.003 -0.019 0.057
-0.013 -0.015 0.061
0.015 -0.021 0.053
0.017 -0.021 0.057
0.019 -0.021 0.059
0.001 -0.021 0.069
0.019 -0.021 0.059
0.023 -0.021 0.063
-0.007 -0.019 0.059
-0.035 -0.013 0.069
-0.005 -0.019 0.063
-0.011 -0.017 0.065
-0.033 -0.015 0.071
-0.035 -0.013 0.077
-0.009 -0.019 0.067
-0.027 -0.017 0.077
-0.027 -0.019 0.083
-0.003 -0.019 0.051
-0.013 -0.017 0.061
-0.011 -0.017 0.067
-0.021 -0.017 0.075
-0.001 -0.021 0.071
-0.005 -0.019 0.073
-0.001 -0.021 0.075
-0.007 -0.015 0.077
-0.003 -0.021 0.071
-0.001 -0.021 0.071
0.015 -0.021 0.081
-0.031 -0.017 0.083
-0.027 -0.019 0.087
-0.035 -0.017 0.097
-0.033 -0.017 0.093
0.009 -0.021 0.083
0.015 -0.021 0.087
0.015 -0.021 0.085
-0.029 -0.021 0.097
-0.035 -0.017 0.099
-0.037 -0.015 0.101
-0.037 -0.015 0.099
-0.025 -0.023 0.101
-0.031 -0.021 0.103
-0.027 -0.023 0.107
-0.031 -0.019 0.103
-0.025 -0.023 0.101
-0.031 -0.021 0.103
-0.019 -0.025 0.101
-0.029 -0.021 0.105
0.021 -0.013 0.095
-0.017 -0.025 0.103
-0.031 -0.019 0.103
-0.031 -0.019 0.103
-0.031 -0.019 0.103
0.003 -0.021 0.079
-0.001 -0.019 0.081
-0.003 -0.019 0.079
-0.021 -0.023 0.089
-0.021 -0.023 0.091
-0.023 -0.023 0.093
-0.019 -0.023 0.095
-0.023 -0.023 0.093
-0.015 -0.025 0.097
0.015 -0.019 0.089
-0.023 -0.023 0.101
-0.027 -0.023 0.107
0.023 -0.013 0.095
-0.051 -0.005 0.043
-0.047 0.007 0.041
-0.049 -0.001 0.041
-0.051 0.001 0.043
-0.049 0.003 0.043
-0.049 0.005 0.055
-0.047 0.001 0.065
-0.051 -0.001 0.045
-0.051 0.001 0.043
-0.049 0.005 0.045
-0.051 0.001 0.049
-0.049 0.005 0.055
-0.049 0.003 0.055
-0.049 -0.001 0.061
-0.049 -0.009 0.049
-0.051 -0.001 0.055
-0.051 -0.003 0.057
-0.045 -0.011 0.059
-0.047 -0.009 0.063
-0.049 -0.005 0.061
-0.039 0.013 0.043
-0.049 -0.005 0.063
-0.049 -0.005 0.063
-0.049 -0.001 0.063
-0.047 0.001 0.061
-0.047 -0.003 0.065
-0.043 -0.009 0.069
-0.039 -0.011 0.073
-0.043 -0.001 0.071
-0.061 0.005 0.087
-0.059 -0.001 0.087
-0.061 0.001 0.087
-0.059 0.007 0.087
-0.059 0.007 0.089
-0.057 0.011 0.087
-0.059 0.009 0.087
-0.059 0.003 0.089
-0.051 -0.001 0.089
-0.061 0.005 0.093
-0.047 0.001 0.089
-0.059 -0.001 0.101
-0.043 -0.011 0.081
-0.057 -0.005 0.097
-0.059 -0.001 0.103
-0.055 0.005 0.105
-0.057 -0.001 0.105
-0.057 -0.001 0.105
-0.041 -0.001 0.105
-0.053 0.005 0.099
-0.039 -0.003 0.105
-0.037 -0.003 0.105
-0.019 -0.015 0.055
-0.037 -0.013 0.061
-0.049 -0.009 0.057
-0.047 -0.009 0.063
-0.041 -0.013 0.067
-0.045 -0.011 0.065
-0.043 -0.011 0.065
-0.043 -0.013 0.061
-0.043 -0.011 0.069
-0.033 -0.015 0.069
-0.045 -0.007 0.067
-0.039 -0.011 0.073
-0.043 -0.005 0.071
-0.043 -0.011 0.083
-0.049 -0.007 0.083
-0.051 -0.007 0.083
-0.029 -0.015 0.065
-0.043 -0.011 0.069
-0.039 -0.013 0.069
-0.035 -0.013 0.077
-0.035 -0.011 0.077
-0.027 -0.017 0.075
-0.037 -0.015 0.085
-0.031 -0.017 0.087
-0.013 -0.021 0.047
-0.009 -0.019 0.049
-0.013 -0.013 0.033
-0.015 -0.013 0.031
-0.041 -0.021 0.037
-0.025 -0.023 0.039
-0.043 -0.019 0.041
-0.031 -0.021 0.047
-0.033 -0.017 0.053
-0.029 -0.013 0.053
-0.035 -0.021 0.045
-0.029 -0.021 0.047
-0.033 -0.021 0.049
-0.031 -0.021 0.047
-0.031 -0.021 0.049
-0.031 -0.021 0.049
-0.027 -0.015 0.067
-0.039 -0.015 0.057
-0.037 -0.015 0.057
-0.033 -0.013 0.061
-0.029 -0.023 0.037
-0.013 -0.021 0.035
-0.017 -0.023 0.043
-0.003 -0.017 0.047
-0.003 -0.015 0.045
-0.011 -0.017 0.039
0.021 -0.021 0.053
-0.025 -0.017 0.049
-0.021 -0.017 0.049
-0.013 -0.019 0.055
-0.011 -0.019 0.053
0.009 -0.019 0.071
-0.031 -0.015 0.071
-0.029 -0.015 0.071
-0.015 -0.023 0.089
-0.013 -0.023 0.097
-0.017 -0.025 0.103
-0.023 -0.021 0.103
-0.017 -0.023 0.103
-0.017 -0.023 0.099
-0.019 -0.025 0.101
-0.015 -0.025 0.103
-0.019 -0.017 0.099
-0.023 -0.019 0.103
-0.017 -0.015 0.099
-0.029 -0.015 0.071
-0.019 -0.015 0.075
0.005 -0.019 0.087
0.003 -0.021 0.073
0.017 -0.021 0.081
0.019 -0.021 0.083
0.001 -0.019 0.085
0.023 -0.019 0.089
-0.015 -0.025 0.089
-0.019 -0.025 0.099
-0.013 -0.023 0.095
-0.015 -0.021 0.097
-0.013 -0.023 0.095
-0.011 -0.007 0.087
0.011 -0.019 0.089
-0.013 -0.015 0.095
-0.013 -0.009 0.089
-0.043 -0.011 0.103
-0.049 -0.003 0.103
-0.025 -0.021 0.109
-0.023 -0.021 0.103
-0.025 -0.023 0.107
-0.039 -0.007 0.105
-0.027 -0.013 0.107
-0.023 -0.013 0.111
-0.019 -0.023 0.103
-0.005 -0.019 0.111
-0.003 -0.017 0.111
-0.011 -0.005 0.103
-0.021 -0.015 0.107
-0.021 -0.015 0.107
-0.007 -0.019 0.109
-0.017 -0.003 0.105
-0.009 -0.007 0.097
-0.009 -0.007 0.097
-0.005 -0.019 0.109
-0.001 -0.019 0.113
0.031 -0.019 0.039
0.031 -0.015 0.041
0.037 -0.011 0.037
0.039 -0.011 0.035
0.043 -0.003 0.031
0.017 -0.025 0.043
0.015 -0.023 0.045
0.023 -0.027 0.033
0.023 -0.027 0.037
0.021 -0.025 0.041
0.027 -0.023 0.041
0.027 -0.021 0.043
0.031 -0.017 0.041
0.025 -0.021 0.045
0.019 -0.021 0.051
0.023 -0.021 0.055
0.025 -0.019 0.053
0.027 -0.021 0.041
0.035 -0.015 0.037
0.037 -0.009 0.039
0.029 -0.003 0.047
0.025 -0.021 0.059
0.001 -0.013 0.049
0.031 -0.019 0.063
0.005 -0.015 0.059
0.023 -0.021 0.063
0.027 -0.021 0.069
0.027 -0.021 0.073
0.027 -0.021 0.073
0.029 -0.013 0.053
0.029 -0.017 0.057
0.031 -0.011 0.057
0.033 -0.013 0.059
0.037 -0.015 0.071
0.047 -0.001 0.051
0.047 -0.003 0.053
0.045 -0.007 0.063
0.037 -0.009 0.063
0.041 -0.009 0.065
0.049 -0.003 0.059
0.005 -0.019 0.069
0.011 -0.017 0.071
0.009 -0.021 0.079
0.019 -0.021 0.079
0.029 -0.019 0.067
0.027 -0.021 0.075
0.025 -0.021 0.077
0.027 -0.019 0.077
0.027 -0.017 0.089
0.029 -0.017 0.085
0.033 -0.019 0.077
0.005 -0.021 0.081
0.009 -0.021 0.083
0.017 -0.021 0.085
0.013 -0.021 0.087
0.027 -0.019 0.085
0.027 -0.017 0.087
0.029 -0.017 0.087
0.009 -0.019 0.089
0.021 -0.015 0.093
0.019 -0.015 0.093
0.017 -0.015 0.093
0.021 -0.013 0.095
0.033 -0.013 0.089
0.025 -0.013 0.093
0.031 -0.013 0.091
0.043 -0.013 0.075
0.043 -0.013 0.075
0.049 -0.009 0.075
0.043 -0.013 0.075
0.039 -0.009 0.081
0.049 -0.011 0.079
0.051 -0.009 0.081
0.053 -0.009 0.079
0.037 -0.011 0.083
0.045 -0.007 0.087
0.053 -0.007 0.083
0.055 -0.003 0.087
-0.003 -0.019 0.051
0.021 -0.019 0.065
-0.003 -0.015 0.045
0.011 -0.019 0.053
0.021 -0.021 0.055
-0.029 -0.011 0.059
0.005 -0.015 0.059
0.001 -0.021 0.071
0.001 -0.021 0.073
0.005 -0.021 0.071
0.005 -0.021 0.071
0.011 -0.019 0.075
0.015 -0.019 0.075
0.009 -0.015 0.067
-0.023 -0.015 0.069
-0.019 -0.015 0.073
-0.003 -0.019 0.077
0.003 -0.021 0.079
0.007 -0.021 0.081
-0.015 -0.013 0.077
0.001 -0.017 0.055
0.023 -0.021 0.059
0.005 -0.013 0.057
0.023 -0.019 0.067
0.015 -0.017 0.061
0.021 -0.019 0.067
0.023 -0.021 0.077
0.027 -0.021 0.071
0.031 -0.019 0.065
0.033 -0.019 0.067
0.027 -0.021 0.071
0.025 -0.021 0.079
0.009 -0.021 0.075
0.027 -0.021 0.075
-0.015 -0.025 0.103
-0.019 -0.019 0.101
-0.019 -0.015 0.101
-0.015 -0.015 0.099
-0.017 -0.011 0.101
-0.023 -0.019 0.103
-0.021 -0.015 0.105
-0.011 -0.017 0.107
-0.019 -0.017 0.097
-0.013 -0.015 0.095
-0.013 -0.007 0.093
-0.015 -0.009 0.097
-0.007 -0.019 0.111
0.007 -0.021 0.085
0.009 -0.021 0.085
-0.013 -0.011 0.085
-0.013 -0.007 0.095
-0.013 -0.007 0.099
-0.013 -0.007 0.095
-0.007 -0.007 0.101
-0.019 -0.013 0.115
-0.015 -0.017 0.109
-0.023 -0.013 0.113
-0.015 -0.011 0.109
-0.013 -0.005 0.103
0.035 -0.009 0.041
0.043 0.001 0.035
0.033 -0.013 0.059
0.031 -0.007 0.055
0.033 -0.013 0.059
0.023 0.003 0.047
0.033 -0.013 0.059
0.035 -0.011 0.063
0.045 -0.005 0.057
0.049 -0.003 0.057
0.049 -0.003 0.057
0.047 -0.005 0.059
0.047 -0.005 0.065
0.035 -0.015 0.065
0.041 -0.011 0.067
0.045 -0.009 0.069
0.047 -0.011 0.075
0.053 -0.007 0.075
0.051 -0.009 0.079
0.053 -0.009 0.079
0.053 -0.009 0.079
0.043 -0.001 0.035
0.047 0.005 0.041
0.035 0.001 0.047
0.049 -0.001 0.053
0.049 0.003 0.053
0.049 0.005 0.055
0.047 0.007 0.041
0.047 0.009 0.043
0.045 0.013 0.041
0.049 0.007 0.047
0.049 -0.001 0.061
0.043 -0.011 0.083
0.043 -0.011 0.083
