-0.041 -0.021 0.039
-0.043 -0.021 0.039
-0.043 -0.019 0.041
-0.047 -0.017 0.041
-0.041 -0.019 0.045
-0.043 -0.015 0.045
-0.045 -0.013 0.047
-0.051 -0.019 0.035
-0.051 -0.017 0.039
-0.037 -0.019 0.041
-0.041 -0.019 0.045
-0.041 -0.019 0.047
-0.051 -0.013 0.037
-0.049 -0.009 0.043
-0.049 -0.007 0.041
-0.051 -0.001 0.045
-0.051 -0.015 0.039
-0.049 -0.013 0.039
-0.049 -0.013 0.039
-0.047 -0.017 0.041
-0.047 -0.009 0.039
-0.047 -0.011 0.041
-0.041 -0.019 0.053
-0.051 -0.005 0.049
-0.041 -0.017 0.055
-0.047 -0.011 0.057
-0.035 -0.013 0.063
-0.025 -0.023 0.039
-0.029 -0.021 0.043
-0.033 -0.021 0.047
-0.031 -0.021 0.045
-0.015 -0.021 0.047
-0.015 -0.021 0.051
-0.043 -0.019 0.041
-0.039 -0.019 0.041
-0.035 -0.019 0.041
-0.041 -0.017 0.043
-0.047 -0.011 0.047
-0.041 -0.017 0.055
-0.017 -0.019 0.049
-0.015 -0.021 0.051
-0.015 -0.021 0.051
-0.009 -0.019 0.057
-0.003 -0.019 0.055
-0.005 -0.019 0.059
-0.005 -0.019 0.063
-0.041 -0.015 0.057
-0.019 -0.015 0.055
-0.017 -0.013 0.057
-0.017 -0.013 0.059
-0.037 -0.013 0.069
-0.033 -0.013 0.067
-0.041 -0.013 0.065
-0.043 -0.011 0.069
-0.045 -0.007 0.069
-0.039 -0.013 0.069
-0.017 -0.017 0.055
-0.015 -0.019 0.053
-0.011 -0.017 0.063
-0.043 -0.011 0.069
-0.041 -0.013 0.065
-0.045 -0.011 0.065
-0.043 -0.011 0.067
-0.043 -0.011 0.069
-0.041 -0.009 0.071
-0.037 -0.013 0.067
-0.037 -0.013 0.071
-0.047 -0.007 0.065
-0.043 -0.007 0.071
-0.037 -0.013 0.073
-0.035 -0.011 0.077
-0.041 -0.007 0.073
-0.059 -0.003 0.083
-0.061 -0.003 0.083
-0.053 -0.007 0.095
-0.055 -0.005 0.095
-0.043 -0.011 0.081
-0.043 -0.011 0.083
-0.039 -0.013 0.081
-0.035 -0.015 0.087
-0.043 -0.011 0.087
-0.053 -0.003 0.089
-0.049 -0.005 0.089
-0.045 -0.013 0.093
-0.039 -0.013 0.089
-0.035 -0.015 0.091
-0.041 -0.015 0.093
-0.045 -0.011 0.091
-0.039 -0.015 0.093
-0.041 -0.015 0.093
-0.041 -0.013 0.095
-0.051 -0.005 0.093
-0.053 -0.009 0.095
-0.049 -0.011 0.095
-0.043 -0.009 0.099
-0.049 -0.007 0.099
-0.025 -0.017 0.077
-0.007 -0.017 0.075
-0.005 -0.017 0.077
-0.003 -0.019 0.079
-0.033 -0.015 0.069
-0.031 -0.015 0.071
-0.029 -0.015 0.071
-0.031 -0.015 0.075
-0.043 -0.007 0.071
-0.043 -0.007 0.071
-0.029 -0.015 0.077
-0.031 -0.013 0.081
-0.041 -0.011 0.081
-0.035 -0.013 0.075
-0.037 -0.011 0.075
-0.037 -0.013 0.081
-0.041 -0.013 0.085
-0.041 -0.013 0.085
-0.031 -0.017 0.083
-0.031 -0.017 0.083
-0.037 -0.015 0.085
-0.035 -0.015 0.087
-0.027 -0.021 0.089
-0.019 -0.025 0.093
-0.021 -0.025 0.097
-0.039 -0.013 0.087
-0.049 -0.009 0.093
-0.043 -0.007 0.087
-0.031 -0.019 0.097
-0.029 -0.019 0.091
-0.033 -0.017 0.091
-0.027 -0.021 0.093
-0.041 -0.015 0.093
-0.039 -0.015 0.095
-0.039 -0.015 0.095
-0.029 -0.021 0.099
-0.039 -0.015 0.101
-0.037 -0.015 0.103
-0.043 -0.011 0.103
-0.035 -0.015 0.103
-0.037 -0.015 0.103
-0.035 -0.017 0.097
-0.033 -0.017 0.101
-0.033 -0.017 0.103
-0.059 -0.005 0.101
-0.057 -0.005 0.099
-0.051 -0.007 0.099
-0.059 -0.005 0.101
-0.057 -0.003 0.103
-0.057 -0.001 0.105
-0.043 -0.011 0.097
-0.043 -0.013 0.101
-0.043 -0.009 0.101
-0.037 -0.015 0.097
-0.041 -0.013 0.101
-0.049 -0.003 0.105
-0.041 -0.007 0.105
-0.041 -0.007 0.105
-0.035 -0.003 0.105
-0.029 -0.021 0.103
-0.019 -0.023 0.103
-0.029 -0.017 0.105
-0.013 -0.025 0.097
-0.013 -0.017 0.107
-0.011 -0.017 0.107
-0.011 -0.017 0.111
-0.009 -0.017 0.111
-0.033 -0.017 0.103
-0.043 -0.009 0.103
-0.041 -0.007 0.105
-0.041 -0.007 0.105
-0.027 -0.007 0.105
-0.029 -0.005 0.105
-0.029 -0.013 0.105
-0.025 -0.013 0.111
-0.027 -0.011 0.109
-0.025 -0.011 0.111
-0.027 -0.011 0.109
-0.033 -0.005 0.105
-0.027 -0.009 0.107
-0.025 -0.007 0.107
-0.019 -0.003 0.109
-0.035 -0.011 0.105
-0.031 -0.013 0.105
-0.025 -0.007 0.107
-0.015 -0.017 0.109
-0.019 -0.015 0.109
-0.019 -0.015 0.109
-0.007 -0.017 0.113
-0.021 -0.013 0.115
-0.015 -0.021 0.045
-0.037 -0.017 0.055
-0.021 -0.015 0.053
-0.017 -0.017 0.055
-0.015 -0.019 0.053
-0.017 -0.017 0.055
0.013 -0.027 0.039
0.013 -0.017 0.037
0.009 -0.017 0.041
0.013 -0.023 0.045
0.009 -0.017 0.047
0.009 -0.017 0.047
0.015 -0.027 0.041
0.013 -0.025 0.039
0.011 -0.021 0.043
0.011 -0.023 0.043
0.013 -0.023 0.045
0.017 -0.027 0.041
0.017 -0.021 0.049
-0.017 -0.019 0.049
-0.015 -0.021 0.051
-0.021 -0.015 0.051
-0.013 -0.021 0.053
-0.015 -0.021 0.047
0.011 -0.019 0.041
0.011 -0.021 0.041
0.011 -0.021 0.043
-0.023 -0.013 0.053
-0.019 -0.017 0.053
0.011 -0.019 0.053
0.013 -0.019 0.051
0.011 -0.019 0.053
-0.015 -0.013 0.061
0.015 -0.019 0.057
-0.001 -0.021 0.063
0.015 -0.021 0.053
0.015 -0.021 0.053
0.017 -0.019 0.059
0.019 -0.021 0.057
0.019 -0.021 0.059
0.021 -0.021 0.061
0.023 -0.021 0.063
0.023 -0.021 0.063
0.023 -0.021 0.063
-0.011 -0.019 0.057
-0.015 -0.015 0.059
-0.011 -0.019 0.061
-0.009 -0.019 0.061
-0.029 -0.015 0.065
-0.027 -0.015 0.067
-0.029 -0.015 0.071
-0.011 -0.017 0.063
-0.009 -0.019 0.065
-0.011 -0.017 0.065
-0.009 -0.019 0.067
-0.011 -0.017 0.065
-0.011 -0.015 0.067
-0.033 -0.015 0.073
-0.025 -0.015 0.069
-0.035 -0.013 0.077
-0.007 -0.019 0.065
-0.023 -0.015 0.071
-0.009 -0.017 0.069
-0.027 -0.017 0.075
-0.023 -0.017 0.079
0.011 -0.023 0.043
0.011 -0.019 0.043
0.013 -0.021 0.045
0.011 -0.019 0.047
0.011 -0.019 0.047
0.011 -0.019 0.049
-0.013 -0.017 0.059
-0.007 -0.019 0.053
-0.013 -0.019 0.055
-0.011 -0.017 0.065
-0.007 -0.017 0.075
0.005 -0.021 0.071
-0.025 -0.019 0.083
-0.005 -0.019 0.075
-0.003 -0.019 0.077
-0.023 -0.021 0.087
-0.025 -0.021 0.087
-0.003 -0.021 0.067
-0.003 -0.021 0.071
0.001 -0.021 0.073
-0.001 -0.019 0.079
0.003 -0.021 0.079
0.001 -0.021 0.077
0.021 -0.019 0.073
0.025 -0.021 0.071
0.025 -0.021 0.071
0.025 -0.021 0.073
0.009 -0.021 0.079
0.017 -0.021 0.079
0.007 -0.021 0.083
0.025 -0.021 0.073
0.021 -0.021 0.079
-0.027 -0.017 0.079
-0.039 -0.013 0.085
-0.041 -0.015 0.093
-0.037 -0.017 0.095
-0.027 -0.019 0.083
-0.027 -0.019 0.085
-0.027 -0.021 0.089
-0.035 -0.017 0.093
-0.033 -0.017 0.093
-0.017 -0.025 0.087
0.009 -0.021 0.083
-0.017 -0.025 0.095
-0.013 -0.027 0.095
-0.013 -0.025 0.097
-0.013 -0.027 0.095
-0.017 -0.025 0.101
0.019 -0.019 0.089
-0.041 -0.013 0.095
-0.039 -0.015 0.097
-0.035 -0.017 0.097
-0.039 -0.015 0.099
-0.031 -0.019 0.099
-0.031 -0.021 0.103
-0.019 -0.023 0.103
-0.031 -0.019 0.103
-0.019 -0.025 0.099
-0.019 -0.025 0.101
-0.023 -0.023 0.101
-0.031 -0.019 0.103
-0.017 -0.025 0.103
-0.025 -0.021 0.105
0.017 -0.013 0.095
-0.027 -0.023 0.107
-0.025 -0.023 0.109
-0.033 -0.017 0.103
-0.029 -0.021 0.105
-0.029 -0.021 0.105
0.025 -0.021 0.071
0.017 -0.021 0.079
-0.003 -0.019 0.079
0.009 -0.021 0.077
-0.017 -0.025 0.087
-0.017 -0.025 0.087
-0.017 -0.025 0.087
-0.017 -0.025 0.087
-0.015 -0.025 0.089
-0.021 -0.021 0.087
-0.027 -0.021 0.089
-0.027 -0.019 0.091
-0.029 -0.019 0.091
-0.025 -0.021 0.091
-0.023 -0.023 0.093
-0.015 -0.025 0.089
-0.019 -0.025 0.093
-0.019 -0.025 0.093
-0.017 -0.025 0.095
-0.015 -0.025 0.095
-0.013 -0.025 0.097
-0.027 -0.021 0.093
-0.029 -0.021 0.099
-0.023 -0.023 0.097
-0.023 -0.023 0.099
-0.019 -0.025 0.099
-0.013 -0.025 0.097
-0.017 -0.025 0.101
-0.015 -0.025 0.103
-0.015 -0.023 0.103
0.021 -0.013 0.095
-0.049 -0.003 0.037
-0.039 0.013 0.035
-0.039 0.015 0.033
-0.049 -0.009 0.047
-0.051 -0.001 0.049
-0.051 -0.005 0.053
-0.051 0.003 0.045
-0.049 0.001 0.039
-0.051 0.001 0.043
-0.051 -0.001 0.043
-0.039 0.013 0.035
-0.039 0.013 0.035
-0.049 0.005 0.045
-0.049 0.005 0.053
-0.039 0.019 0.039
-0.039 0.017 0.041
-0.039 0.019 0.041
-0.037 0.021 0.043
-0.035 0.015 0.045
-0.051 0.003 0.053
-0.051 0.001 0.053
-0.051 0.001 0.055
-0.049 0.003 0.057
-0.049 0.003 0.059
-0.049 0.005 0.055
-0.047 0.005 0.059
-0.047 0.005 0.059
-0.045 0.007 0.059
-0.045 0.005 0.061
-0.051 0.001 0.043
-0.051 0.001 0.047
-0.051 0.001 0.049
-0.049 -0.005 0.061
-0.045 0.009 0.051
-0.049 0.003 0.057
-0.049 0.003 0.059
-0.049 -0.009 0.053
-0.047 -0.011 0.057
-0.051 0.001 0.051
-0.051 -0.001 0.055
-0.051 -0.001 0.057
-0.049 -0.005 0.061
-0.049 -0.003 0.059
-0.037 0.017 0.043
-0.047 0.007 0.055
-0.047 0.007 0.055
-0.049 -0.003 0.061
-0.049 0.003 0.059
-0.047 0.005 0.059
-0.047 0.003 0.063
-0.045 -0.005 0.069
-0.047 -0.007 0.065
-0.043 -0.009 0.069
-0.047 -0.005 0.065
-0.041 -0.009 0.071
-0.041 -0.009 0.073
-0.039 -0.009 0.075
-0.039 -0.011 0.073
-0.041 -0.009 0.073
-0.043 0.001 0.069
-0.051 -0.005 0.081
-0.061 0.001 0.087
-0.061 0.005 0.087
-0.061 0.003 0.087
-0.059 0.009 0.087
-0.057 0.011 0.087
-0.059 0.001 0.089
-0.063 0.005 0.093
-0.051 -0.001 0.089
-0.059 0.003 0.093
-0.049 -0.001 0.089
-0.057 0.001 0.091
-0.057 0.001 0.091
-0.047 0.001 0.089
-0.047 0.003 0.089
-0.061 0.005 0.087
-0.055 -0.005 0.095
-0.053 -0.003 0.095
-0.057 -0.005 0.099
-0.041 -0.001 0.073
-0.047 -0.007 0.081
-0.043 -0.011 0.081
-0.055 -0.007 0.097
-0.055 -0.007 0.099
-0.051 -0.007 0.099
-0.059 -0.001 0.103
-0.057 0.001 0.105
-0.053 0.007 0.099
-0.057 -0.001 0.105
-0.057 0.001 0.105
-0.057 -0.003 0.103
-0.057 0.001 0.105
-0.057 0.001 0.105
-0.053 -0.001 0.105
-0.055 0.003 0.103
-0.055 0.005 0.103
-0.041 -0.003 0.105
-0.041 -0.015 0.057
-0.047 -0.011 0.059
-0.037 -0.013 0.059
-0.043 -0.013 0.061
-0.049 -0.005 0.061
-0.049 -0.007 0.061
-0.047 -0.009 0.063
-0.037 -0.015 0.057
-0.023 -0.013 0.053
-0.045 -0.011 0.063
-0.047 -0.009 0.063
-0.045 -0.009 0.065
-0.045 -0.009 0.067
-0.045 -0.011 0.065
-0.043 -0.011 0.069
-0.041 -0.013 0.067
-0.033 -0.015 0.069
-0.039 -0.013 0.069
-0.037 -0.013 0.071
-0.043 -0.009 0.069
-0.043 -0.011 0.069
-0.045 -0.009 0.067
-0.043 -0.009 0.069
-0.037 -0.013 0.073
-0.043 -0.005 0.071
-0.037 -0.013 0.069
-0.039 -0.011 0.073
-0.039 -0.011 0.073
-0.041 -0.009 0.071
-0.037 -0.011 0.075
-0.037 -0.013 0.073
-0.039 -0.009 0.075
-0.037 -0.009 0.077
-0.035 -0.011 0.077
-0.039 -0.013 0.081
-0.041 -0.013 0.085
-0.045 -0.009 0.081
-0.039 -0.003 0.075
-0.047 -0.007 0.081
-0.051 -0.007 0.083
-0.049 -0.007 0.085
-0.017 -0.013 0.057
-0.043 -0.011 0.067
-0.015 -0.013 0.063
-0.013 -0.015 0.063
-0.025 -0.015 0.069
-0.023 -0.015 0.069
-0.033 -0.015 0.073
-0.041 -0.009 0.073
-0.035 -0.013 0.075
-0.027 -0.017 0.075
-0.031 -0.015 0.079
-0.031 -0.015 0.079
-0.031 -0.015 0.079
-0.035 -0.011 0.077
-0.029 -0.017 0.083
-0.033 -0.015 0.083
-0.033 -0.015 0.085
-0.029 -0.019 0.089
-0.037 -0.015 0.085
-0.041 -0.013 0.085
-0.037 -0.015 0.085
-0.039 -0.013 0.087
-0.037 -0.015 0.089
