-0.025 0.015 0.045
-0.049 0.005 0.051
-0.049 0.005 0.055
-0.043 0.009 0.043
-0.045 0.007 0.047
-0.039 0.005 0.067
-0.047 0.003 0.061
-0.037 0.005 0.067
-0.021 0.003 0.055
-0.017 0.001 0.057
-0.033 0.019 0.045
-0.013 0.011 0.041
-0.007 0.009 0.045
-0.005 0.003 0.045
-0.031 0.005 0.061
-0.019 -0.003 0.057
-0.007 0.001 0.061
-0.033 0.005 0.063
-0.019 -0.003 0.057
-0.031 0.003 0.071
-0.029 0.003 0.071
-0.027 0.003 0.069
-0.017 -0.007 0.061
-0.043 0.001 0.069
-0.041 -0.001 0.073
-0.033 0.003 0.073
-0.045 -0.001 0.069
-0.055 0.011 0.089
-0.049 0.001 0.089
-0.035 0.005 0.093
-0.033 0.003 0.091
-0.045 0.009 0.099
-0.035 0.007 0.097
-0.037 0.003 0.101
-0.011 -0.007 0.073
-0.005 -0.001 0.075
-0.029 0.001 0.077
-0.015 -0.009 0.071
-0.007 -0.001 0.073
-0.009 -0.005 0.075
-0.013 -0.011 0.077
-0.003 -0.003 0.081
-0.033 0.005 0.093
-0.031 0.003 0.091
-0.027 0.003 0.083
-0.009 -0.005 0.087
-0.003 -0.011 0.087
-0.001 -0.009 0.087
-0.009 -0.005 0.091
-0.011 -0.003 0.093
-0.051 0.007 0.105
-0.039 -0.007 0.105
-0.033 -0.009 0.105
-0.047 0.003 0.105
-0.025 -0.007 0.107
-0.015 -0.011 0.107
-0.017 -0.011 0.109
-0.017 -0.003 0.105
-0.021 0.001 0.105
-0.025 -0.009 0.111
-0.023 -0.007 0.107
-0.017 -0.001 0.101
-0.009 -0.005 0.103
-0.015 -0.001 0.103
0.017 0.015 0.041
0.023 0.015 0.043
0.009 -0.001 0.047
0.011 -0.003 0.051
0.015 0.009 0.051
0.015 0.003 0.051
0.019 0.011 0.053
0.009 0.001 0.047
0.009 -0.003 0.043
0.015 0.011 0.047
0.019 0.015 0.047
0.019 0.015 0.049
0.021 0.019 0.051
0.015 -0.009 0.065
0.001 0.001 0.061
-0.001 0.001 0.063
0.013 -0.003 0.055
0.017 0.003 0.051
0.025 0.011 0.063
0.039 0.015 0.047
0.035 0.009 0.051
0.037 -0.001 0.059
0.019 -0.001 0.081
0.017 -0.001 0.083
0.027 -0.003 0.085
0.025 -0.003 0.087
0.027 -0.003 0.085
0.005 -0.001 0.073
0.009 -0.001 0.081
0.009 -0.001 0.079
0.015 -0.001 0.079
0.019 -0.003 0.077
0.005 -0.005 0.089
0.001 -0.011 0.091
0.005 -0.005 0.089
0.009 -0.005 0.089
0.007 -0.007 0.091
0.025 -0.003 0.087
0.029 -0.009 0.089
0.027 -0.009 0.091
0.011 -0.001 0.083
0.015 -0.013 0.095
0.005 -0.005 0.089
0.015 -0.007 0.091
0.023 -0.001 0.085
0.023 -0.003 0.087
0.031 -0.009 0.089
0.019 -0.007 0.091
0.021 -0.003 0.089
0.031 -0.003 0.083
0.031 -0.001 0.075
0.039 -0.005 0.073
0.031 -0.001 0.069
0.033 -0.003 0.079
0.035 -0.005 0.079
0.045 -0.005 0.077
0.043 -0.005 0.079
0.049 -0.003 0.081
0.035 -0.011 0.087
0.041 -0.005 0.085
0.045 -0.003 0.083
0.041 -0.005 0.087
-0.015 0.015 0.037
-0.037 0.025 0.041
-0.039 0.021 0.037
-0.039 0.013 0.043
-0.039 0.019 0.041
-0.041 0.009 0.049
-0.039 0.013 0.045
-0.045 0.007 0.055
-0.047 0.007 0.055
-0.019 0.015 0.041
-0.029 0.021 0.039
-0.029 0.021 0.037
-0.019 0.015 0.037
-0.017 0.015 0.039
-0.005 0.009 0.041
-0.009 0.009 0.047
-0.031 0.021 0.035
-0.029 0.019 0.041
-0.017 0.001 0.057
-0.029 0.005 0.063
-0.011 0.005 0.053
-0.011 0.001 0.061
-0.007 0.001 0.063
-0.053 0.013 0.085
-0.057 0.007 0.093
-0.059 0.007 0.089
-0.037 0.007 0.087
-0.047 0.005 0.089
-0.043 0.009 0.099
-0.031 0.005 0.095
-0.035 0.005 0.099
-0.043 0.009 0.099
0.031 0.013 0.033
0.009 0.005 0.039
0.007 0.015 0.035
0.025 0.011 0.037
0.029 0.013 0.037
0.031 0.015 0.041
0.019 0.015 0.051
0.023 0.019 0.051
0.015 0.003 0.051
0.021 0.017 0.055
0.025 0.019 0.055
0.025 0.011 0.065
0.025 0.019 0.055
0.031 0.015 0.039
0.041 0.015 0.041
0.033 0.015 0.035
0.035 0.015 0.041
0.037 0.011 0.051
0.043 0.013 0.047
0.037 0.015 0.045
0.033 0.007 0.049
0.047 0.009 0.055
0.047 0.003 0.063
0.001 0.001 0.069
0.023 0.007 0.071
0.025 0.011 0.065
-0.047 -0.009 0.063
-0.049 -0.011 0.095
-0.033 -0.017 0.093
-0.035 -0.013 0.105
-0.051 -0.007 0.053
-0.045 -0.015 0.051
-0.049 -0.011 0.053
-0.043 -0.015 0.055
-0.049 -0.003 0.063
-0.021 -0.023 0.041
-0.037 -0.015 0.057
-0.027 -0.015 0.051
-0.025 -0.013 0.111
-0.019 -0.015 0.101
-0.021 -0.025 0.097
-0.033 -0.011 0.105
-0.037 -0.011 0.105
-0.035 -0.013 0.105
-0.017 -0.023 0.103
-0.017 -0.021 0.101
-0.027 -0.017 0.105
-0.027 -0.013 0.107
-0.045 -0.013 0.093
-0.053 -0.009 0.097
-0.045 -0.011 0.095
-0.047 -0.007 0.099
-0.035 -0.017 0.099
-0.059 -0.001 0.087
-0.051 -0.009 0.097
-0.057 -0.005 0.103
-0.057 -0.005 0.103
-0.055 -0.003 0.103
-0.047 -0.011 0.095
-0.049 -0.007 0.099
-0.043 -0.009 0.103
-0.003 -0.019 0.079
-0.027 -0.015 0.103
-0.035 -0.017 0.097
-0.027 -0.009 0.107
-0.023 -0.015 0.107
-0.023 -0.013 0.115
-0.023 -0.013 0.111
-0.011 -0.005 0.103
-0.033 -0.017 0.095
-0.029 -0.021 0.105
-0.019 -0.023 0.103
-0.025 -0.005 0.105
-0.021 -0.015 0.107
-0.007 -0.007 0.099
-0.009 -0.007 0.103
-0.059 -0.001 0.103
-0.055 -0.003 0.103
-0.055 -0.001 0.105
-0.053 -0.001 0.105
-0.033 -0.015 0.103
-0.039 -0.009 0.105
-0.027 -0.017 0.105
-0.015 -0.023 0.103
-0.023 -0.009 0.111
-0.017 -0.015 0.109
-0.017 -0.015 0.109
-0.015 -0.001 0.103
-0.001 -0.017 0.113
0.015 -0.027 0.041
0.015 -0.021 0.051
0.025 -0.025 0.039
0.023 -0.021 0.063
-0.001 -0.017 0.083
-0.005 -0.017 0.079
-0.003 -0.019 0.079
0.007 -0.011 0.093
0.007 -0.011 0.093
-0.001 -0.021 0.075
0.005 -0.019 0.085
0.007 -0.021 0.085
-0.011 -0.015 0.089
-0.001 -0.007 0.085
0.003 -0.009 0.089
-0.005 -0.017 0.113
0.005 -0.011 0.093
0.017 -0.009 0.093
0.025 -0.009 0.091
0.027 -0.007 0.089
-0.001 -0.019 0.077
0.001 -0.019 0.085
0.005 -0.019 0.087
0.019 -0.021 0.087
0.021 -0.021 0.087
0.023 -0.019 0.089
0.027 -0.019 0.085
-0.005 -0.019 0.113
-0.009 -0.007 0.103
0.011 -0.005 0.091
0.009 -0.007 0.091
0.025 -0.019 0.087
0.007 -0.011 0.093
0.005 -0.013 0.093
0.013 -0.011 0.095
0.023 -0.019 0.089
0.041 -0.011 0.081
0.027 -0.007 0.089
0.033 -0.007 0.085
0.031 -0.007 0.087
0.045 -0.009 0.085
0.033 -0.011 0.089
0.035 -0.011 0.087
0.051 -0.005 0.087
-0.037 -0.009 0.105
-0.035 -0.007 0.105
-0.049 -0.003 0.063
-0.049 0.001 0.107
-0.047 -0.001 0.105
-0.055 -0.005 0.101
-0.053 -0.003 0.103
-0.051 -0.001 0.107
-0.043 -0.011 0.103
-0.045 -0.007 0.099
-0.041 -0.001 0.105
-0.033 -0.005 0.105
-0.031 -0.007 0.105
-0.029 -0.007 0.105
-0.027 -0.005 0.105
-0.023 -0.011 0.113
-0.039 0.001 0.105
-0.055 0.005 0.105
-0.053 0.007 0.105
-0.053 0.009 0.105
-0.059 0.005 0.093
-0.043 0.003 0.101
-0.045 0.003 0.103
-0.039 -0.003 0.105
-0.035 -0.001 0.105
-0.035 0.001 0.105
-0.025 -0.001 0.105
-0.053 0.005 0.105
-0.041 0.005 0.099
-0.045 0.001 0.103
-0.037 0.005 0.099
-0.037 0.007 0.097
-0.011 -0.005 0.103
-0.019 -0.003 0.109
-0.009 -0.007 0.103
-0.009 -0.005 0.103
0.021 0.009 0.065
0.005 -0.007 0.089
0.011 -0.007 0.091
0.019 0.011 0.055
0.021 0.005 0.071
0.019 0.013 0.059
0.017 -0.001 0.085
0.021 0.007 0.069
0.015 -0.005 0.091
0.025 0.011 0.065
0.043 0.009 0.059
0.043 0.005 0.063
0.043 0.005 0.063
0.041 0.003 0.065
-0.019 -0.023 0.031
-0.021 -0.025 0.033
-0.041 -0.019 0.041
-0.035 -0.021 0.043
-0.035 -0.021 0.045
-0.041 -0.017 0.035
-0.041 -0.019 0.035
-0.039 -0.011 0.033
-0.037 -0.017 0.055
-0.033 -0.017 0.053
-0.045 -0.011 0.063
-0.037 -0.013 0.061
-0.029 -0.023 0.033
-0.021 -0.023 0.039
-0.015 -0.023 0.039
-0.009 -0.019 0.047
-0.005 -0.017 0.047
-0.017 -0.025 0.033
-0.009 -0.017 0.041
-0.001 -0.013 0.045
-0.001 -0.013 0.045
0.001 -0.011 0.047
-0.019 -0.017 0.053
-0.017 -0.017 0.055
-0.003 -0.019 0.053
-0.011 -0.019 0.061
-0.003 -0.019 0.057
-0.027 -0.013 0.063
-0.019 -0.009 0.061
-0.019 -0.011 0.057
-0.039 -0.013 0.067
-0.037 -0.013 0.067
-0.045 -0.011 0.065
-0.059 -0.003 0.083
-0.053 -0.005 0.087
-0.049 -0.011 0.095
-0.035 -0.013 0.081
-0.041 -0.015 0.093
-0.031 -0.017 0.089
-0.035 -0.015 0.087
-0.001 -0.021 0.065
-0.005 -0.019 0.075
-0.031 -0.015 0.065
-0.021 -0.013 0.069
-0.015 -0.011 0.069
-0.009 -0.019 0.065
-0.007 -0.019 0.071
-0.001 -0.021 0.075
0.001 -0.017 0.087
-0.013 -0.015 0.081
-0.013 -0.009 0.085
0.001 -0.019 0.081
-0.013 -0.015 0.095
-0.009 -0.007 0.089
-0.053 -0.009 0.097
-0.057 -0.005 0.101
-0.055 -0.007 0.099
-0.051 -0.003 0.105
-0.039 -0.015 0.097
-0.041 -0.013 0.103
-0.041 -0.013 0.095
-0.039 -0.015 0.099
-0.029 -0.021 0.097
-0.029 -0.021 0.105
-0.023 -0.021 0.105
-0.007 -0.019 0.109
-0.007 -0.019 0.111
-0.023 -0.021 0.107
-0.023 -0.015 0.105
-0.017 -0.015 0.105
-0.013 -0.015 0.095
-0.007 -0.007 0.101
-0.007 -0.007 0.101
-0.021 -0.013 0.113
0.023 -0.011 0.031
0.025 -0.011 0.031
0.015 -0.027 0.041
0.015 -0.025 0.043
0.013 -0.019 0.047
0.019 -0.027 0.039
0.019 -0.027 0.041
0.019 -0.027 0.041
0.025 -0.023 0.041
0.019 -0.029 0.033
0.013 -0.017 0.035
0.029 -0.017 0.035
0.031 -0.017 0.033
0.025 -0.011 0.033
0.025 -0.021 0.047
0.027 -0.019 0.043
0.001 -0.019 0.063
0.027 -0.019 0.051
0.019 -0.021 0.057
0.031 -0.019 0.061
0.011 -0.019 0.051
0.001 -0.011 0.049
0.003 -0.013 0.053
0.007 -0.011 0.063
0.015 -0.017 0.061
0.017 -0.017 0.063
0.007 -0.011 0.061
0.029 -0.011 0.053
0.029 -0.015 0.055
0.041 -0.009 0.035
0.033 -0.015 0.061
0.047 -0.005 0.059
0.011 -0.017 0.073
0.021 -0.019 0.065
0.021 -0.019 0.067
0.019 -0.021 0.079
0.007 -0.021 0.075
0.019 -0.021 0.087
0.009 -0.021 0.083
0.033 -0.019 0.067
0.041 -0.011 0.067
0.035 -0.017 0.077
0.045 -0.011 0.077
0.049 -0.011 0.081
0.033 -0.013 0.089
0.051 -0.009 0.081
-0.021 -0.025 0.033
-0.015 -0.019 0.033
-0.015 -0.017 0.033
-0.035 -0.021 0.043
-0.023 -0.017 0.045
-0.031 -0.013 0.061
-0.015 -0.023 0.035
-0.009 -0.003 0.033
-0.007 0.005 0.033
-0.003 -0.003 0.041
-0.019 -0.023 0.041
-0.015 -0.021 0.047
-0.025 -0.007 0.057
0.001 -0.015 0.051
-0.027 -0.015 0.067
-0.043 -0.011 0.085
-0.041 -0.013 0.083
-0.025 -0.019 0.085
-0.027 -0.021 0.089
-0.035 -0.017 0.093
-0.025 -0.013 0.067
-0.015 -0.025 0.089
-0.049 -0.007 0.099
-0.047 -0.007 0.099
-0.047 -0.003 0.103
-0.029 -0.021 0.097
-0.039 -0.015 0.095
0.009 -0.013 0.037
0.019 -0.029 0.035
0.019 -0.029 0.037
0.023 -0.029 0.035
0.035 -0.015 0.035
0.027 -0.023 0.037
0.027 -0.019 0.045
0.027 -0.021 0.043
0.027 -0.019 0.047
0.005 -0.015 0.061
0.027 -0.017 0.055
0.027 -0.019 0.057
0.029 -0.019 0.063
0.031 -0.015 0.057
0.043 -0.001 0.039
0.041 -0.007 0.037
0.049 0.003 0.047
0.043 -0.001 0.045
0.035 0.001 0.049
0.049 -0.001 0.055
0.049 -0.003 0.059
0.005 -0.019 0.069
0.025 -0.019 0.065
0.041 -0.009 0.065
