-0.047 -0.009 0.037
-0.049 -0.017 0.041
-0.041 -0.017 0.043
-0.049 -0.007 0.045
-0.045 -0.009 0.035
-0.045 -0.009 0.035
-0.049 -0.011 0.049
-0.049 -0.009 0.049
-0.049 -0.009 0.051
-0.049 -0.007 0.055
-0.051 -0.001 0.057
-0.049 -0.005 0.061
-0.045 -0.011 0.065
-0.047 -0.007 0.063
-0.043 -0.015 0.045
-0.043 -0.015 0.049
-0.049 -0.011 0.049
-0.049 -0.005 0.039
-0.047 -0.005 0.037
-0.049 0.003 0.039
-0.049 0.003 0.039
-0.051 -0.001 0.045
-0.051 -0.001 0.047
-0.051 0.003 0.045
-0.051 0.003 0.051
-0.041 -0.017 0.055
-0.049 -0.009 0.055
-0.049 -0.009 0.057
-0.041 -0.013 0.065
-0.049 -0.007 0.061
-0.047 0.001 0.061
-0.049 -0.003 0.061
-0.047 -0.009 0.061
-0.047 -0.009 0.063
-0.041 -0.011 0.071
-0.045 -0.003 0.069
-0.043 -0.001 0.071
-0.037 -0.011 0.075
-0.061 -0.003 0.083
-0.061 -0.001 0.083
-0.061 -0.001 0.085
-0.061 -0.003 0.083
-0.055 -0.005 0.095
-0.051 -0.003 0.093
-0.041 -0.013 0.085
-0.041 -0.013 0.085
-0.055 -0.005 0.083
-0.049 -0.009 0.093
-0.051 -0.007 0.093
-0.053 -0.007 0.095
-0.055 -0.005 0.095
-0.055 -0.005 0.095
-0.053 -0.003 0.095
-0.027 -0.017 0.077
-0.039 -0.013 0.069
-0.037 -0.013 0.071
-0.043 -0.007 0.071
-0.035 -0.011 0.077
-0.037 -0.009 0.077
-0.037 -0.001 0.075
-0.037 -0.009 0.077
-0.055 -0.005 0.083
-0.035 -0.001 0.077
-0.025 -0.021 0.087
-0.033 -0.017 0.091
-0.027 -0.021 0.093
-0.039 -0.015 0.095
-0.031 -0.003 0.093
-0.055 -0.003 0.089
-0.051 -0.005 0.089
-0.061 0.001 0.087
-0.059 0.003 0.089
-0.057 -0.001 0.099
-0.057 -0.001 0.105
-0.041 -0.013 0.097
-0.041 -0.013 0.099
-0.057 -0.005 0.099
-0.059 -0.003 0.101
-0.029 -0.021 0.099
-0.031 -0.021 0.103
-0.023 -0.015 0.107
-0.043 -0.009 0.103
-0.055 0.003 0.103
-0.027 -0.009 0.107
-0.057 -0.001 0.105
-0.043 -0.011 0.101
-0.055 0.001 0.101
-0.055 0.003 0.101
-0.057 0.001 0.103
-0.051 0.001 0.043
-0.051 0.001 0.045
-0.051 0.003 0.045
-0.051 -0.001 0.047
-0.047 -0.011 0.047
-0.049 -0.009 0.051
-0.051 -0.005 0.049
-0.049 -0.011 0.053
-0.049 -0.007 0.057
-0.049 0.003 0.047
-0.049 0.005 0.045
-0.049 0.005 0.047
-0.049 0.003 0.047
-0.051 -0.003 0.055
-0.051 0.003 0.051
-0.051 -0.005 0.045
-0.051 -0.005 0.047
-0.051 -0.003 0.047
-0.047 0.007 0.045
-0.047 0.007 0.055
-0.047 0.007 0.055
-0.047 0.005 0.057
-0.045 -0.009 0.067
-0.045 -0.011 0.063
-0.041 -0.009 0.071
-0.049 -0.003 0.059
-0.049 0.001 0.059
-0.047 0.003 0.063
-0.049 -0.003 0.063
-0.045 -0.005 0.069
-0.047 -0.005 0.065
-0.047 0.001 0.065
-0.045 0.003 0.065
-0.049 -0.001 0.063
-0.045 0.003 0.067
-0.041 0.005 0.067
-0.051 -0.001 0.051
-0.051 -0.001 0.051
-0.051 0.003 0.053
-0.047 0.005 0.057
-0.047 0.007 0.055
-0.037 0.005 0.067
-0.033 -0.015 0.073
-0.043 -0.011 0.085
-0.049 -0.007 0.085
-0.041 -0.003 0.073
-0.039 -0.003 0.075
-0.043 -0.003 0.071
-0.041 0.001 0.071
-0.001 0.001 0.071
-0.027 0.001 0.079
0.023 -0.001 0.073
-0.053 0.007 0.083
-0.039 -0.011 0.089
-0.045 -0.011 0.091
-0.045 -0.011 0.091
-0.053 -0.005 0.087
-0.055 -0.005 0.095
-0.051 -0.003 0.089
-0.061 0.005 0.085
-0.037 -0.003 0.091
-0.055 -0.005 0.095
-0.055 -0.003 0.089
-0.061 0.005 0.087
-0.061 0.003 0.091
-0.055 -0.001 0.097
-0.055 -0.001 0.097
-0.051 -0.003 0.093
-0.059 0.003 0.093
-0.039 -0.007 0.075
-0.059 -0.003 0.081
-0.037 -0.005 0.077
-0.037 0.001 0.075
-0.037 0.001 0.075
0.005 -0.001 0.071
0.039 -0.001 0.067
-0.061 0.003 0.085
-0.061 0.003 0.087
-0.061 0.003 0.087
-0.055 0.003 0.083
-0.055 0.003 0.083
-0.061 0.005 0.085
-0.053 0.005 0.083
-0.057 -0.001 0.089
-0.041 0.005 0.033
-0.037 0.019 0.033
-0.037 0.019 0.033
-0.049 0.001 0.039
-0.045 0.009 0.045
-0.037 0.021 0.033
-0.039 0.021 0.037
-0.037 0.023 0.039
-0.037 0.023 0.043
-0.047 0.007 0.055
-0.043 0.009 0.053
-0.041 0.011 0.041
-0.039 0.017 0.041
-0.039 0.013 0.043
-0.039 0.017 0.039
-0.035 0.015 0.045
-0.045 0.009 0.049
-0.043 0.009 0.053
-0.047 0.005 0.059
-0.045 0.005 0.063
-0.041 0.009 0.053
-0.047 0.007 0.055
-0.045 0.007 0.057
-0.045 0.003 0.067
-0.037 0.005 0.069
-0.035 0.003 0.073
-0.061 0.001 0.087
-0.059 0.003 0.089
-0.061 0.005 0.085
-0.057 0.009 0.085
-0.037 0.005 0.069
-0.037 0.005 0.069
-0.063 0.005 0.093
-0.055 0.003 0.105
-0.055 0.003 0.105
-0.055 0.007 0.105
-0.049 0.009 0.097
-0.051 0.009 0.099
-0.053 0.005 0.101
-0.055 0.005 0.103
-0.039 0.013 0.043
-0.039 0.013 0.043
-0.041 0.011 0.045
-0.039 0.013 0.045
-0.039 0.013 0.045
-0.043 0.009 0.047
-0.045 0.009 0.045
-0.045 0.009 0.049
-0.033 0.019 0.045
-0.037 0.015 0.043
-0.039 0.013 0.043
-0.039 0.013 0.043
-0.045 0.009 0.045
-0.031 0.015 0.047
-0.031 0.013 0.049
0.019 0.015 0.041
-0.043 0.009 0.055
-0.039 0.009 0.057
0.015 0.009 0.049
-0.031 0.013 0.051
0.017 0.015 0.043
0.015 0.011 0.047
-0.039 0.009 0.057
0.017 0.011 0.051
0.019 0.011 0.059
0.019 0.011 0.061
0.023 0.013 0.063
0.021 0.019 0.051
-0.035 0.013 0.045
-0.039 0.009 0.057
-0.035 0.011 0.053
-0.031 0.009 0.057
0.019 0.017 0.045
0.019 0.013 0.049
0.019 0.017 0.045
0.021 0.017 0.047
0.019 0.013 0.051
0.021 0.003 0.065
-0.025 0.003 0.055
-0.033 0.005 0.069
-0.033 0.003 0.073
-0.033 0.005 0.069
-0.031 0.005 0.085
-0.017 -0.001 0.089
-0.021 0.001 0.085
-0.029 0.003 0.073
-0.013 -0.001 0.093
-0.019 -0.001 0.087
-0.025 0.003 0.097
-0.027 0.003 0.099
-0.011 -0.003 0.097
-0.019 -0.001 0.105
-0.021 0.001 0.107
-0.021 0.001 0.107
-0.005 -0.009 0.083
0.003 -0.007 0.089
0.013 -0.005 0.091
-0.003 0.003 0.053
0.001 -0.001 0.053
-0.019 -0.007 0.069
-0.009 -0.003 0.089
-0.021 -0.001 0.055
-0.005 -0.007 0.081
-0.007 -0.003 0.077
-0.009 -0.001 0.067
-0.017 -0.003 0.107
-0.019 0.001 0.107
-0.023 0.001 0.103
-0.029 0.005 0.097
-0.031 -0.013 0.105
-0.035 0.001 0.105
-0.045 -0.005 0.101
-0.043 -0.001 0.101
-0.031 -0.003 0.105
-0.035 0.003 0.103
-0.031 -0.005 0.105
-0.035 -0.003 0.105
-0.027 -0.001 0.105
-0.011 -0.003 0.101
-0.011 -0.003 0.093
-0.007 -0.005 0.103
-0.007 -0.005 0.103
-0.005 -0.007 0.101
-0.007 -0.005 0.097
-0.009 -0.003 0.093
-0.023 0.001 0.073
-0.019 -0.003 0.075
-0.013 -0.007 0.101
-0.007 -0.005 0.097
-0.001 -0.007 0.085
-0.007 -0.007 0.079
-0.013 -0.013 0.109
-0.019 -0.011 0.115
-0.005 -0.015 0.113
-0.009 -0.013 0.107
-0.001 -0.017 0.113
-0.011 -0.015 0.093
-0.003 -0.019 0.113
-0.005 -0.015 0.113
-0.017 -0.003 0.107
-0.019 0.001 0.095
-0.025 0.001 0.103
-0.005 -0.007 0.101
-0.007 -0.005 0.097
-0.009 -0.003 0.097
-0.011 -0.013 0.091
-0.011 -0.015 0.091
-0.023 -0.011 0.113
-0.051 -0.001 0.107
-0.057 -0.001 0.105
-0.051 -0.001 0.107
-0.035 -0.009 0.105
-0.041 -0.009 0.103
-0.035 -0.011 0.105
-0.041 -0.001 0.105
-0.035 -0.001 0.105
-0.021 -0.013 0.115
-0.021 -0.021 0.101
-0.011 -0.015 0.111
-0.013 -0.013 0.109
-0.021 -0.007 0.103
-0.017 -0.003 0.109
-0.019 -0.011 0.115
-0.019 -0.013 0.109
-0.019 -0.009 0.107
-0.023 -0.007 0.107
-0.023 -0.005 0.105
-0.011 -0.013 0.109
-0.013 -0.015 0.111
0.029 -0.001 0.047
0.049 0.003 0.061
0.049 0.003 0.053
0.029 -0.005 0.087
0.039 -0.011 0.081
0.041 -0.011 0.081
0.023 0.007 0.071
0.017 -0.001 0.085
0.043 -0.001 0.069
0.029 -0.001 0.063
0.027 -0.003 0.049
0.023 0.001 0.047
0.027 -0.009 0.091
0.039 -0.009 0.081
0.029 -0.011 0.091
0.031 -0.011 0.091
0.037 -0.011 0.083
0.017 -0.001 0.085
0.025 -0.005 0.089
0.025 -0.005 0.089
0.019 -0.007 0.091
0.023 -0.003 0.087
0.023 0.003 0.069
0.027 -0.001 0.065
0.023 -0.001 0.067
0.021 -0.001 0.059
0.033 -0.003 0.063
0.031 -0.001 0.065
0.025 -0.001 0.075
0.045 -0.005 0.069
0.047 -0.003 0.067
0.047 -0.001 0.067
0.047 -0.003 0.067
0.043 -0.001 0.069
0.045 -0.001 0.069
0.045 0.001 0.065
0.047 -0.003 0.061
0.047 -0.003 0.067
0.049 -0.001 0.055
0.019 -0.011 0.095
0.025 -0.011 0.093
0.005 -0.001 0.075
0.025 -0.001 0.083
0.023 -0.001 0.081
0.031 -0.001 0.069
0.023 -0.003 0.087
0.021 -0.001 0.085
0.027 -0.001 0.081
0.005 -0.013 0.093
0.003 -0.007 0.089
0.009 -0.005 0.089
0.009 -0.013 0.095
0.031 -0.013 0.091
0.023 -0.001 0.085
0.021 -0.003 0.089
0.031 -0.003 0.083
0.025 -0.005 0.089
0.023 -0.015 0.091
0.023 -0.009 0.091
0.047 -0.003 0.087
0.045 -0.005 0.087
0.051 -0.003 0.085
0.047 -0.005 0.067
0.037 -0.013 0.081
0.037 -0.011 0.083
0.053 -0.009 0.081
0.055 -0.003 0.087
0.055 -0.005 0.087
0.055 -0.007 0.081
0.043 -0.005 0.087
0.049 -0.003 0.085
0.047 -0.003 0.083
0.041 -0.005 0.087
0.055 -0.005 0.085
-0.027 0.015 0.047
-0.007 0.011 0.043
-0.037 0.007 0.063
-0.029 0.011 0.053
-0.031 0.013 0.051
-0.035 0.017 0.043
-0.033 0.019 0.045
-0.037 0.019 0.043
-0.037 0.009 0.057
-0.041 0.005 0.067
-0.041 0.005 0.067
-0.031 0.005 0.063
-0.033 0.005 0.067
-0.015 0.005 0.053
-0.015 0.007 0.047
-0.023 0.017 0.045
-0.021 0.015 0.043
-0.029 0.013 0.051
-0.025 0.013 0.049
-0.017 0.013 0.043
-0.021 0.013 0.047
-0.007 0.005 0.049
-0.009 0.013 0.041
-0.009 0.007 0.051
-0.007 0.007 0.047
-0.023 0.017 0.045
-0.027 0.019 0.045
-0.025 0.007 0.053
-0.003 0.003 0.053
-0.001 0.001 0.059
-0.005 0.001 0.067
-0.033 0.005 0.069
-0.043 0.009 0.099
-0.057 0.009 0.089
-0.041 0.009 0.099
-0.035 0.007 0.087
-0.041 0.007 0.099
-0.037 0.007 0.097
-0.025 0.001 0.079
-0.023 0.001 0.095
-0.055 0.001 0.105
-0.051 0.007 0.105
-0.051 0.009 0.103
-0.055 0.003 0.105
-0.045 0.007 0.101
-0.047 0.001 0.105
-0.039 0.001 0.105
-0.047 0.007 0.101
-0.041 0.009 0.099
-0.029 0.003 0.101
-0.021 0.001 0.101
0.045 0.007 0.061
0.041 0.013 0.047
0.005 0.003 0.039
0.019 0.011 0.061
0.023 0.007 0.071
0.015 0.007 0.051
0.025 0.011 0.065
0.007 0.015 0.037
0.011 0.013 0.037
0.023 0.017 0.059
0.019 0.011 0.061
0.027 0.017 0.057
0.027 0.017 0.051
0.029 0.013 0.043
0.033 0.015 0.043
0.025 0.007 0.065
0.027 0.003 0.045
0.033 0.007 0.049
0.025 0.013 0.061
0.023 0.017 0.059
0.023 0.019 0.055
0.021 0.007 0.069
0.025 0.007 0.067
0.021 0.011 0.063
0.023 0.015 0.061
0.023 0.015 0.061
0.029 0.015 0.057
0.025 0.007 0.067
0.025 0.007 0.065
0.023 0.013 0.063
0.023 0.013 0.063
0.027 0.011 0.061
0.027 0.017 0.057
0.047 0.009 0.057
0.041 0.015 0.045
0.043 0.005 0.063
0.045 0.005 0.061
0.049 0.005 0.055
0.039 0.015 0.047
0.041 0.013 0.051
0.037 0.009 0.053
0.049 0.003 0.061
0.023 0.005 0.071
0.021 0.007 0.069
0.025 0.005 0.069
