-0.019 -0.017 0.053
-0.051 -0.021 0.037
-0.049 -0.021 0.039
-0.047 -0.011 0.051
-0.051 -0.005 0.055
-0.007 -0.019 0.055
-0.049 -0.007 0.099
-0.047 -0.009 0.097
-0.035 -0.017 0.099
-0.037 -0.015 0.099
-0.043 -0.007 0.103
-0.005 -0.019 0.111
-0.023 -0.015 0.107
-0.015 -0.011 0.109
-0.013 -0.011 0.109
0.021 -0.021 0.049
0.021 -0.019 0.071
0.029 -0.015 0.047
0.019 -0.021 0.059
0.019 -0.021 0.085
0.041 -0.011 0.067
0.023 -0.021 0.079
0.007 -0.021 0.083
0.025 -0.011 0.093
0.031 -0.017 0.085
0.035 -0.013 0.087
0.047 -0.009 0.085
-0.043 -0.011 0.063
-0.037 -0.007 0.105
-0.041 -0.007 0.105
-0.041 0.007 0.099
-0.045 0.001 0.103
0.025 -0.021 0.079
0.009 -0.021 0.085
0.009 -0.019 0.089
0.029 -0.015 0.089
-0.005 0.003 0.049
-0.029 0.003 0.073
-0.029 0.001 0.075
-0.013 -0.005 0.067
-0.009 -0.005 0.075
-0.051 0.003 0.107
-0.043 -0.001 0.101
-0.013 -0.011 0.109
0.029 0.001 0.047
0.005 -0.005 0.059
0.023 0.005 0.071
0.037 -0.005 0.069
0.041 -0.005 0.087
-0.031 0.015 0.047
-0.025 0.019 0.041
-0.017 0.011 0.047
-0.011 0.015 0.037
-0.039 0.007 0.087
0.007 0.009 0.039
0.025 0.011 0.033
0.025 0.015 0.061
-0.049 -0.017 0.041
-0.021 -0.025 0.035
-0.025 -0.021 0.043
-0.007 -0.019 0.059
-0.033 -0.015 0.087
-0.045 -0.011 0.091
-0.031 -0.017 0.083
-0.013 -0.025 0.097
0.011 -0.023 0.041
0.021 -0.027 0.039
0.015 -0.025 0.041
0.023 -0.021 0.059
0.023 -0.021 0.049
0.029 -0.019 0.067
0.019 -0.019 0.077
0.019 -0.015 0.093
0.021 -0.019 0.077
-0.051 -0.001 0.053
-0.051 -0.001 0.057
-0.047 -0.011 0.059
-0.035 -0.017 0.099
0.017 -0.017 0.063
0.017 -0.017 0.065
-0.001 -0.019 0.077
-0.003 -0.017 0.049
-0.015 -0.013 0.073
-0.001 -0.019 0.079
0.001 -0.019 0.083
-0.013 -0.015 0.095
-0.017 -0.025 0.103
0.003 -0.017 0.057
0.031 -0.009 0.055
0.035 -0.011 0.063
0.023 -0.019 0.065
0.011 -0.021 0.085
0.029 -0.019 0.079
0.035 -0.015 0.065
0.035 -0.013 0.083
0.017 -0.027 0.039
-0.003 -0.019 0.053
-0.003 -0.019 0.055
-0.043 -0.011 0.091
0.031 -0.019 0.039
0.037 0.001 0.049
0.049 0.007 0.055
-0.051 -0.011 0.037
-0.051 0.001 0.053
-0.059 -0.003 0.099
-0.057 -0.005 0.097
-0.051 -0.003 0.105
-0.057 0.009 0.089
-0.045 -0.003 0.089
-0.057 0.005 0.093
-0.031 -0.019 0.099
-0.037 0.001 0.105
-0.027 -0.007 0.105
-0.021 -0.003 0.107
-0.061 0.005 0.091
-0.037 0.005 0.069
0.011 0.003 0.049
-0.001 -0.003 0.081
-0.035 0.003 0.103
-0.023 0.001 0.105
-0.039 0.011 0.047
-0.039 0.021 0.037
-0.033 0.015 0.045
0.015 0.009 0.041
0.005 0.009 0.039
0.017 0.007 0.053
0.017 0.011 0.051
-0.049 -0.019 0.039
-0.041 -0.019 0.045
-0.051 -0.015 0.039
-0.051 -0.001 0.045
-0.045 -0.013 0.093
-0.033 -0.015 0.073
-0.051 -0.007 0.083
-0.035 -0.007 0.105
-0.029 -0.019 0.091
-0.041 -0.007 0.105
-0.041 -0.013 0.097
0.015 -0.025 0.045
-0.027 -0.015 0.103
0.007 -0.019 0.087
-0.011 -0.007 0.101
-0.013 -0.017 0.109
-0.051 -0.001 0.057
-0.061 0.005 0.087
-0.063 0.005 0.093
-0.029 -0.009 0.105
-0.041 0.001 0.101
-0.025 -0.001 0.105
-0.033 0.005 0.067
-0.023 0.003 0.055
-0.025 -0.005 0.059
-0.037 0.001 0.075
-0.035 0.001 0.075
-0.023 0.001 0.087
-0.017 -0.001 0.097
-0.031 0.003 0.103
-0.017 -0.003 0.107
-0.017 -0.003 0.109
0.031 -0.003 0.061
0.037 0.015 0.045
0.043 0.009 0.059
0.009 -0.005 0.069
0.009 -0.001 0.077
0.031 -0.001 0.065
0.011 -0.007 0.091
0.033 -0.003 0.077
0.053 -0.005 0.081
-0.035 0.023 0.043
-0.045 0.007 0.053
-0.017 0.015 0.037
-0.025 0.017 0.039
-0.023 0.013 0.049
-0.015 0.003 0.055
-0.053 0.007 0.091
0.033 0.015 0.037
0.027 0.017 0.051
0.015 -0.013 0.095
-0.013 -0.011 0.093
-0.011 -0.019 0.041
0.001 -0.019 0.057
-0.017 -0.017 0.083
0.007 -0.021 0.085
0.003 -0.013 0.091
-0.005 -0.013 0.085
-0.049 -0.003 0.105
-0.035 -0.003 0.105
-0.019 -0.013 0.113
0.043 -0.003 0.039
0.027 -0.023 0.041
0.029 -0.021 0.039
0.043 -0.003 0.035
0.055 -0.007 0.077
0.033 -0.019 0.073
0.031 -0.013 0.091
0.019 -0.005 0.091
0.029 -0.011 0.091
0.033 -0.005 0.083
0.027 -0.003 0.087
-0.011 0.011 0.043
-0.025 0.019 0.041
-0.037 -0.001 0.105
0.045 0.007 0.061
0.019 0.003 0.051
0.027 0.013 0.049
0.041 0.011 0.053
0.043 0.009 0.059
0.047 0.009 0.057
-0.017 -0.001 0.095
-0.015 -0.001 0.095
-0.015 -0.001 0.097
-0.021 -0.003 0.071
0.013 -0.001 0.081
0.001 -0.001 0.073
0.015 -0.003 0.089
-0.013 -0.011 0.091
-0.029 0.003 0.101
-0.005 -0.017 0.109
0.047 0.009 0.041
0.047 -0.007 0.065
0.023 -0.001 0.061
0.027 -0.001 0.061
0.035 -0.005 0.079
0.011 -0.003 0.075
-0.015 0.015 0.039
-0.005 0.009 0.043
-0.039 0.007 0.099
0.027 0.013 0.049
0.043 0.013 0.051
0.027 0.017 0.057
0.027 0.017 0.049
0.047 0.001 0.049
-0.047 0.007 0.051
-0.021 0.007 0.051
-0.027 0.005 0.057
-0.019 -0.003 0.057
-0.041 0.001 0.071
-0.041 -0.001 0.073
-0.049 0.009 0.099
-0.037 -0.001 0.091
-0.043 0.009 0.099
-0.015 -0.009 0.071
-0.031 0.003 0.089
-0.015 -0.001 0.097
-0.041 -0.001 0.105
0.013 -0.005 0.057
0.019 0.013 0.059
0.019 0.005 0.065
0.001 -0.005 0.085
-0.045 0.007 0.039
-0.027 0.019 0.041
-0.021 0.013 0.047
0.029 0.013 0.035
0.021 0.009 0.065
0.035 0.015 0.041
0.037 0.015 0.039
0.039 0.013 0.051
0.021 -0.027 0.039
-0.003 -0.017 0.049
0.025 -0.021 0.063
0.023 -0.019 0.087
-0.015 -0.015 0.105
0.023 -0.023 0.041
0.031 -0.007 0.053
0.035 -0.011 0.061
0.029 -0.019 0.079
0.035 -0.017 0.071
0.035 -0.017 0.071
0.015 -0.017 0.091
0.045 -0.011 0.071
0.047 -0.011 0.077
0.051 -0.009 0.079
0.035 -0.013 0.037
0.021 -0.023 0.043
0.025 -0.019 0.053
0.003 -0.019 0.065
0.029 -0.013 0.053
0.031 -0.015 0.057
0.033 -0.015 0.061
0.001 -0.019 0.085
-0.011 -0.015 0.089
0.025 -0.021 0.083
0.025 -0.021 0.083
0.019 -0.021 0.087
0.017 -0.015 0.093
-0.015 -0.011 0.099
0.047 0.001 0.049
-0.049 -0.019 0.039
-0.059 -0.003 0.085
-0.049 -0.015 0.041
-0.045 0.003 0.103
-0.049 0.007 0.103
-0.007 0.001 0.061
-0.035 -0.015 0.103
-0.049 0.001 0.107
-0.023 -0.021 0.107
-0.005 0.001 0.069
0.037 0.001 0.057
0.039 0.001 0.061
0.011 -0.017 0.091
-0.009 -0.003 0.093
0.001 -0.009 0.089
0.007 -0.005 0.089
0.039 -0.007 0.079
0.051 -0.003 0.087
-0.051 0.009 0.103
0.009 0.003 0.043
0.025 0.011 0.065
-0.051 -0.017 0.039
-0.045 -0.003 0.033
-0.047 -0.009 0.037
-0.049 -0.009 0.057
-0.047 -0.007 0.081
-0.057 -0.001 0.089
-0.045 -0.009 0.091
-0.017 -0.025 0.103
-0.035 -0.013 0.075
-0.055 -0.005 0.095
-0.055 -0.001 0.097
-0.059 0.007 0.089
-0.031 -0.001 0.093
-0.039 0.013 0.045
-0.049 0.005 0.051
-0.039 0.013 0.041
-0.047 0.003 0.063
-0.059 0.007 0.085
-0.057 0.011 0.085
-0.037 0.005 0.069
0.017 0.013 0.045
0.013 0.009 0.047
0.021 0.017 0.055
0.021 0.017 0.047
0.021 0.007 0.057
-0.041 0.001 0.101
-0.013 -0.003 0.103
-0.021 0.001 0.107
-0.037 -0.001 0.105
-0.035 -0.003 0.105
-0.037 -0.007 0.105
-0.031 -0.005 0.105
-0.009 -0.003 0.095
-0.015 -0.023 0.103
-0.021 -0.013 0.115
0.019 -0.001 0.059
0.021 0.005 0.071
0.025 -0.009 0.091
0.033 -0.003 0.075
0.003 -0.013 0.093
0.045 -0.005 0.087
-0.039 0.009 0.055
-0.023 0.013 0.049
0.009 0.001 0.047
0.045 0.005 0.061
0.039 0.015 0.047
-0.015 -0.023 0.041
-0.015 -0.019 0.053
-0.037 -0.009 0.077
-0.009 -0.019 0.065
-0.013 -0.011 0.071
-0.013 -0.013 0.067
-0.001 -0.019 0.081
-0.031 -0.019 0.099
-0.009 -0.017 0.109
0.015 -0.027 0.041
-0.001 -0.021 0.063
0.031 -0.015 0.057
0.021 -0.019 0.073
0.007 -0.019 0.071
-0.003 -0.019 0.075
0.013 -0.015 0.093
0.033 -0.017 0.081
0.033 -0.013 0.089
-0.019 -0.023 0.037
-0.041 -0.017 0.055
-0.033 -0.019 0.051
-0.037 -0.015 0.089
-0.025 -0.021 0.087
-0.037 -0.011 0.105
0.003 0.009 0.033
0.013 -0.017 0.037
0.019 -0.021 0.049
-0.045 -0.023 0.035
-0.047 -0.011 0.045
-0.047 -0.013 0.049
-0.041 -0.019 0.051
-0.045 -0.011 0.061
-0.059 -0.003 0.085
-0.039 -0.015 0.093
-0.029 -0.021 0.097
0.007 -0.021 0.085
0.011 -0.021 0.087
0.033 -0.015 0.085
0.029 -0.017 0.085
0.053 -0.007 0.083
-0.011 -0.007 0.031
-0.027 -0.023 0.035
0.003 -0.015 0.055
-0.059 0.003 0.091
-0.017 -0.017 0.083
-0.021 -0.023 0.093
0.029 -0.021 0.039
0.005 -0.019 0.069
0.021 -0.021 0.057
-0.025 -0.017 0.079
-0.015 -0.021 0.097
-0.015 -0.021 0.091
-0.013 -0.009 0.087
-0.025 -0.023 0.101
-0.023 -0.021 0.107
-0.009 -0.005 0.103
0.023 -0.025 0.035
0.033 -0.011 0.043
0.023 -0.021 0.055
0.035 -0.011 0.063
0.011 -0.013 0.095
0.035 -0.017 0.077
0.035 -0.017 0.079
0.049 -0.009 0.075
0.047 -0.009 0.085
0.017 -0.017 0.065
-0.023 -0.015 0.069
0.027 -0.021 0.075
0.025 -0.021 0.077
-0.013 -0.007 0.093
-0.017 -0.015 0.103
-0.019 -0.013 0.113
0.031 -0.011 0.055
0.047 -0.005 0.067
0.049 0.009 0.051
-0.043 0.005 0.065
-0.041 0.005 0.067
-0.043 -0.001 0.071
-0.059 0.003 0.089
-0.059 0.005 0.089
-0.039 -0.009 0.075
-0.031 0.001 0.077
-0.057 -0.001 0.099
-0.053 0.007 0.101
-0.011 0.007 0.051
-0.017 0.001 0.057
-0.005 0.001 0.069
-0.009 0.005 0.053
0.017 -0.003 0.057
0.007 -0.001 0.081
0.009 -0.001 0.081
-0.041 0.011 0.041
-0.037 0.021 0.033
-0.025 0.013 0.047
-0.019 0.013 0.045
-0.047 0.005 0.095
-0.041 0.009 0.099
0.005 0.011 0.037
0.015 0.013 0.035
0.017 0.015 0.035
0.019 0.015 0.047
0.011 0.005 0.049
0.039 0.013 0.049
0.003 -0.005 0.051
0.005 -0.005 0.057
-0.003 -0.001 0.041
0.017 -0.001 0.085
-0.007 -0.007 0.087
-0.007 -0.005 0.095
-0.031 -0.005 0.105
-0.013 -0.015 0.105
-0.017 -0.013 0.103
-0.015 -0.011 0.105
0.027 -0.003 0.049
0.027 -0.003 0.055
0.049 0.009 0.053
0.025 0.007 0.047
0.043 0.005 0.063
0.019 -0.001 0.079
0.035 -0.011 0.087
0.043 -0.003 0.071
0.045 -0.003 0.083
0.051 -0.005 0.075
0.035 -0.011 0.087
0.051 -0.003 0.083
-0.039 0.005 0.065
-0.009 0.009 0.045
-0.033 0.005 0.089
-0.035 0.007 0.097
-0.023 0.001 0.097
-0.041 0.007 0.099
0.025 0.007 0.049
0.025 0.019 0.051
-0.029 0.021 0.039
-0.049 0.013 0.085
-0.039 -0.007 0.093
-0.025 -0.001 0.081
-0.009 -0.005 0.075
-0.023 0.001 0.073
-0.009 -0.007 0.075
0.013 0.013 0.037
0.011 0.007 0.039
0.015 -0.003 0.053
-0.001 0.001 0.061
0.019 0.011 0.055
0.017 -0.009 0.069
0.001 0.001 0.065
0.005 -0.001 0.075
-0.041 0.007 0.035
-0.039 0.019 0.035
-0.037 0.023 0.043
-0.025 0.013 0.051
0.009 0.015 0.035
0.021 0.015 0.041
0.025 0.017 0.049
0.037 0.015 0.039
0.025 0.019 0.055
0.045 0.011 0.053
