-0.023 -0.023 0.039
-0.007 -0.017 0.075
-0.031 -0.021 0.049
-0.035 -0.021 0.049
-0.029 -0.021 0.105
-0.023 -0.015 0.105
-0.037 -0.011 0.105
-0.037 -0.011 0.105
-0.025 -0.021 0.109
-0.011 -0.019 0.057
-0.005 -0.017 0.079
-0.003 -0.019 0.079
0.001 -0.021 0.077
-0.007 -0.019 0.065
-0.017 -0.021 0.101
-0.019 -0.021 0.101
-0.009 -0.015 0.111
-0.007 -0.017 0.113
-0.031 -0.017 0.103
-0.031 -0.015 0.103
-0.027 -0.015 0.103
-0.025 -0.009 0.111
-0.045 -0.007 0.099
-0.039 -0.013 0.103
-0.033 -0.017 0.103
-0.033 -0.015 0.103
-0.037 -0.011 0.105
-0.041 -0.011 0.103
-0.043 -0.013 0.101
-0.037 -0.011 0.105
-0.035 -0.009 0.105
-0.007 -0.017 0.073
-0.023 -0.019 0.103
-0.013 -0.015 0.111
-0.013 -0.015 0.111
-0.017 -0.021 0.101
-0.009 -0.013 0.111
-0.007 -0.019 0.111
-0.009 -0.009 0.079
-0.005 -0.015 0.081
-0.009 -0.009 0.079
-0.005 -0.007 0.081
-0.003 -0.005 0.083
-0.025 -0.007 0.107
-0.019 -0.003 0.105
-0.003 -0.009 0.085
-0.007 -0.019 0.111
-0.013 -0.003 0.103
-0.009 -0.005 0.103
-0.049 -0.009 0.097
-0.043 -0.009 0.103
-0.039 -0.003 0.105
-0.037 -0.003 0.105
-0.035 -0.001 0.105
-0.027 -0.023 0.107
-0.015 -0.011 0.109
-0.019 -0.003 0.107
-0.029 -0.005 0.105
-0.031 -0.003 0.105
-0.019 -0.003 0.109
-0.007 -0.005 0.103
-0.007 -0.017 0.113
-0.019 -0.013 0.115
0.019 -0.019 0.089
0.021 -0.015 0.093
0.037 -0.013 0.037
0.037 -0.007 0.039
0.017 -0.021 0.057
0.009 -0.017 0.049
0.017 -0.025 0.045
0.021 -0.021 0.061
0.025 -0.021 0.063
0.025 -0.023 0.041
0.029 -0.017 0.045
0.017 -0.013 0.095
0.015 -0.015 0.093
0.023 -0.015 0.091
0.015 -0.019 0.055
0.025 -0.021 0.063
0.025 -0.021 0.063
0.007 -0.017 0.089
0.009 -0.017 0.091
0.013 -0.019 0.089
0.007 -0.009 0.091
0.031 -0.013 0.091
0.047 -0.009 0.085
0.049 -0.009 0.085
0.039 -0.007 0.079
0.043 -0.011 0.083
0.045 -0.011 0.083
0.007 -0.021 0.083
0.019 -0.021 0.087
0.023 -0.021 0.083
0.027 -0.019 0.081
0.007 -0.009 0.091
0.011 -0.009 0.091
0.011 -0.005 0.091
0.019 -0.013 0.095
0.021 -0.011 0.095
0.021 -0.009 0.093
0.019 -0.013 0.095
0.023 -0.019 0.089
0.011 -0.007 0.091
0.019 -0.003 0.089
0.023 -0.013 0.095
0.041 -0.011 0.077
0.043 -0.013 0.075
0.037 -0.011 0.083
0.039 -0.011 0.081
0.045 -0.011 0.083
0.035 -0.011 0.087
0.035 -0.011 0.087
0.041 -0.009 0.083
0.035 -0.009 0.085
0.047 -0.007 0.087
-0.009 -0.007 0.087
-0.025 0.011 0.053
-0.023 -0.009 0.111
-0.035 -0.011 0.105
-0.035 -0.007 0.105
-0.013 -0.003 0.103
-0.009 -0.005 0.103
-0.019 0.011 0.049
-0.021 0.009 0.051
-0.007 0.009 0.045
0.003 -0.003 0.085
-0.011 0.005 0.053
-0.031 0.017 0.045
-0.029 0.017 0.047
-0.007 -0.007 0.103
-0.011 -0.005 0.103
-0.017 -0.003 0.105
0.003 -0.007 0.089
0.003 -0.005 0.087
-0.027 -0.005 0.105
-0.049 0.003 0.107
-0.035 -0.001 0.105
-0.031 0.001 0.105
-0.035 0.003 0.103
-0.021 -0.005 0.105
-0.021 -0.003 0.107
-0.051 0.007 0.105
-0.041 0.007 0.099
-0.045 0.001 0.103
-0.043 0.003 0.101
-0.047 0.003 0.105
-0.021 -0.001 0.107
0.041 -0.009 0.085
0.015 -0.003 0.089
0.035 -0.007 0.081
0.035 -0.005 0.079
0.027 -0.003 0.087
0.023 0.005 0.071
0.027 0.007 0.059
0.025 0.007 0.049
0.027 0.007 0.045
0.017 -0.005 0.091
0.027 -0.001 0.083
0.025 0.005 0.069
0.021 0.011 0.063
0.023 0.013 0.063
0.025 0.013 0.061
0.039 0.005 0.059
0.045 0.009 0.057
0.035 -0.003 0.073
0.041 0.009 0.057
0.049 0.005 0.059
0.021 0.005 0.071
0.043 -0.005 0.087
-0.015 0.015 0.039
-0.009 0.013 0.039
-0.005 0.013 0.037
-0.041 0.011 0.041
-0.035 0.011 0.049
-0.035 0.011 0.049
-0.039 0.011 0.047
-0.031 0.011 0.053
-0.045 0.007 0.057
-0.043 0.005 0.063
-0.045 0.005 0.063
-0.033 0.011 0.055
-0.033 0.007 0.061
-0.041 0.005 0.065
-0.033 0.005 0.067
-0.031 0.005 0.061
-0.027 0.003 0.067
-0.019 0.011 0.049
-0.005 0.009 0.043
-0.021 0.015 0.041
-0.023 0.015 0.039
-0.023 0.015 0.039
-0.021 0.015 0.039
-0.005 0.003 0.059
-0.021 0.001 0.055
-0.027 0.001 0.061
-0.005 0.001 0.067
-0.025 0.003 0.091
-0.047 0.011 0.085
-0.049 0.005 0.089
-0.045 0.007 0.095
-0.029 0.003 0.091
-0.031 0.005 0.097
-0.027 0.003 0.095
-0.029 0.005 0.097
-0.001 0.001 0.069
0.001 0.001 0.069
0.003 -0.001 0.077
-0.019 -0.003 0.073
-0.021 0.001 0.083
-0.025 0.001 0.079
-0.021 -0.001 0.077
-0.005 0.001 0.069
-0.009 -0.001 0.065
-0.005 -0.001 0.075
-0.023 0.001 0.085
-0.025 0.001 0.093
-0.015 -0.007 0.083
-0.009 -0.005 0.087
-0.001 -0.007 0.085
-0.009 -0.007 0.089
-0.051 0.009 0.101
-0.051 0.009 0.103
-0.037 0.003 0.101
-0.033 0.005 0.099
-0.027 0.001 0.103
-0.017 -0.001 0.099
-0.013 -0.003 0.101
-0.015 -0.001 0.103
-0.019 -0.001 0.109
-0.015 -0.001 0.101
-0.025 -0.007 0.107
-0.025 -0.009 0.109
-0.021 0.001 0.105
-0.019 -0.001 0.105
-0.007 -0.005 0.097
-0.021 -0.011 0.113
0.043 0.015 0.041
0.027 0.015 0.049
0.027 0.001 0.047
0.033 0.007 0.049
0.001 -0.007 0.047
0.033 0.015 0.039
0.037 0.011 0.051
0.033 0.011 0.047
0.029 0.011 0.045
0.033 0.007 0.049
0.031 0.003 0.047
0.019 0.013 0.059
0.023 0.009 0.065
0.027 -0.003 0.059
0.015 -0.003 0.059
0.043 0.015 0.043
0.045 0.011 0.055
0.043 0.009 0.059
0.047 0.003 0.063
0.007 -0.003 0.071
0.025 0.005 0.069
0.035 -0.005 0.067
0.021 -0.001 0.083
0.007 -0.007 0.067
0.011 -0.009 0.069
0.009 -0.005 0.069
0.009 -0.005 0.069
0.019 -0.003 0.075
0.005 -0.001 0.073
0.011 -0.001 0.079
0.025 -0.001 0.065
0.015 -0.001 0.085
0.011 -0.007 0.091
0.023 -0.009 0.091
0.033 -0.009 0.087
0.025 -0.003 0.087
0.027 -0.011 0.093
0.025 -0.005 0.089
0.037 -0.005 0.069
0.039 -0.001 0.067
0.041 0.001 0.067
0.047 -0.001 0.067
0.043 -0.005 0.075
0.037 -0.009 0.081
0.045 -0.003 0.087
0.051 -0.003 0.081
-0.009 0.015 0.035
-0.035 0.023 0.041
-0.049 0.005 0.053
-0.041 0.009 0.055
-0.041 0.009 0.055
-0.041 0.007 0.061
-0.041 0.005 0.063
-0.005 0.011 0.039
-0.005 0.009 0.041
-0.003 0.001 0.045
-0.005 0.009 0.041
-0.027 0.021 0.035
-0.029 0.011 0.053
-0.029 0.005 0.059
-0.003 0.001 0.049
-0.001 0.001 0.063
-0.035 0.005 0.069
-0.033 0.003 0.071
-0.045 0.009 0.083
-0.035 0.007 0.085
-0.039 0.007 0.085
-0.047 0.009 0.087
-0.039 0.005 0.089
-0.003 0.001 0.069
-0.053 0.009 0.103
0.007 0.015 0.033
0.035 0.015 0.037
0.021 0.017 0.033
0.025 0.017 0.049
0.027 0.015 0.047
0.025 0.015 0.045
0.023 0.017 0.045
0.021 0.017 0.053
0.021 0.017 0.053
0.027 0.017 0.057
0.023 0.017 0.059
0.023 0.013 0.063
0.041 0.013 0.037
0.039 0.007 0.057
0.043 0.009 0.059
0.049 0.009 0.053
0.021 0.009 0.065
-0.047 0.001 0.035
-0.039 0.015 0.039
-0.051 -0.011 0.037
-0.051 -0.015 0.039
-0.051 -0.013 0.035
-0.049 -0.003 0.039
-0.049 -0.003 0.037
-0.047 0.001 0.037
-0.049 -0.009 0.055
-0.051 -0.003 0.049
-0.051 -0.001 0.049
-0.049 -0.005 0.059
-0.051 -0.001 0.057
-0.049 -0.007 0.059
-0.049 -0.005 0.061
-0.049 -0.003 0.063
-0.051 -0.001 0.043
-0.049 -0.001 0.039
-0.049 0.005 0.043
-0.051 -0.003 0.047
-0.051 0.003 0.051
-0.049 0.005 0.053
-0.045 0.007 0.055
-0.043 0.009 0.053
-0.043 0.007 0.039
-0.041 0.009 0.039
-0.039 0.011 0.039
-0.045 0.009 0.043
-0.045 0.009 0.049
-0.037 0.011 0.047
-0.039 0.015 0.041
-0.033 0.017 0.045
-0.041 0.009 0.053
-0.033 0.011 0.055
-0.047 0.005 0.059
-0.047 0.005 0.059
-0.047 0.005 0.057
-0.045 0.007 0.059
-0.041 0.005 0.067
-0.035 0.005 0.067
-0.045 -0.009 0.067
-0.043 -0.003 0.071
-0.061 0.001 0.083
-0.061 0.001 0.083
-0.059 0.007 0.085
-0.055 -0.005 0.095
-0.055 -0.001 0.097
-0.045 -0.003 0.095
-0.059 0.007 0.091
-0.043 -0.003 0.071
-0.041 -0.001 0.073
-0.035 0.003 0.073
-0.037 0.005 0.067
-0.035 -0.001 0.077
-0.039 0.003 0.069
-0.027 0.003 0.067
-0.007 -0.001 0.071
-0.009 -0.005 0.073
-0.051 -0.001 0.097
-0.053 0.005 0.099
-0.059 0.007 0.085
-0.059 0.009 0.087
-0.059 0.007 0.085
-0.057 0.011 0.087
-0.055 0.011 0.089
-0.055 0.011 0.089
-0.051 0.011 0.087
-0.051 0.011 0.087
-0.035 0.007 0.097
-0.055 0.001 0.099
-0.057 -0.001 0.101
-0.053 0.003 0.105
-0.053 0.005 0.101
-0.055 0.007 0.105
-0.013 -0.015 0.111
-0.035 0.001 0.105
-0.027 -0.011 0.107
-0.031 -0.007 0.105
-0.027 -0.009 0.107
-0.045 0.009 0.101
-0.023 0.001 0.103
-0.027 0.019 0.043
0.005 0.013 0.039
-0.041 0.009 0.053
-0.039 0.009 0.051
-0.033 0.011 0.051
-0.033 0.011 0.053
-0.031 0.013 0.049
-0.027 0.013 0.049
0.011 0.007 0.043
0.011 0.001 0.049
0.009 0.005 0.045
-0.009 -0.001 0.069
-0.015 -0.001 0.059
-0.013 0.001 0.059
-0.011 0.003 0.055
-0.013 -0.003 0.063
-0.013 -0.003 0.065
-0.005 0.001 0.065
-0.009 0.001 0.063
0.001 0.001 0.063
0.013 -0.003 0.053
0.015 -0.005 0.061
0.017 -0.003 0.057
0.015 0.009 0.039
0.017 0.013 0.039
0.019 0.013 0.059
-0.033 0.001 0.075
-0.025 0.001 0.075
0.001 -0.001 0.075
0.003 -0.001 0.075
0.007 -0.001 0.077
-0.003 -0.001 0.075
0.021 -0.001 0.067
0.015 -0.001 0.079
-0.035 0.007 0.087
-0.009 -0.003 0.089
0.003 -0.003 0.085
0.005 -0.009 0.091
0.007 -0.007 0.091
0.003 -0.005 0.087
0.005 -0.003 0.087
0.005 -0.009 0.091
0.015 -0.001 0.085
0.017 -0.005 0.091
0.021 0.005 0.069
0.027 -0.001 0.077
0.027 -0.001 0.079
0.043 -0.005 0.081
0.051 -0.003 0.087
0.051 -0.003 0.087
-0.037 0.019 0.031
-0.039 0.009 0.035
-0.039 0.009 0.035
-0.013 0.015 0.031
-0.039 0.011 0.035
-0.039 0.019 0.041
-0.037 0.021 0.041
-0.047 0.007 0.051
-0.047 0.005 0.059
-0.043 0.007 0.059
-0.039 0.019 0.041
-0.029 0.017 0.047
-0.037 0.019 0.043
-0.027 0.021 0.037
-0.019 0.011 0.049
-0.033 0.023 0.037
-0.035 0.021 0.043
-0.031 0.011 0.053
-0.031 0.011 0.055
-0.033 0.011 0.055
-0.037 0.007 0.059
-0.033 0.009 0.057
-0.017 0.005 0.053
-0.037 0.003 0.071
-0.049 0.011 0.081
-0.055 0.013 0.085
-0.061 0.007 0.091
-0.061 0.007 0.093
-0.045 0.009 0.087
-0.043 0.009 0.095
-0.053 0.009 0.101
-0.037 0.007 0.097
-0.043 0.009 0.097
0.015 0.013 0.033
0.007 0.015 0.037
0.017 0.015 0.035
0.003 0.009 0.037
0.005 0.013 0.039
0.009 0.001 0.045
0.019 0.015 0.033
0.019 0.013 0.047
0.011 0.001 0.049
0.015 0.007 0.051
0.021 0.015 0.055
0.021 0.011 0.063
0.023 0.017 0.057
0.025 0.017 0.057
0.021 0.017 0.047
0.039 0.015 0.047
0.019 0.013 0.057
0.021 0.019 0.051
0.025 0.019 0.053
0.023 0.017 0.059
0.023 0.017 0.059
-0.001 0.001 0.069
0.019 0.005 0.065
0.021 0.007 0.065
