-0.029 0.011 0.055
-0.013 -0.001 0.063
-0.001 0.001 0.051
-0.021 -0.007 0.059
-0.005 -0.001 0.075
-0.027 0.003 0.087
-0.041 0.009 0.099
-0.025 0.001 0.105
-0.037 0.003 0.103
-0.015 -0.001 0.095
-0.021 -0.003 0.069
-0.007 -0.007 0.079
-0.007 -0.005 0.103
-0.009 -0.005 0.103
-0.031 -0.003 0.105
-0.013 -0.003 0.103
-0.019 -0.009 0.107
-0.007 -0.005 0.097
-0.021 -0.011 0.113
0.031 -0.001 0.069
0.031 -0.001 0.071
0.027 -0.001 0.073
0.013 -0.001 0.049
0.015 0.009 0.051
0.013 0.003 0.051
0.011 -0.003 0.075
0.021 -0.001 0.077
0.027 0.009 0.063
0.023 0.003 0.071
0.037 -0.005 0.067
0.045 0.003 0.065
0.027 -0.003 0.087
0.031 -0.005 0.085
0.021 -0.003 0.087
0.005 -0.001 0.075
0.015 -0.001 0.083
0.023 -0.001 0.085
0.031 -0.001 0.075
0.021 -0.001 0.083
0.027 -0.011 0.093
0.035 -0.003 0.073
-0.045 0.007 0.055
-0.029 0.017 0.047
-0.031 0.013 0.051
-0.039 0.005 0.063
-0.035 0.007 0.061
-0.013 0.015 0.037
-0.023 0.017 0.043
-0.023 0.009 0.053
-0.005 0.003 0.049
-0.041 0.005 0.067
-0.031 0.005 0.067
-0.047 0.007 0.089
-0.045 0.009 0.087
-0.033 0.005 0.089
-0.035 0.005 0.099
-0.021 0.001 0.099
0.007 0.015 0.033
0.021 0.017 0.033
0.029 0.013 0.059
0.047 0.011 0.045
0.049 0.009 0.053
0.037 0.011 0.051
-0.035 -0.021 0.043
-0.017 -0.023 0.041
-0.029 -0.017 0.051
-0.019 -0.017 0.053
-0.009 -0.019 0.063
-0.049 -0.007 0.085
-0.041 -0.013 0.091
-0.015 -0.025 0.093
-0.015 -0.017 0.091
-0.035 -0.017 0.097
-0.013 -0.025 0.101
-0.013 -0.025 0.103
-0.003 -0.017 0.111
-0.013 -0.025 0.103
-0.015 -0.015 0.105
-0.013 -0.017 0.107
-0.007 -0.007 0.099
0.005 -0.017 0.063
0.001 -0.013 0.049
0.029 -0.009 0.051
0.027 -0.007 0.049
0.041 -0.009 0.033
0.037 -0.001 0.055
0.049 -0.001 0.055
0.037 -0.009 0.063
0.033 -0.007 0.057
0.011 -0.021 0.077
0.025 -0.021 0.075
0.021 -0.019 0.073
0.011 -0.021 0.087
0.043 -0.011 0.083
0.053 -0.007 0.085
-0.031 -0.013 0.059
-0.009 -0.019 0.055
-0.001 -0.019 0.055
0.003 -0.017 0.061
0.005 -0.013 0.061
-0.049 -0.007 0.085
-0.035 -0.015 0.083
-0.009 -0.019 0.065
-0.015 -0.025 0.095
-0.017 -0.015 0.103
0.027 -0.023 0.037
0.039 -0.005 0.043
0.035 0.001 0.047
0.023 0.007 0.055
0.039 0.001 0.051
0.049 0.003 0.049
-0.053 -0.005 0.081
-0.039 -0.015 0.101
-0.029 -0.021 0.105
-0.035 -0.017 0.099
-0.029 -0.019 0.105
-0.025 -0.009 0.111
-0.031 -0.015 0.073
-0.021 -0.023 0.101
-0.025 -0.005 0.105
-0.017 -0.015 0.103
-0.039 -0.009 0.105
-0.011 -0.017 0.111
-0.021 -0.015 0.107
-0.021 -0.011 0.115
-0.023 -0.013 0.115
-0.009 -0.007 0.103
-0.003 -0.017 0.113
-0.005 -0.019 0.113
0.015 -0.023 0.045
-0.013 -0.013 0.109
-0.013 -0.025 0.103
-0.005 -0.015 0.113
0.007 -0.009 0.091
0.021 -0.011 0.095
0.019 -0.021 0.087
-0.005 -0.015 0.113
0.009 -0.007 0.091
0.019 -0.003 0.089
0.023 -0.021 0.083
0.029 -0.015 0.089
0.029 -0.019 0.079
0.039 -0.011 0.081
0.033 -0.013 0.089
0.047 -0.005 0.089
-0.053 -0.003 0.103
-0.045 -0.001 0.103
-0.033 -0.003 0.105
-0.043 0.003 0.101
-0.033 0.001 0.105
-0.027 -0.009 0.107
-0.031 0.001 0.105
-0.043 0.003 0.101
-0.043 -0.001 0.101
-0.043 -0.003 0.103
-0.055 0.011 0.089
-0.055 0.009 0.089
-0.041 -0.001 0.105
-0.041 -0.003 0.105
-0.037 -0.003 0.105
-0.029 -0.001 0.105
0.011 -0.003 0.089
-0.001 -0.007 0.085
0.015 0.013 0.039
0.005 -0.007 0.089
0.005 -0.005 0.089
0.015 0.007 0.051
0.021 0.015 0.057
0.039 0.011 0.053
0.027 -0.007 0.089
0.043 0.009 0.059
0.015 -0.001 0.085
-0.013 -0.023 0.039
-0.035 -0.019 0.053
-0.013 -0.021 0.053
-0.033 -0.013 0.055
-0.013 -0.021 0.047
0.029 -0.021 0.039
0.023 -0.029 0.037
0.023 -0.021 0.043
0.025 -0.021 0.059
-0.021 -0.017 0.081
-0.017 -0.019 0.093
-0.015 -0.021 0.093
-0.015 -0.017 0.091
-0.015 -0.021 0.089
-0.015 -0.023 0.093
0.001 -0.021 0.067
-0.013 -0.023 0.097
-0.015 -0.011 0.097
0.033 -0.017 0.037
0.029 -0.011 0.047
0.025 -0.021 0.049
0.025 -0.021 0.059
0.029 -0.005 0.051
0.037 -0.013 0.035
0.037 -0.013 0.037
0.047 -0.003 0.055
0.023 -0.021 0.083
0.027 -0.017 0.089
0.017 -0.013 0.095
0.045 -0.011 0.083
0.043 -0.011 0.069
0.025 -0.021 0.047
0.027 -0.007 0.049
0.021 -0.021 0.057
0.033 -0.005 0.041
0.027 -0.013 0.049
0.029 -0.009 0.051
0.033 -0.015 0.061
0.005 -0.019 0.069
-0.009 -0.005 0.099
0.041 -0.007 0.037
0.043 -0.003 0.035
0.045 0.007 0.039
0.019 0.003 0.051
0.049 -0.001 0.053
0.049 0.005 0.053
0.049 0.009 0.049
-0.023 -0.025 0.033
-0.049 -0.003 0.037
-0.051 -0.003 0.057
-0.049 -0.009 0.059
-0.033 -0.021 0.035
-0.029 -0.021 0.043
-0.027 -0.021 0.043
-0.005 -0.019 0.055
-0.045 -0.011 0.097
-0.005 -0.019 0.075
-0.037 -0.011 0.075
-0.049 -0.009 0.093
-0.053 -0.009 0.097
-0.043 -0.009 0.099
-0.011 -0.017 0.111
0.011 -0.023 0.043
0.015 -0.025 0.045
0.019 -0.021 0.047
0.015 -0.021 0.047
-0.017 -0.015 0.057
-0.009 -0.019 0.063
-0.027 -0.015 0.073
-0.029 -0.015 0.077
-0.007 -0.017 0.075
-0.005 -0.017 0.077
-0.027 -0.019 0.085
0.019 -0.021 0.083
0.015 -0.019 0.089
-0.039 -0.015 0.095
-0.035 -0.017 0.099
-0.017 -0.025 0.103
-0.021 -0.023 0.089
-0.019 -0.025 0.093
0.019 -0.013 0.095
-0.033 0.021 0.045
-0.051 -0.003 0.057
-0.049 -0.003 0.061
-0.037 0.017 0.043
-0.047 0.001 0.063
-0.045 0.003 0.067
-0.061 0.005 0.087
-0.061 0.005 0.091
-0.051 -0.005 0.081
-0.053 -0.009 0.097
-0.055 -0.007 0.099
-0.053 -0.007 0.099
-0.057 0.001 0.105
-0.055 -0.003 0.103
-0.037 -0.003 0.105
-0.037 -0.013 0.061
-0.045 -0.009 0.083
-0.043 -0.011 0.085
-0.049 -0.007 0.085
-0.049 -0.007 0.045
-0.051 -0.001 0.045
-0.041 -0.019 0.053
-0.051 -0.007 0.053
-0.043 -0.019 0.041
-0.043 -0.017 0.047
-0.049 -0.009 0.047
-0.041 -0.013 0.063
-0.053 -0.005 0.087
-0.041 -0.013 0.083
-0.043 -0.011 0.085
-0.041 -0.013 0.085
-0.057 -0.003 0.087
-0.059 -0.001 0.087
-0.045 -0.009 0.091
-0.041 -0.013 0.099
-0.033 -0.019 0.101
-0.051 0.001 0.047
-0.045 -0.013 0.051
-0.051 -0.003 0.057
-0.049 0.003 0.055
-0.045 -0.003 0.069
-0.047 -0.001 0.065
-0.045 0.003 0.065
-0.037 -0.009 0.077
-0.041 -0.001 0.073
-0.039 0.003 0.071
-0.041 -0.003 0.073
-0.061 0.003 0.091
-0.061 0.005 0.087
-0.051 0.001 0.045
-0.039 0.013 0.043
-0.043 0.009 0.055
-0.039 0.017 0.039
-0.033 0.017 0.045
-0.047 0.003 0.061
-0.041 0.009 0.055
-0.059 0.007 0.085
-0.055 0.003 0.101
-0.053 0.007 0.099
-0.055 0.005 0.103
-0.039 0.013 0.043
-0.045 0.009 0.045
0.019 0.013 0.049
-0.011 -0.021 0.043
-0.045 -0.017 0.041
-0.041 -0.019 0.051
-0.043 -0.015 0.055
-0.029 -0.023 0.033
-0.027 -0.023 0.037
-0.029 -0.021 0.039
-0.003 -0.017 0.049
-0.003 -0.019 0.053
-0.045 -0.011 0.065
-0.047 -0.007 0.081
-0.007 -0.017 0.073
-0.023 -0.015 0.069
-0.031 -0.017 0.087
-0.017 -0.025 0.095
-0.015 -0.025 0.089
-0.057 -0.005 0.103
-0.055 -0.007 0.099
-0.049 -0.005 0.101
-0.039 -0.015 0.099
-0.025 -0.023 0.109
-0.025 -0.013 0.111
-0.019 -0.015 0.109
0.019 -0.029 0.035
0.019 -0.029 0.037
0.025 -0.019 0.053
0.019 -0.019 0.063
0.023 -0.021 0.063
0.003 -0.017 0.057
0.005 -0.015 0.061
0.003 -0.021 0.069
0.029 -0.019 0.061
0.035 -0.015 0.037
0.019 -0.017 0.069
0.005 -0.013 0.091
0.013 -0.015 0.093
0.017 -0.013 0.095
0.035 -0.017 0.069
0.045 -0.011 0.075
0.033 -0.017 0.081
0.049 -0.009 0.083
-0.035 -0.013 0.061
-0.011 -0.021 0.047
-0.015 -0.021 0.049
-0.007 -0.019 0.061
-0.027 -0.009 0.057
-0.019 -0.009 0.061
-0.035 -0.017 0.097
-0.003 -0.019 0.079
-0.051 -0.001 0.107
0.029 -0.017 0.043
0.007 -0.009 0.043
0.011 -0.019 0.049
0.013 -0.019 0.049
0.021 -0.021 0.047
0.041 -0.011 0.067
-0.037 -0.019 0.035
-0.029 -0.023 0.033
-0.045 -0.023 0.035
-0.021 -0.009 0.057
-0.043 -0.011 0.069
-0.047 -0.007 0.081
-0.029 -0.015 0.065
-0.013 -0.013 0.067
-0.035 -0.013 0.105
-0.019 -0.025 0.099
-0.027 -0.021 0.101
-0.025 -0.011 0.113
0.017 -0.025 0.045
0.027 -0.021 0.043
0.023 -0.029 0.037
0.023 -0.021 0.055
0.037 -0.013 0.037
0.035 -0.009 0.059
0.043 -0.007 0.061
-0.001 -0.021 0.075
0.011 -0.021 0.079
0.001 -0.013 0.089
0.035 -0.017 0.073
0.045 -0.011 0.075
-0.043 -0.015 0.045
-0.043 -0.017 0.047
-0.049 -0.001 0.063
-0.027 -0.023 0.037
-0.029 -0.011 0.057
-0.017 -0.013 0.059
-0.049 -0.007 0.085
-0.051 -0.003 0.103
0.021 -0.029 0.037
0.007 -0.013 0.045
0.011 -0.017 0.055
0.045 -0.003 0.053
0.019 -0.017 0.067
-0.045 -0.011 0.041
-0.049 -0.017 0.041
-0.035 -0.021 0.045
-0.049 -0.009 0.043
-0.049 -0.009 0.059
-0.047 -0.009 0.063
-0.025 -0.017 0.075
-0.053 -0.005 0.087
-0.045 -0.009 0.083
-0.043 -0.009 0.103
-0.003 -0.021 0.071
-0.031 -0.015 0.079
-0.021 -0.017 0.079
-0.031 -0.021 0.103
-0.031 -0.013 0.105
-0.017 -0.025 0.103
-0.023 -0.023 0.101
-0.055 -0.007 0.099
-0.031 -0.021 0.103
-0.025 -0.011 0.113
-0.017 -0.015 0.109
-0.019 -0.013 0.113
0.013 -0.021 0.045
0.009 -0.015 0.041
-0.007 -0.019 0.061
0.007 -0.013 0.045
0.017 -0.019 0.061
-0.005 -0.019 0.073
0.009 -0.021 0.083
0.025 -0.021 0.073
-0.001 -0.015 0.085
0.007 -0.007 0.091
0.003 -0.013 0.093
0.025 -0.013 0.093
0.029 -0.019 0.081
0.047 -0.005 0.089
-0.047 -0.009 0.063
-0.051 -0.001 0.057
-0.051 -0.003 0.057
-0.051 -0.001 0.057
-0.045 -0.009 0.081
-0.041 -0.005 0.073
-0.057 -0.005 0.097
-0.053 -0.003 0.103
-0.055 0.005 0.105
-0.013 -0.013 0.067
-0.009 -0.017 0.069
0.001 -0.021 0.067
-0.005 -0.019 0.075
0.001 -0.021 0.077
-0.001 -0.019 0.081
0.001 -0.013 0.091
-0.001 -0.019 0.077
0.019 -0.021 0.087
0.003 -0.013 0.093
-0.035 -0.021 0.051
-0.031 -0.019 0.051
-0.041 -0.013 0.063
-0.023 -0.015 0.051
-0.025 -0.011 0.053
-0.027 -0.013 0.063
-0.011 -0.017 0.067
-0.013 -0.015 0.085
-0.039 -0.013 0.069
-0.035 -0.013 0.105
-0.033 -0.015 0.103
-0.009 -0.013 0.077
-0.007 -0.013 0.081
-0.001 -0.015 0.087
0.001 -0.013 0.089
-0.001 -0.019 0.113
-0.001 -0.017 0.113
-0.021 -0.013 0.115
0.019 -0.021 0.047
0.019 -0.021 0.049
0.021 -0.021 0.049
0.031 -0.001 0.045
0.015 -0.021 0.087
0.029 -0.019 0.081
0.039 -0.005 0.041
0.033 -0.019 0.071
0.039 -0.009 0.081
0.039 -0.009 0.081
-0.017 -0.025 0.093
-0.027 0.013 0.051
0.001 -0.021 0.077
0.005 -0.017 0.065
0.011 -0.021 0.077
-0.011 -0.013 0.081
-0.007 -0.015 0.077
0.015 -0.019 0.089
-0.017 -0.019 0.099
-0.031 -0.011 0.105
-0.037 -0.007 0.105
-0.049 -0.005 0.101
-0.023 -0.015 0.107
-0.009 -0.017 0.111
0.025 -0.021 0.079
0.033 -0.017 0.063
0.037 -0.015 0.073
0.027 -0.019 0.083
0.025 0.011 0.065
0.045 -0.001 0.045
