-0.045 -0.015 0.051
-0.021 -0.023 0.039
-0.019 -0.023 0.041
-0.019 -0.017 0.049
-0.027 -0.015 0.067
-0.021 -0.017 0.075
-0.021 -0.023 0.089
-0.001 -0.019 0.059
-0.003 -0.017 0.081
-0.039 -0.015 0.095
-0.033 -0.017 0.095
-0.025 -0.023 0.097
-0.023 -0.023 0.095
-0.017 -0.013 0.109
-0.053 -0.005 0.101
-0.017 -0.025 0.103
-0.027 -0.013 0.105
-0.025 -0.011 0.113
-0.019 -0.001 0.109
-0.011 -0.015 0.111
-0.003 -0.019 0.113
0.037 -0.007 0.039
0.023 -0.027 0.037
0.029 -0.021 0.039
0.019 -0.023 0.045
0.009 -0.017 0.047
0.011 -0.019 0.049
0.009 -0.017 0.049
0.029 -0.019 0.041
0.021 -0.021 0.061
0.027 -0.019 0.063
0.001 -0.021 0.069
0.025 -0.021 0.063
0.039 -0.011 0.035
0.041 -0.005 0.041
0.045 -0.011 0.077
0.005 -0.021 0.073
0.005 -0.017 0.089
0.033 -0.019 0.073
0.045 -0.007 0.087
-0.019 -0.025 0.093
-0.017 -0.013 0.059
-0.039 -0.013 0.085
-0.033 -0.019 0.101
-0.035 -0.017 0.097
-0.035 -0.017 0.097
-0.031 -0.019 0.097
-0.009 -0.013 0.077
-0.029 -0.021 0.103
-0.015 -0.025 0.097
-0.059 -0.001 0.087
-0.051 -0.003 0.103
-0.043 -0.005 0.103
-0.027 -0.017 0.105
-0.049 0.001 0.107
-0.045 0.007 0.101
0.011 -0.013 0.059
0.001 -0.021 0.075
0.011 -0.021 0.085
0.023 -0.019 0.089
0.009 -0.019 0.089
0.027 -0.015 0.089
0.035 -0.013 0.085
0.033 -0.015 0.085
0.043 -0.011 0.083
-0.009 0.007 0.051
-0.021 0.009 0.051
-0.007 0.007 0.047
-0.029 0.003 0.065
-0.027 0.001 0.077
-0.011 -0.003 0.069
-0.001 -0.001 0.079
-0.013 -0.005 0.067
-0.011 -0.001 0.067
-0.027 0.003 0.089
-0.045 0.009 0.101
-0.043 0.003 0.101
-0.029 0.001 0.103
0.005 -0.003 0.087
-0.001 -0.003 0.083
-0.005 -0.003 0.077
-0.023 0.001 0.099
-0.019 -0.001 0.085
-0.015 -0.001 0.091
-0.001 -0.009 0.087
-0.015 -0.005 0.081
-0.041 0.001 0.101
-0.013 -0.015 0.111
-0.021 -0.009 0.109
-0.017 -0.011 0.105
-0.017 -0.001 0.099
-0.017 -0.013 0.109
-0.017 -0.003 0.107
0.029 0.015 0.055
0.029 -0.001 0.065
0.027 -0.001 0.067
0.031 -0.001 0.071
0.009 -0.001 0.075
0.021 -0.001 0.079
0.033 -0.003 0.071
0.025 -0.001 0.081
0.005 -0.003 0.063
0.031 -0.001 0.069
0.027 -0.001 0.061
0.039 -0.001 0.069
0.027 -0.011 0.093
0.009 -0.011 0.095
0.045 -0.001 0.067
0.047 -0.003 0.087
0.039 -0.005 0.073
0.049 -0.005 0.087
0.055 -0.003 0.087
-0.023 0.017 0.045
-0.009 0.015 0.031
-0.041 0.009 0.047
-0.029 0.017 0.047
-0.039 0.011 0.047
-0.019 0.015 0.041
-0.015 0.013 0.041
-0.019 0.009 0.049
-0.017 0.003 0.055
-0.023 0.011 0.051
0.001 0.001 0.069
-0.045 0.009 0.101
0.015 0.011 0.047
0.009 0.013 0.037
0.015 0.009 0.051
0.021 0.017 0.055
0.021 0.019 0.051
0.027 0.017 0.055
0.027 0.017 0.051
-0.049 -0.019 0.039
-0.051 -0.021 0.037
-0.051 -0.007 0.047
-0.051 -0.003 0.047
-0.047 -0.011 0.045
-0.039 -0.021 0.051
-0.051 -0.003 0.057
-0.051 -0.003 0.057
-0.047 -0.011 0.053
-0.041 -0.015 0.057
-0.033 -0.013 0.059
-0.019 -0.011 0.057
-0.029 -0.013 0.061
-0.019 -0.009 0.059
-0.015 -0.009 0.067
-0.033 -0.013 0.065
-0.041 -0.013 0.097
-0.001 -0.019 0.079
-0.017 -0.017 0.079
-0.009 -0.013 0.077
-0.017 -0.017 0.079
-0.027 -0.019 0.085
-0.039 -0.015 0.099
-0.031 -0.019 0.099
-0.017 -0.025 0.089
-0.023 -0.023 0.095
-0.051 -0.005 0.101
-0.049 -0.009 0.097
-0.049 -0.005 0.101
-0.035 -0.005 0.105
-0.027 -0.011 0.109
-0.023 -0.021 0.103
0.013 -0.017 0.035
0.025 -0.025 0.039
0.017 -0.025 0.043
0.015 -0.023 0.045
0.015 -0.017 0.061
-0.001 -0.021 0.063
0.019 -0.021 0.059
0.013 -0.017 0.057
-0.003 -0.019 0.079
-0.003 -0.019 0.079
0.005 -0.021 0.083
0.011 -0.021 0.083
0.009 -0.017 0.091
-0.003 -0.013 0.089
-0.015 -0.025 0.093
0.009 -0.019 0.089
0.019 -0.015 0.093
0.031 -0.019 0.077
0.021 -0.021 0.081
0.031 -0.019 0.079
0.049 -0.009 0.085
-0.051 0.001 0.045
-0.051 -0.003 0.049
-0.049 -0.009 0.045
-0.051 -0.001 0.047
-0.043 -0.015 0.045
-0.037 -0.021 0.045
-0.043 -0.013 0.057
-0.045 -0.013 0.053
-0.059 -0.003 0.085
-0.055 -0.003 0.089
-0.051 -0.005 0.089
-0.035 -0.015 0.101
0.011 -0.019 0.043
-0.001 -0.019 0.061
0.025 -0.021 0.071
0.025 -0.021 0.073
0.027 -0.017 0.053
0.029 -0.011 0.053
0.045 -0.011 0.083
0.027 -0.021 0.069
0.027 -0.021 0.069
0.015 -0.017 0.091
-0.015 -0.017 0.089
-0.007 -0.005 0.101
0.003 -0.021 0.069
0.033 -0.011 0.089
-0.015 -0.019 0.087
-0.011 -0.003 0.099
-0.009 -0.003 0.097
-0.007 -0.015 0.109
-0.019 -0.009 0.105
-0.015 -0.023 0.101
0.033 -0.015 0.039
0.015 -0.023 0.045
0.023 -0.029 0.035
0.039 -0.005 0.043
0.033 -0.019 0.071
0.035 -0.015 0.069
0.047 -0.009 0.073
0.035 -0.015 0.069
0.055 -0.007 0.081
0.027 -0.015 0.051
0.033 -0.009 0.057
0.035 -0.015 0.037
0.035 -0.015 0.065
0.025 -0.021 0.079
0.019 -0.021 0.083
0.037 -0.011 0.083
0.057 -0.005 0.081
0.021 -0.013 0.095
0.017 -0.009 0.093
0.035 -0.015 0.075
0.053 -0.009 0.079
0.055 -0.007 0.081
0.047 -0.009 0.085
0.057 -0.005 0.081
0.023 0.009 0.067
0.041 -0.007 0.087
0.043 0.001 0.067
0.043 0.005 0.063
0.057 -0.005 0.081
0.055 -0.007 0.081
0.021 -0.003 0.089
-0.009 -0.003 0.097
0.051 -0.005 0.087
-0.039 0.005 0.099
-0.047 -0.001 0.105
0.049 -0.001 0.057
0.049 0.007 0.055
0.047 -0.001 0.065
0.047 0.007 0.043
0.049 0.007 0.055
0.047 0.009 0.057
0.047 0.011 0.053
-0.031 -0.021 0.049
-0.015 -0.023 0.041
0.031 -0.019 0.039
-0.005 -0.019 0.059
0.005 -0.017 0.063
-0.019 -0.017 0.083
0.001 -0.021 0.067
0.031 -0.019 0.069
0.027 -0.021 0.071
0.019 -0.021 0.079
-0.015 -0.023 0.089
0.011 -0.021 0.081
-0.021 -0.017 0.083
-0.019 -0.017 0.083
0.017 -0.021 0.083
0.017 -0.021 0.083
0.031 -0.017 0.083
-0.013 -0.013 0.093
-0.017 -0.021 0.099
-0.013 -0.023 0.095
-0.015 -0.021 0.095
-0.017 -0.019 0.099
-0.015 -0.025 0.097
-0.019 -0.025 0.099
-0.013 -0.025 0.101
-0.015 -0.015 0.105
-0.005 -0.017 0.109
0.023 -0.027 0.033
0.019 -0.023 0.045
0.025 -0.019 0.057
0.033 -0.017 0.065
0.039 -0.011 0.033
0.045 -0.007 0.059
0.035 -0.017 0.077
0.037 -0.013 0.079
0.021 -0.021 0.085
0.035 -0.015 0.081
0.047 -0.003 0.065
0.053 -0.007 0.085
0.035 -0.015 0.037
0.031 -0.011 0.045
0.033 -0.009 0.043
0.031 -0.011 0.045
0.031 -0.015 0.059
-0.011 -0.015 0.089
0.023 -0.019 0.085
-0.007 -0.007 0.097
0.043 -0.003 0.039
0.049 0.003 0.049
0.047 -0.003 0.053
0.049 0.001 0.057
0.043 -0.001 0.033
0.045 0.009 0.037
0.045 0.009 0.039
-0.023 -0.023 0.031
-0.027 -0.021 0.039
-0.047 -0.023 0.039
-0.043 -0.017 0.047
-0.033 -0.017 0.053
-0.045 -0.011 0.063
-0.025 -0.021 0.043
-0.015 -0.023 0.037
-0.029 -0.023 0.037
-0.029 -0.021 0.045
-0.025 -0.009 0.059
-0.027 -0.015 0.069
-0.033 -0.015 0.087
-0.027 -0.013 0.065
-0.011 -0.013 0.071
-0.019 -0.023 0.091
-0.015 -0.025 0.095
-0.001 -0.015 0.085
-0.011 -0.015 0.091
-0.059 -0.005 0.101
-0.039 -0.009 0.105
-0.007 -0.019 0.109
0.013 -0.023 0.041
0.019 -0.027 0.041
0.025 -0.021 0.043
0.027 -0.023 0.039
0.027 -0.017 0.053
0.021 -0.021 0.059
0.015 -0.013 0.065
0.033 -0.017 0.063
0.031 -0.019 0.063
0.009 -0.021 0.079
0.005 -0.021 0.073
0.003 -0.019 0.085
0.017 -0.017 0.075
0.055 -0.005 0.085
-0.031 -0.017 0.051
-0.047 -0.011 0.057
-0.039 -0.021 0.047
-0.037 -0.015 0.057
-0.037 -0.015 0.057
-0.041 -0.011 0.069
-0.037 -0.013 0.069
-0.019 -0.017 0.051
-0.025 -0.009 0.061
-0.027 -0.013 0.063
-0.009 -0.019 0.067
-0.007 -0.019 0.067
-0.007 -0.019 0.069
-0.037 -0.009 0.077
-0.057 -0.003 0.087
-0.059 0.001 0.089
-0.053 -0.003 0.089
-0.053 -0.009 0.097
-0.043 -0.009 0.087
-0.041 -0.013 0.103
-0.033 -0.013 0.105
0.009 -0.015 0.051
0.011 -0.013 0.059
0.021 -0.021 0.049
0.027 -0.019 0.049
0.021 -0.021 0.057
0.019 -0.019 0.061
0.017 -0.013 0.069
0.029 -0.017 0.045
0.039 -0.005 0.041
0.041 -0.005 0.041
0.035 -0.017 0.067
0.047 -0.005 0.059
-0.021 -0.025 0.035
-0.049 -0.009 0.045
-0.043 -0.021 0.037
-0.049 -0.023 0.037
-0.049 -0.009 0.059
-0.017 -0.019 0.047
-0.009 -0.017 0.043
-0.007 -0.015 0.041
-0.007 -0.019 0.047
-0.019 -0.017 0.049
-0.031 -0.013 0.061
-0.041 -0.011 0.069
-0.041 -0.009 0.073
-0.039 -0.011 0.073
-0.051 -0.007 0.083
-0.043 -0.011 0.083
-0.035 -0.015 0.091
-0.023 -0.015 0.071
-0.023 -0.017 0.081
-0.005 -0.017 0.077
-0.019 -0.019 0.085
-0.011 -0.015 0.091
-0.003 -0.013 0.089
-0.043 -0.013 0.101
-0.023 -0.021 0.103
-0.027 -0.021 0.105
-0.021 -0.025 0.099
0.025 -0.025 0.039
0.023 -0.029 0.037
0.015 -0.027 0.039
0.027 -0.019 0.045
0.021 -0.019 0.051
0.011 -0.015 0.055
0.031 -0.017 0.041
0.035 -0.013 0.037
0.041 -0.001 0.045
0.021 -0.019 0.067
0.027 -0.019 0.077
0.009 -0.019 0.073
0.019 -0.021 0.081
0.001 -0.017 0.087
0.021 -0.019 0.089
0.015 -0.015 0.093
0.035 -0.017 0.069
0.035 -0.015 0.081
0.043 -0.013 0.075
0.049 -0.011 0.081
0.029 -0.017 0.087
0.041 -0.009 0.083
0.047 -0.007 0.087
0.049 -0.007 0.087
-0.043 -0.021 0.039
-0.045 -0.017 0.041
-0.041 -0.019 0.049
-0.047 -0.009 0.063
-0.029 -0.011 0.055
-0.035 -0.013 0.059
-0.017 -0.017 0.053
-0.051 -0.007 0.083
-0.051 -0.005 0.087
-0.031 -0.017 0.093
0.005 0.001 0.035
0.005 0.001 0.035
0.007 -0.013 0.049
0.019 -0.021 0.049
0.015 -0.021 0.053
0.033 -0.015 0.039
0.021 -0.025 0.041
0.023 -0.023 0.041
0.041 -0.005 0.057
0.039 -0.007 0.063
-0.041 -0.019 0.047
-0.043 -0.013 0.043
-0.045 -0.015 0.051
-0.041 -0.013 0.059
-0.017 -0.025 0.035
-0.017 -0.023 0.043
-0.011 -0.019 0.059
-0.009 -0.019 0.063
-0.021 -0.011 0.055
-0.033 -0.015 0.073
-0.027 -0.017 0.081
-0.027 -0.021 0.089
-0.041 -0.013 0.067
-0.043 -0.011 0.067
-0.041 -0.011 0.071
-0.039 -0.015 0.093
-0.007 -0.017 0.071
-0.023 -0.023 0.097
-0.013 -0.025 0.097
-0.039 -0.015 0.099
-0.039 -0.009 0.105
-0.045 -0.003 0.103
-0.039 -0.007 0.105
-0.031 -0.017 0.103
-0.023 -0.023 0.101
-0.007 -0.017 0.113
-0.027 -0.007 0.105
-0.027 -0.009 0.107
0.017 -0.027 0.041
0.021 -0.023 0.043
-0.005 -0.019 0.059
0.017 -0.015 0.067
0.021 -0.019 0.067
0.005 -0.021 0.081
0.015 -0.017 0.091
0.013 -0.015 0.093
0.025 -0.019 0.085
0.025 -0.019 0.087
0.021 -0.011 0.095
0.019 -0.011 0.095
0.025 -0.021 0.079
0.019 -0.019 0.089
0.045 -0.005 0.087
-0.051 -0.007 0.051
-0.051 -0.005 0.049
-0.049 -0.001 0.063
-0.047 -0.009 0.061
-0.023 -0.021 0.085
-0.023 -0.023 0.091
-0.047 -0.001 0.105
-0.051 0.001 0.107
-0.013 -0.015 0.063
-0.007 -0.019 0.065
-0.009 -0.015 0.073
-0.009 -0.015 0.071
-0.003 -0.021 0.071
-0.017 -0.025 0.087
-0.019 -0.023 0.087
0.001 -0.019 0.083
0.011 -0.021 0.085
