-0.049 -0.021 0.039
-0.025 -0.023 0.031
-0.031 -0.023 0.035
-0.029 -0.023 0.035
-0.019 -0.025 0.033
-0.037 -0.021 0.039
-0.025 -0.021 0.041
-0.047 -0.023 0.039
-0.047 -0.023 0.037
-0.047 -0.023 0.039
-0.037 -0.019 0.035
-0.037 -0.021 0.037
-0.035 -0.021 0.039
-0.033 -0.021 0.041
-0.039 -0.019 0.041
-0.037 -0.021 0.045
-0.051 -0.017 0.037
-0.049 -0.017 0.041
-0.049 -0.007 0.041
-0.049 -0.007 0.041
-0.051 -0.021 0.037
-0.041 -0.021 0.039
-0.041 -0.021 0.039
-0.051 -0.017 0.039
-0.047 -0.009 0.039
-0.049 -0.017 0.041
-0.045 -0.013 0.043
-0.043 -0.017 0.047
-0.041 -0.019 0.051
-0.037 -0.021 0.049
-0.035 -0.021 0.049
-0.035 -0.017 0.055
-0.049 -0.009 0.051
-0.049 -0.007 0.059
-0.049 -0.007 0.061
-0.045 -0.015 0.051
-0.037 -0.015 0.057
-0.029 -0.021 0.039
-0.023 -0.023 0.037
-0.023 -0.023 0.037
-0.017 -0.023 0.039
-0.029 -0.021 0.041
-0.029 -0.021 0.043
-0.031 -0.021 0.045
-0.017 -0.023 0.043
-0.019 -0.019 0.043
-0.017 -0.023 0.037
-0.011 -0.021 0.041
-0.013 -0.021 0.045
-0.011 -0.021 0.047
-0.031 -0.021 0.039
-0.031 -0.021 0.041
-0.035 -0.021 0.043
-0.019 -0.023 0.039
-0.021 -0.023 0.041
-0.017 -0.023 0.043
-0.013 -0.021 0.043
-0.019 -0.019 0.043
-0.017 -0.019 0.047
-0.009 -0.019 0.051
-0.017 -0.019 0.051
-0.015 -0.021 0.051
-0.015 -0.021 0.051
-0.003 -0.019 0.055
-0.011 -0.019 0.059
-0.003 -0.019 0.057
-0.031 -0.019 0.051
-0.029 -0.017 0.051
-0.025 -0.015 0.051
-0.029 -0.013 0.053
-0.019 -0.015 0.055
-0.031 -0.013 0.061
-0.017 -0.013 0.059
-0.019 -0.009 0.061
-0.035 -0.013 0.065
-0.027 -0.011 0.061
-0.007 -0.019 0.053
-0.015 -0.013 0.061
-0.017 -0.009 0.065
-0.023 -0.015 0.069
-0.041 -0.013 0.067
-0.037 -0.013 0.067
-0.047 -0.005 0.065
-0.045 -0.003 0.069
-0.039 -0.011 0.073
-0.039 -0.005 0.075
-0.049 -0.005 0.087
-0.057 -0.003 0.087
-0.053 -0.009 0.095
-0.053 -0.009 0.097
-0.043 -0.011 0.083
-0.045 -0.009 0.085
-0.045 -0.009 0.087
-0.039 -0.013 0.087
-0.049 -0.007 0.085
-0.045 -0.009 0.087
-0.045 -0.009 0.087
-0.045 -0.009 0.085
-0.039 -0.013 0.089
-0.035 -0.015 0.091
-0.035 -0.017 0.093
-0.035 -0.017 0.093
-0.039 -0.015 0.097
-0.045 -0.011 0.097
-0.039 -0.015 0.093
-0.023 -0.017 0.077
-0.009 -0.019 0.067
-0.001 -0.021 0.067
-0.003 -0.021 0.071
-0.005 -0.017 0.077
-0.027 -0.015 0.067
-0.027 -0.015 0.069
-0.031 -0.015 0.071
-0.029 -0.015 0.075
-0.025 -0.015 0.073
-0.027 -0.017 0.075
-0.021 -0.017 0.077
-0.039 -0.013 0.083
-0.027 -0.017 0.079
-0.031 -0.015 0.077
-0.027 -0.017 0.077
-0.027 -0.019 0.083
-0.033 -0.015 0.083
-0.021 -0.017 0.075
-0.013 -0.011 0.071
-0.019 -0.015 0.075
-0.015 -0.013 0.075
-0.011 -0.011 0.075
-0.009 -0.015 0.073
-0.017 -0.017 0.081
-0.013 -0.015 0.083
-0.013 -0.015 0.083
-0.027 -0.019 0.085
-0.017 -0.025 0.089
-0.029 -0.019 0.093
-0.023 -0.023 0.093
-0.031 -0.017 0.083
-0.031 -0.017 0.083
-0.033 -0.015 0.083
-0.031 -0.017 0.085
-0.039 -0.013 0.085
-0.037 -0.015 0.085
-0.035 -0.015 0.087
-0.037 -0.015 0.089
-0.033 -0.015 0.085
-0.029 -0.019 0.093
-0.039 -0.015 0.097
-0.039 -0.015 0.097
-0.031 -0.019 0.095
-0.013 -0.015 0.083
-0.017 -0.025 0.089
-0.001 -0.015 0.085
-0.025 -0.021 0.087
-0.027 -0.019 0.091
-0.021 -0.023 0.091
-0.025 -0.023 0.097
-0.003 -0.013 0.089
-0.015 -0.025 0.093
-0.025 -0.023 0.101
-0.019 -0.025 0.101
-0.033 -0.017 0.097
-0.049 -0.009 0.097
-0.057 -0.005 0.099
-0.057 -0.005 0.103
-0.053 -0.003 0.103
-0.041 -0.013 0.099
-0.043 -0.011 0.103
-0.039 -0.015 0.097
-0.039 -0.015 0.101
-0.037 -0.015 0.103
-0.049 -0.007 0.099
-0.043 -0.011 0.103
-0.049 -0.003 0.103
-0.031 -0.019 0.097
-0.033 -0.019 0.101
-0.021 -0.025 0.099
-0.023 -0.023 0.099
-0.021 -0.023 0.101
-0.007 -0.019 0.109
-0.033 -0.017 0.103
-0.031 -0.019 0.103
-0.029 -0.017 0.105
-0.025 -0.013 0.111
-0.023 -0.015 0.107
-0.025 -0.013 0.107
-0.021 -0.023 0.101
-0.029 -0.021 0.103
-0.013 -0.017 0.109
-0.019 -0.015 0.109
-0.015 -0.015 0.109
-0.007 -0.019 0.111
-0.021 -0.013 0.115
0.013 -0.025 0.039
0.009 -0.013 0.037
0.009 -0.015 0.039
0.019 -0.027 0.039
0.017 -0.027 0.041
0.015 -0.027 0.041
0.019 -0.027 0.041
0.021 -0.025 0.041
0.013 -0.019 0.039
0.011 -0.021 0.041
0.015 -0.025 0.043
0.015 -0.025 0.043
0.013 -0.023 0.045
0.019 -0.029 0.035
0.019 -0.027 0.039
0.017 -0.027 0.039
0.017 -0.017 0.035
0.017 -0.027 0.039
0.015 -0.027 0.041
0.023 -0.023 0.041
0.017 -0.025 0.045
0.021 -0.023 0.043
0.019 -0.021 0.047
0.007 -0.013 0.041
0.007 -0.013 0.043
-0.001 -0.017 0.051
0.009 -0.017 0.041
0.009 -0.015 0.043
0.009 -0.015 0.047
0.001 -0.015 0.051
0.017 -0.017 0.035
0.013 -0.023 0.041
0.015 -0.027 0.041
0.009 -0.015 0.041
0.009 -0.017 0.041
0.009 -0.017 0.043
0.011 -0.023 0.043
0.011 -0.019 0.041
0.011 -0.017 0.053
0.013 -0.019 0.049
0.011 -0.019 0.053
0.013 -0.019 0.055
0.011 -0.017 0.055
0.003 -0.019 0.065
0.023 -0.021 0.051
0.017 -0.021 0.055
0.025 -0.021 0.059
0.025 -0.021 0.063
0.011 -0.015 0.055
-0.003 -0.019 0.055
-0.007 -0.019 0.061
0.001 -0.019 0.059
0.001 -0.019 0.063
0.019 -0.021 0.055
0.021 -0.021 0.059
0.009 -0.013 0.055
0.011 -0.015 0.057
0.011 -0.015 0.057
0.015 -0.019 0.055
0.013 -0.017 0.059
0.019 -0.017 0.067
0.025 -0.023 0.041
0.019 -0.021 0.047
0.023 -0.021 0.045
0.025 -0.021 0.047
0.021 -0.021 0.053
0.023 -0.021 0.051
0.023 -0.021 0.063
0.025 -0.021 0.061
0.025 -0.021 0.063
0.021 -0.019 0.065
0.023 -0.019 0.067
0.021 -0.019 0.069
0.029 -0.019 0.065
0.031 -0.019 0.065
0.031 -0.019 0.065
0.001 -0.021 0.069
0.003 -0.021 0.073
0.009 -0.021 0.079
0.019 -0.017 0.071
0.031 -0.019 0.075
0.031 -0.019 0.077
0.029 -0.019 0.079
-0.003 -0.021 0.071
-0.001 -0.021 0.071
0.015 -0.013 0.065
0.005 -0.021 0.073
-0.001 -0.021 0.075
0.005 -0.021 0.077
-0.007 -0.013 0.081
-0.003 -0.017 0.081
-0.003 -0.017 0.081
0.001 -0.019 0.085
0.009 -0.017 0.069
0.017 -0.013 0.069
0.009 -0.021 0.075
0.005 -0.021 0.075
0.005 -0.021 0.077
0.017 -0.013 0.069
0.019 -0.015 0.071
0.007 -0.021 0.077
0.009 -0.021 0.077
0.015 -0.021 0.083
0.017 -0.021 0.083
0.021 -0.021 0.087
0.025 -0.021 0.081
0.027 -0.019 0.085
0.019 -0.019 0.089
0.001 -0.017 0.087
-0.001 -0.013 0.089
-0.001 -0.015 0.087
0.001 -0.017 0.087
0.001 -0.013 0.089
0.003 -0.015 0.089
0.003 -0.013 0.091
0.005 -0.017 0.089
0.001 -0.013 0.091
0.005 -0.013 0.093
0.001 -0.013 0.091
0.003 -0.013 0.091
0.025 -0.019 0.087
0.013 -0.019 0.089
0.013 -0.017 0.091
0.015 -0.019 0.089
0.019 -0.015 0.093
0.027 -0.017 0.089
0.019 -0.017 0.091
0.021 -0.017 0.091
0.027 -0.013 0.093
0.011 -0.013 0.093
0.033 -0.019 0.073
0.027 -0.021 0.069
0.043 -0.011 0.071
0.023 -0.019 0.075
0.021 -0.019 0.075
0.023 -0.019 0.075
0.025 -0.021 0.077
0.021 -0.021 0.083
0.025 -0.021 0.083
0.043 -0.013 0.075
0.025 -0.021 0.083
0.031 -0.019 0.081
0.055 -0.007 0.075
0.031 -0.017 0.085
0.025 -0.019 0.085
0.027 -0.019 0.085
0.029 -0.017 0.087
0.043 -0.011 0.081
0.043 -0.011 0.083
0.033 -0.015 0.085
0.035 -0.013 0.087
0.043 -0.007 0.087
0.051 -0.009 0.083
0.049 -0.009 0.085
0.053 -0.007 0.085
-0.051 -0.017 0.039
-0.049 -0.017 0.041
-0.049 -0.007 0.041
-0.045 -0.017 0.041
-0.041 -0.019 0.041
-0.031 -0.021 0.047
-0.051 -0.003 0.043
-0.051 -0.001 0.043
-0.051 -0.001 0.047
-0.049 -0.003 0.039
-0.051 -0.005 0.045
-0.049 -0.009 0.043
-0.049 -0.009 0.043
-0.047 -0.011 0.043
-0.051 -0.007 0.047
-0.051 -0.007 0.049
-0.051 -0.007 0.051
-0.049 -0.009 0.049
-0.051 -0.007 0.051
-0.047 -0.011 0.057
-0.051 -0.003 0.045
-0.051 -0.005 0.055
-0.049 -0.009 0.057
-0.051 -0.001 0.051
-0.051 -0.001 0.053
-0.051 -0.005 0.057
-0.049 -0.005 0.059
-0.047 -0.011 0.059
-0.049 -0.005 0.063
-0.049 -0.003 0.063
-0.047 -0.003 0.067
-0.047 -0.007 0.063
-0.045 -0.011 0.063
-0.045 -0.011 0.065
-0.043 -0.011 0.069
-0.045 -0.013 0.045
-0.045 -0.013 0.049
-0.043 -0.017 0.049
-0.041 -0.019 0.049
-0.043 -0.017 0.051
-0.045 -0.013 0.053
-0.047 -0.011 0.057
-0.039 -0.017 0.055
-0.035 -0.021 0.045
-0.031 -0.021 0.045
-0.039 -0.021 0.051
-0.039 -0.019 0.053
-0.033 -0.021 0.049
-0.031 -0.019 0.051
-0.029 -0.013 0.053
-0.027 -0.011 0.053
-0.021 -0.013 0.055
-0.023 -0.009 0.055
-0.049 -0.011 0.049
-0.049 -0.011 0.053
-0.045 -0.013 0.055
-0.047 -0.011 0.059
-0.035 -0.013 0.059
-0.033 -0.013 0.059
-0.035 -0.013 0.061
-0.045 -0.011 0.061
-0.041 -0.013 0.061
-0.043 -0.011 0.063
-0.037 -0.013 0.061
-0.021 -0.009 0.057
-0.019 -0.009 0.059
-0.019 -0.009 0.059
-0.017 -0.015 0.057
-0.019 -0.007 0.061
-0.013 -0.013 0.067
-0.043 -0.009 0.069
-0.061 0.003 0.087
-0.055 -0.003 0.085
-0.059 -0.001 0.087
-0.057 -0.003 0.087
-0.057 -0.001 0.089
-0.057 0.001 0.091
-0.049 -0.007 0.085
-0.047 -0.007 0.087
-0.051 -0.005 0.087
-0.047 -0.005 0.087
-0.045 -0.009 0.087
-0.043 -0.007 0.087
-0.041 -0.009 0.089
-0.051 -0.005 0.087
-0.047 -0.001 0.089
-0.045 -0.013 0.093
-0.041 -0.013 0.099
-0.047 -0.007 0.099
-0.039 -0.011 0.073
-0.035 -0.013 0.077
-0.037 -0.007 0.077
-0.017 -0.013 0.075
-0.041 -0.013 0.095
-0.059 -0.003 0.103
-0.055 -0.003 0.103
-0.055 0.001 0.105
-0.051 -0.001 0.107
-0.051 0.001 0.107
-0.053 -0.007 0.099
-0.049 -0.005 0.101
-0.043 -0.009 0.101
-0.049 -0.003 0.103
-0.049 -0.003 0.105
-0.039 -0.003 0.105
-0.037 -0.015 0.103
0.007 -0.013 0.041
0.013 -0.023 0.045
-0.015 -0.021 0.043
0.009 -0.005 0.037
0.007 -0.011 0.039
0.007 -0.009 0.041
-0.009 -0.019 0.049
-0.013 -0.021 0.051
-0.007 -0.019 0.049
-0.017 -0.019 0.045
-0.015 -0.019 0.053
-0.015 -0.021 0.047
-0.009 -0.019 0.051
-0.009 -0.019 0.057
-0.009 -0.019 0.059
0.007 -0.013 0.049
-0.007 -0.019 0.051
-0.007 -0.019 0.053
0.007 -0.013 0.045
0.009 -0.017 0.045
0.007 -0.013 0.049
-0.001 -0.019 0.057
0.011 -0.017 0.055
-0.007 -0.019 0.055
0.007 -0.011 0.049
-0.003 -0.019 0.057
-0.001 -0.019 0.057
-0.001 -0.019 0.061
-0.007 -0.019 0.057
-0.003 -0.019 0.059
-0.009 -0.019 0.059
-0.001 -0.019 0.059
-0.007 -0.019 0.063
-0.005 -0.019 0.067
-0.003 -0.021 0.067
-0.005 -0.019 0.073
0.001 -0.021 0.069
0.001 -0.021 0.073
0.019 -0.021 0.047
0.013 -0.019 0.049
0.009 -0.015 0.053
0.009 -0.015 0.053
0.019 -0.021 0.055
0.023 -0.021 0.051
0.023 -0.021 0.055
0.023 -0.021 0.055
0.017 -0.019 0.059
0.021 -0.021 0.061
0.015 -0.017 0.061
0.017 -0.017 0.063
0.025 -0.021 0.059
0.017 -0.017 0.065
0.019 -0.017 0.067
0.019 -0.019 0.065
0.023 -0.019 0.067
0.025 -0.021 0.073
0.023 -0.021 0.061
0.027 -0.021 0.069
-0.001 -0.019 0.077
