-0.015 0.001 0.057
-0.013 0.005 0.053
-0.031 0.005 0.085
-0.033 0.003 0.103
-0.039 0.001 0.105
-0.007 -0.005 0.103
-0.027 0.003 0.097
0.003 -0.007 0.089
-0.009 -0.003 0.089
0.029 -0.001 0.079
0.039 0.009 0.055
0.015 -0.007 0.091
0.011 -0.001 0.079
0.007 -0.011 0.093
0.007 -0.009 0.091
0.015 -0.001 0.083
0.045 -0.003 0.085
-0.007 0.015 0.035
-0.011 0.015 0.033
-0.027 0.019 0.045
-0.047 0.007 0.089
-0.031 0.005 0.067
0.027 0.017 0.057
0.047 0.009 0.055
-0.039 -0.013 0.061
-0.025 -0.023 0.037
-0.023 -0.019 0.043
-0.011 -0.019 0.061
-0.057 -0.005 0.081
-0.023 -0.017 0.079
-0.005 -0.019 0.075
-0.023 -0.015 0.071
-0.021 -0.021 0.087
-0.017 -0.025 0.089
-0.041 -0.013 0.099
-0.019 -0.025 0.101
-0.021 -0.023 0.101
-0.027 -0.021 0.103
-0.027 -0.023 0.107
-0.003 -0.017 0.047
0.013 -0.015 0.061
0.023 -0.021 0.049
0.025 -0.021 0.073
0.009 -0.019 0.073
0.003 -0.021 0.081
0.007 -0.021 0.085
0.007 -0.021 0.081
0.009 -0.021 0.085
0.005 -0.013 0.091
0.031 -0.017 0.085
0.029 -0.017 0.087
0.047 -0.011 0.081
-0.051 -0.001 0.049
-0.049 -0.007 0.061
-0.041 -0.009 0.089
-0.013 -0.021 0.053
-0.001 -0.021 0.063
0.019 -0.017 0.067
-0.033 -0.021 0.049
-0.013 -0.023 0.037
-0.001 -0.013 0.047
-0.003 -0.017 0.049
-0.005 -0.019 0.057
0.015 -0.021 0.049
-0.019 -0.017 0.077
-0.055 -0.005 0.083
-0.041 -0.013 0.085
-0.041 -0.013 0.083
-0.037 -0.015 0.085
-0.017 -0.017 0.079
-0.017 -0.017 0.083
-0.013 -0.023 0.095
0.015 -0.025 0.045
0.021 -0.023 0.043
0.027 -0.017 0.049
0.027 -0.015 0.053
0.033 -0.009 0.057
0.045 -0.001 0.051
0.035 -0.007 0.059
0.023 -0.021 0.079
0.029 -0.019 0.075
0.019 -0.019 0.075
0.023 -0.019 0.075
0.005 -0.019 0.087
0.019 -0.021 0.087
0.035 -0.015 0.065
-0.007 -0.019 0.055
-0.035 -0.013 0.081
-0.023 -0.017 0.081
-0.021 -0.017 0.081
-0.019 -0.025 0.097
0.035 -0.015 0.033
0.027 -0.023 0.041
0.047 0.001 0.049
-0.043 -0.017 0.047
-0.053 0.011 0.089
-0.057 0.001 0.091
-0.057 0.001 0.103
-0.055 0.003 0.103
-0.043 -0.007 0.101
-0.029 -0.019 0.105
-0.017 0.005 0.053
-0.057 0.011 0.085
-0.053 0.009 0.103
-0.041 -0.001 0.105
0.043 0.001 0.067
0.023 -0.005 0.089
-0.047 0.007 0.051
-0.055 0.007 0.105
-0.043 -0.011 0.067
-0.051 -0.007 0.053
-0.049 -0.005 0.059
-0.045 -0.011 0.061
-0.035 -0.013 0.073
-0.039 -0.013 0.069
-0.059 -0.001 0.087
-0.049 -0.011 0.095
-0.043 -0.011 0.101
-0.041 -0.009 0.103
-0.027 -0.021 0.095
-0.043 -0.013 0.093
-0.051 -0.003 0.105
-0.043 -0.013 0.093
-0.023 -0.021 0.089
-0.029 -0.021 0.105
-0.031 -0.021 0.103
-0.029 -0.007 0.105
-0.009 -0.007 0.103
0.009 -0.007 0.091
0.017 -0.005 0.091
0.021 -0.011 0.095
-0.009 -0.013 0.111
-0.007 -0.019 0.111
-0.051 0.001 0.047
-0.051 -0.001 0.047
-0.049 -0.001 0.063
-0.061 -0.003 0.083
-0.045 0.009 0.051
-0.059 0.003 0.093
-0.057 -0.001 0.089
-0.035 -0.001 0.105
-0.023 -0.005 0.105
-0.045 0.007 0.057
-0.017 0.009 0.047
-0.013 0.001 0.061
-0.007 0.001 0.067
-0.031 0.005 0.085
-0.029 0.005 0.097
-0.017 -0.003 0.081
-0.025 -0.001 0.065
-0.021 0.001 0.085
-0.013 -0.001 0.093
-0.027 0.003 0.087
-0.015 -0.011 0.109
0.029 -0.005 0.051
0.043 0.015 0.041
0.045 0.013 0.043
0.023 0.007 0.071
0.025 -0.001 0.077
0.011 -0.007 0.091
0.043 -0.005 0.085
-0.047 0.007 0.047
-0.013 0.015 0.037
-0.019 0.015 0.037
-0.019 0.015 0.039
-0.001 0.001 0.061
-0.039 0.003 0.071
-0.057 0.007 0.093
-0.035 0.007 0.085
-0.039 0.007 0.097
0.023 0.011 0.033
0.049 0.007 0.057
0.011 -0.017 0.091
-0.025 -0.021 0.043
-0.003 -0.015 0.085
-0.023 -0.009 0.111
-0.013 -0.013 0.079
-0.017 -0.017 0.081
-0.053 -0.007 0.099
-0.041 -0.007 0.105
-0.041 -0.003 0.105
-0.021 -0.017 0.101
0.019 -0.021 0.047
0.035 -0.011 0.039
0.053 -0.009 0.079
0.055 -0.007 0.081
0.005 -0.017 0.089
0.011 -0.017 0.091
0.027 -0.011 0.093
-0.023 0.001 0.073
-0.017 -0.003 0.109
0.025 0.007 0.063
0.045 0.003 0.065
0.025 0.011 0.047
0.049 0.009 0.047
0.025 0.005 0.069
0.025 0.009 0.065
0.045 0.007 0.059
0.045 0.009 0.057
0.025 0.007 0.061
-0.005 0.003 0.059
0.001 -0.001 0.073
0.013 -0.005 0.091
-0.013 -0.011 0.091
-0.017 -0.003 0.105
-0.011 -0.003 0.097
0.029 -0.017 0.043
0.027 -0.023 0.041
0.047 0.011 0.053
0.047 0.007 0.041
0.055 -0.005 0.075
0.023 -0.001 0.067
0.021 -0.001 0.079
0.045 -0.005 0.069
0.045 -0.001 0.069
0.047 -0.001 0.067
0.055 -0.005 0.077
0.055 -0.005 0.077
-0.007 0.005 0.055
-0.003 0.001 0.059
-0.021 0.001 0.095
0.033 0.015 0.043
0.049 0.009 0.053
-0.023 -0.005 0.057
-0.039 0.007 0.095
-0.017 -0.003 0.081
-0.021 -0.001 0.093
-0.031 0.003 0.089
-0.019 -0.011 0.109
-0.011 -0.003 0.101
0.009 -0.007 0.053
0.007 -0.005 0.043
0.011 0.001 0.049
0.019 -0.001 0.059
-0.001 0.001 0.059
0.009 -0.007 0.053
0.001 0.001 0.059
0.027 -0.001 0.075
0.039 -0.001 0.069
0.047 -0.003 0.087
-0.017 0.015 0.035
-0.039 0.015 0.041
-0.037 0.011 0.051
-0.033 0.011 0.055
-0.047 0.001 0.065
-0.005 0.003 0.045
-0.031 0.021 0.035
-0.003 0.003 0.053
-0.007 0.005 0.053
-0.021 0.001 0.107
0.021 0.013 0.035
0.021 0.007 0.069
-0.027 -0.021 0.045
-0.027 -0.019 0.045
-0.035 -0.017 0.055
-0.031 -0.019 0.051
-0.011 -0.021 0.039
0.027 -0.015 0.049
-0.013 -0.021 0.049
-0.003 -0.017 0.049
0.025 -0.021 0.059
-0.031 -0.015 0.069
-0.003 -0.021 0.069
-0.015 -0.021 0.089
-0.015 -0.021 0.091
-0.011 -0.015 0.089
-0.019 -0.017 0.077
0.011 -0.021 0.079
-0.021 -0.017 0.101
-0.007 -0.019 0.109
-0.007 -0.007 0.103
0.043 -0.005 0.033
0.027 -0.023 0.037
0.035 -0.007 0.041
0.031 -0.017 0.061
0.021 -0.021 0.087
0.035 -0.015 0.081
0.015 -0.019 0.089
0.045 -0.009 0.069
0.045 -0.007 0.067
0.047 -0.011 0.075
0.029 -0.019 0.037
0.025 -0.021 0.073
-0.015 -0.011 0.099
0.031 -0.007 0.043
0.039 -0.007 0.039
0.047 -0.003 0.057
0.049 0.003 0.047
-0.059 0.001 0.089
-0.045 0.009 0.101
-0.041 0.007 0.087
-0.057 -0.001 0.101
-0.043 -0.005 0.103
-0.043 -0.011 0.103
-0.043 -0.005 0.103
-0.029 -0.001 0.105
-0.021 -0.001 0.107
0.017 -0.019 0.089
0.023 -0.013 0.095
-0.041 0.011 0.045
-0.027 0.021 0.037
-0.039 0.007 0.087
-0.061 0.007 0.093
-0.055 0.001 0.091
-0.035 0.007 0.085
-0.025 0.001 0.105
0.019 0.015 0.047
-0.043 0.001 0.033
-0.051 -0.007 0.053
-0.047 -0.011 0.045
-0.051 0.001 0.051
-0.043 -0.011 0.085
-0.053 -0.005 0.087
-0.039 -0.013 0.081
-0.027 0.001 0.075
-0.041 -0.013 0.083
-0.055 -0.007 0.097
-0.043 -0.015 0.049
-0.049 -0.007 0.055
-0.047 0.001 0.061
-0.047 0.001 0.061
-0.047 0.007 0.055
-0.037 0.005 0.065
0.023 -0.001 0.073
-0.059 0.007 0.085
-0.037 -0.001 0.075
-0.037 0.015 0.031
-0.039 0.017 0.041
-0.047 0.007 0.051
-0.037 0.021 0.039
-0.039 0.001 0.073
-0.059 0.007 0.087
-0.035 0.001 0.075
-0.039 0.009 0.057
-0.035 -0.005 0.105
-0.019 -0.003 0.109
-0.005 -0.007 0.101
-0.025 0.001 0.073
-0.033 -0.005 0.105
-0.049 0.001 0.107
-0.049 -0.001 0.107
-0.041 -0.003 0.105
-0.039 -0.005 0.105
-0.007 -0.013 0.085
-0.017 -0.003 0.105
-0.021 0.001 0.101
-0.001 -0.013 0.091
-0.009 -0.003 0.097
-0.023 -0.011 0.113
0.015 -0.003 0.089
0.037 -0.003 0.063
0.017 -0.019 0.089
-0.013 0.007 0.047
-0.041 0.007 0.061
-0.017 0.003 0.055
-0.043 0.003 0.101
0.007 0.001 0.039
0.019 0.013 0.059
0.023 0.005 0.071
-0.037 -0.021 0.045
-0.045 -0.015 0.051
-0.011 -0.021 0.043
-0.013 -0.021 0.047
-0.013 -0.023 0.037
-0.031 -0.011 0.057
-0.021 -0.009 0.057
-0.041 -0.011 0.071
-0.037 -0.015 0.093
-0.033 -0.015 0.085
-0.003 -0.015 0.085
-0.043 -0.013 0.101
-0.025 -0.023 0.107
0.009 -0.015 0.049
0.019 -0.017 0.071
0.025 -0.019 0.067
0.021 -0.019 0.075
0.033 -0.019 0.071
-0.015 -0.023 0.037
-0.041 -0.019 0.049
-0.031 -0.023 0.037
-0.023 -0.023 0.039
-0.027 -0.021 0.043
-0.019 -0.017 0.047
-0.035 -0.021 0.051
-0.045 -0.005 0.069
-0.037 -0.013 0.071
-0.041 -0.013 0.085
-0.041 -0.013 0.091
-0.039 -0.013 0.103
0.009 -0.017 0.043
0.019 -0.021 0.051
-0.025 -0.017 0.077
-0.019 -0.013 0.071
-0.027 -0.021 0.093
-0.013 -0.025 0.101
-0.019 -0.023 0.103
0.023 -0.027 0.033
0.025 -0.015 0.035
0.019 -0.017 0.073
0.005 -0.021 0.079
0.033 -0.019 0.075
0.039 -0.009 0.065
-0.011 -0.013 0.033
-0.009 -0.009 0.033
-0.025 -0.023 0.035
-0.023 -0.023 0.037
-0.015 -0.023 0.037
-0.017 -0.023 0.041
-0.051 -0.005 0.085
-0.035 -0.017 0.095
-0.041 -0.013 0.103
0.031 0.001 0.047
0.027 -0.019 0.045
0.041 -0.007 0.037
0.043 -0.001 0.043
-0.011 -0.017 0.039
-0.025 -0.017 0.047
-0.021 -0.017 0.075
-0.001 -0.019 0.055
-0.027 -0.017 0.075
-0.025 -0.023 0.101
-0.015 -0.025 0.093
-0.013 -0.025 0.097
-0.051 -0.003 0.105
-0.031 -0.013 0.105
-0.023 -0.021 0.105
0.033 -0.013 0.041
0.027 -0.019 0.063
0.027 -0.013 0.051
0.009 -0.021 0.079
0.023 -0.013 0.095
0.025 -0.019 0.057
0.025 -0.019 0.065
-0.023 -0.019 0.103
-0.015 -0.011 0.099
0.041 0.003 0.033
0.027 -0.009 0.047
0.049 -0.009 0.075
0.037 0.001 0.049
-0.047 0.003 0.037
-0.049 0.005 0.055
-0.047 0.005 0.059
-0.055 -0.005 0.095
-0.027 0.001 0.077
-0.059 0.009 0.087
-0.039 0.005 0.089
-0.059 -0.001 0.103
-0.027 0.013 0.051
-0.013 -0.001 0.063
0.019 -0.001 0.057
0.001 -0.001 0.075
0.001 -0.001 0.077
0.015 -0.007 0.065
0.005 -0.003 0.087
0.041 -0.005 0.085
-0.009 0.005 0.053
-0.057 0.011 0.085
-0.037 0.007 0.095
0.007 0.013 0.039
0.011 0.013 0.037
0.021 0.019 0.051
-0.009 0.003 0.057
-0.019 0.003 0.055
0.001 0.001 0.063
-0.005 0.001 0.067
-0.023 0.001 0.075
-0.039 0.007 0.099
-0.027 0.003 0.089
-0.003 -0.001 0.077
-0.005 -0.005 0.095
-0.035 0.003 0.103
-0.035 -0.005 0.105
-0.031 -0.001 0.105
-0.015 -0.001 0.101
-0.013 -0.011 0.109
0.025 0.015 0.061
0.023 -0.001 0.079
0.013 -0.005 0.091
0.025 -0.013 0.093
0.023 -0.013 0.095
0.045 -0.003 0.071
0.041 -0.005 0.079
-0.009 0.015 0.033
-0.041 0.005 0.063
-0.025 0.017 0.037
-0.005 0.001 0.039
-0.053 0.011 0.089
-0.053 0.011 0.089
0.039 0.015 0.037
0.043 0.011 0.055
-0.045 0.001 0.067
-0.047 0.009 0.087
-0.017 -0.009 0.065
-0.029 0.005 0.097
-0.029 0.003 0.099
-0.009 -0.013 0.111
-0.031 0.001 0.105
-0.009 -0.003 0.097
0.009 -0.001 0.045
0.015 0.009 0.049
0.013 0.005 0.051
-0.007 0.001 0.061
0.037 -0.003 0.063
0.009 -0.007 0.091
0.021 -0.001 0.079
0.023 -0.001 0.085
0.051 -0.003 0.087
-0.041 0.007 0.035
-0.041 0.005 0.089
0.033 0.013 0.033
0.021 0.017 0.055
0.033 0.013 0.045
