-0.043 -0.021 0.037
-0.045 -0.017 0.041
-0.041 -0.013 0.063
-0.033 -0.021 0.035
-0.019 -0.021 0.043
-0.021 -0.013 0.055
-0.031 -0.013 0.061
-0.021 -0.009 0.057
-0.031 -0.013 0.061
-0.039 -0.013 0.085
-0.039 -0.013 0.087
-0.045 -0.011 0.095
-0.031 -0.015 0.077
-0.021 -0.017 0.075
-0.023 -0.017 0.077
-0.013 -0.015 0.081
-0.051 -0.005 0.101
-0.037 -0.015 0.101
-0.021 -0.023 0.101
0.015 -0.015 0.063
0.023 -0.023 0.041
-0.003 -0.015 0.083
-0.001 -0.017 0.083
-0.049 -0.009 0.043
-0.051 -0.003 0.045
-0.041 -0.013 0.067
-0.061 0.001 0.087
-0.011 -0.013 0.071
-0.043 -0.009 0.101
-0.043 -0.009 0.103
-0.001 -0.019 0.059
0.029 -0.019 0.061
-0.017 -0.021 0.031
-0.017 -0.013 0.031
-0.029 -0.013 0.053
-0.003 -0.019 0.057
-0.001 -0.015 0.049
-0.023 -0.015 0.071
-0.017 -0.017 0.081
-0.021 -0.021 0.085
-0.009 -0.007 0.099
0.025 -0.011 0.031
0.017 -0.025 0.045
0.011 -0.019 0.047
0.011 -0.019 0.051
0.027 -0.017 0.049
0.005 -0.021 0.079
0.013 -0.019 0.075
0.027 -0.021 0.069
0.047 -0.009 0.083
0.055 -0.007 0.081
-0.027 -0.015 0.051
0.017 -0.027 0.041
-0.003 -0.019 0.053
-0.019 -0.017 0.081
-0.015 -0.013 0.075
0.039 0.005 0.031
0.047 0.005 0.043
-0.051 -0.001 0.049
-0.051 -0.021 0.037
-0.049 -0.009 0.059
-0.047 -0.009 0.063
-0.051 -0.005 0.057
-0.047 -0.005 0.065
-0.049 -0.007 0.085
-0.059 0.001 0.089
-0.027 -0.017 0.105
-0.033 -0.013 0.105
-0.017 -0.011 0.109
-0.041 0.005 0.089
-0.007 0.001 0.067
0.021 -0.001 0.071
0.023 -0.001 0.073
-0.037 -0.005 0.105
-0.037 0.005 0.099
0.001 -0.001 0.077
0.027 -0.001 0.067
0.023 -0.001 0.073
0.013 -0.001 0.083
0.011 -0.001 0.079
-0.049 0.005 0.055
-0.037 0.023 0.043
-0.035 0.011 0.055
-0.035 0.005 0.065
-0.007 0.005 0.055
0.017 0.015 0.035
0.011 0.005 0.049
-0.027 0.017 0.047
-0.041 0.009 0.055
-0.045 0.005 0.063
-0.003 0.003 0.051
0.001 -0.001 0.051
-0.005 0.003 0.055
-0.011 -0.003 0.089
-0.015 -0.001 0.095
-0.049 0.009 0.099
-0.031 0.001 0.105
-0.019 0.001 0.107
0.039 0.001 0.063
0.007 -0.005 0.067
0.017 -0.005 0.067
-0.025 0.021 0.035
-0.025 0.005 0.031
-0.033 0.021 0.039
-0.031 0.021 0.045
-0.041 0.009 0.053
-0.033 0.005 0.063
-0.021 0.015 0.039
-0.035 0.007 0.085
-0.035 0.007 0.095
-0.005 0.001 0.065
-0.023 0.001 0.091
0.007 0.015 0.037
0.019 0.013 0.037
0.047 0.011 0.043
0.043 0.013 0.049
0.043 0.011 0.053
0.011 -0.021 0.087
-0.035 -0.019 0.053
0.035 -0.011 0.087
0.001 -0.019 0.061
0.017 -0.015 0.093
-0.025 -0.017 0.105
-0.005 -0.017 0.113
-0.029 -0.001 0.105
0.031 -0.011 0.045
0.033 -0.019 0.077
0.031 -0.015 0.087
0.033 -0.015 0.085
0.033 -0.015 0.085
0.027 -0.011 0.049
0.049 -0.009 0.085
0.043 -0.005 0.087
0.005 -0.019 0.087
0.023 -0.019 0.089
0.019 -0.005 0.091
0.029 -0.005 0.087
0.023 -0.001 0.085
-0.029 0.009 0.055
0.025 -0.003 0.087
0.049 -0.007 0.087
0.045 0.007 0.061
-0.027 0.001 0.059
0.045 0.007 0.061
0.027 -0.001 0.083
0.007 -0.001 0.079
0.009 -0.005 0.089
-0.015 -0.005 0.083
-0.019 -0.001 0.105
-0.005 -0.007 0.101
-0.009 -0.013 0.107
-0.005 -0.019 0.109
0.017 -0.001 0.051
0.045 0.009 0.057
0.053 -0.003 0.083
0.035 -0.003 0.073
0.031 -0.005 0.085
0.027 -0.007 0.089
0.031 -0.013 0.091
0.031 -0.009 0.089
-0.025 0.021 0.033
-0.019 0.015 0.041
0.023 0.017 0.045
0.029 0.013 0.059
-0.035 0.007 0.095
-0.021 0.001 0.099
0.039 0.015 0.045
0.027 0.015 0.059
0.049 0.001 0.057
0.047 0.001 0.065
-0.015 -0.023 0.033
-0.031 -0.021 0.049
-0.015 -0.023 0.041
-0.017 -0.025 0.035
0.019 -0.027 0.041
-0.001 -0.017 0.051
-0.011 -0.019 0.061
-0.015 -0.023 0.093
-0.015 -0.021 0.093
-0.015 -0.011 0.095
0.003 -0.021 0.069
-0.015 -0.023 0.087
-0.013 -0.023 0.095
0.017 -0.017 0.091
-0.023 -0.021 0.105
-0.017 -0.003 0.105
0.021 -0.021 0.053
0.031 -0.017 0.059
0.035 -0.013 0.063
0.033 -0.009 0.043
0.033 -0.019 0.067
0.027 -0.021 0.073
0.039 -0.011 0.077
0.025 -0.017 0.089
0.043 -0.009 0.085
0.027 -0.013 0.093
0.031 -0.015 0.041
0.031 -0.011 0.045
0.029 -0.017 0.057
0.031 -0.017 0.041
0.029 -0.017 0.059
0.025 -0.021 0.063
0.023 -0.021 0.083
0.019 -0.021 0.085
0.027 -0.021 0.075
-0.011 -0.007 0.101
0.033 -0.007 0.041
-0.053 -0.015 0.037
-0.057 -0.001 0.099
-0.035 0.007 0.063
-0.051 0.003 0.107
-0.047 0.001 0.105
-0.053 0.003 0.105
-0.015 -0.001 0.093
-0.041 -0.003 0.105
-0.043 -0.007 0.103
-0.023 -0.009 0.111
-0.015 -0.011 0.109
0.009 0.001 0.041
0.011 -0.001 0.049
-0.019 -0.009 0.107
0.003 -0.007 0.089
0.011 -0.003 0.089
0.033 -0.009 0.087
0.027 -0.003 0.087
0.027 -0.003 0.085
-0.037 0.015 0.043
-0.051 0.013 0.083
-0.029 0.017 0.047
-0.025 0.017 0.045
-0.013 0.005 0.053
-0.057 0.005 0.093
-0.053 0.009 0.105
0.013 0.007 0.047
0.011 0.009 0.037
-0.051 -0.003 0.057
-0.043 -0.015 0.049
-0.041 -0.013 0.067
-0.043 -0.011 0.081
-0.037 -0.015 0.101
-0.021 -0.025 0.099
-0.039 -0.007 0.105
-0.015 -0.021 0.049
-0.015 -0.021 0.047
-0.033 -0.017 0.053
0.011 -0.019 0.041
-0.005 -0.019 0.073
-0.003 -0.021 0.069
0.015 -0.021 0.081
0.025 -0.013 0.093
-0.039 0.015 0.033
-0.051 -0.001 0.045
-0.047 -0.005 0.065
-0.047 -0.001 0.089
-0.053 -0.009 0.095
-0.057 0.001 0.105
-0.041 -0.015 0.057
-0.039 -0.011 0.073
-0.037 -0.015 0.085
-0.027 -0.019 0.087
-0.053 -0.017 0.035
-0.047 -0.009 0.037
-0.049 -0.003 0.059
-0.041 -0.013 0.067
-0.033 -0.015 0.075
-0.035 -0.001 0.077
-0.037 -0.011 0.105
-0.043 -0.011 0.101
-0.049 0.005 0.047
-0.041 -0.001 0.073
-0.031 -0.001 0.079
-0.043 0.003 0.033
-0.039 0.015 0.033
-0.037 0.021 0.041
-0.045 0.007 0.057
-0.035 0.011 0.053
-0.045 0.007 0.057
-0.041 0.005 0.067
-0.037 0.003 0.071
-0.043 0.003 0.095
0.017 0.015 0.043
-0.031 0.011 0.055
0.021 0.013 0.055
0.019 0.005 0.065
-0.035 -0.021 0.039
-0.009 -0.015 0.039
-0.027 -0.015 0.051
-0.025 -0.009 0.055
-0.013 -0.015 0.065
-0.049 -0.007 0.083
-0.007 -0.013 0.079
-0.025 -0.021 0.087
-0.013 -0.007 0.097
-0.053 -0.005 0.101
-0.019 -0.015 0.105
0.035 -0.015 0.035
0.023 -0.023 0.041
0.019 -0.021 0.059
0.025 -0.021 0.059
0.015 -0.019 0.059
0.017 -0.017 0.063
0.029 -0.019 0.067
0.033 -0.017 0.065
0.007 -0.021 0.083
0.015 -0.021 0.087
0.011 -0.013 0.093
0.031 -0.015 0.087
-0.013 -0.021 0.051
-0.011 -0.019 0.053
-0.051 -0.007 0.051
-0.035 -0.013 0.061
-0.045 -0.011 0.063
-0.037 -0.013 0.063
-0.019 -0.017 0.049
-0.031 -0.015 0.065
-0.063 0.005 0.093
-0.027 -0.019 0.085
0.007 -0.013 0.049
0.013 -0.017 0.059
0.029 -0.019 0.061
0.045 -0.001 0.047
0.041 -0.011 0.071
-0.047 0.007 0.101
-0.033 0.001 0.105
-0.021 -0.005 0.105
-0.007 0.001 0.065
-0.047 -0.009 0.097
-0.043 -0.001 0.101
-0.035 0.001 0.105
-0.007 -0.007 0.103
-0.029 -0.017 0.105
-0.021 -0.011 0.115
-0.021 0.001 0.107
-0.011 -0.003 0.101
-0.015 -0.011 0.109
-0.021 -0.013 0.115
0.009 -0.005 0.049
0.021 0.005 0.071
-0.001 -0.011 0.089
0.001 -0.001 0.081
0.017 -0.001 0.083
0.001 -0.005 0.085
0.015 -0.003 0.089
0.035 -0.009 0.085
0.053 -0.003 0.087
-0.039 0.019 0.041
-0.047 0.007 0.055
-0.037 0.005 0.099
-0.053 0.009 0.091
-0.049 0.001 0.107
-0.051 0.003 0.107
0.013 0.007 0.049
0.021 0.011 0.063
0.047 0.011 0.051
-0.043 -0.017 0.053
-0.015 -0.023 0.041
-0.025 -0.023 0.037
-0.037 -0.013 0.073
-0.035 -0.011 0.079
-0.055 -0.005 0.083
-0.049 -0.005 0.089
-0.041 -0.013 0.085
-0.037 -0.015 0.093
-0.029 -0.015 0.069
-0.031 -0.015 0.077
-0.007 -0.013 0.079
-0.009 -0.013 0.075
-0.057 -0.005 0.099
-0.053 -0.005 0.101
-0.023 -0.021 0.107
-0.025 -0.013 0.111
0.005 -0.017 0.063
0.019 -0.019 0.077
-0.001 -0.015 0.087
0.029 -0.019 0.073
0.047 -0.011 0.075
-0.051 -0.003 0.049
-0.033 -0.021 0.039
-0.031 -0.019 0.095
0.013 -0.017 0.037
0.019 -0.019 0.063
0.043 -0.001 0.045
0.031 -0.019 0.063
0.043 -0.009 0.065
-0.049 -0.021 0.039
-0.039 -0.021 0.051
-0.037 -0.021 0.051
-0.019 -0.017 0.051
-0.025 -0.009 0.059
0.009 -0.017 0.041
0.031 -0.015 0.045
0.017 -0.017 0.063
0.029 -0.011 0.053
0.031 -0.017 0.059
0.019 -0.017 0.067
0.025 -0.021 0.077
0.035 -0.017 0.079
-0.027 -0.019 0.087
-0.027 -0.021 0.093
-0.019 -0.017 0.083
-0.031 -0.021 0.103
0.003 0.001 0.033
0.017 -0.027 0.039
0.021 -0.027 0.039
0.045 0.007 0.037
0.047 -0.001 0.047
-0.017 -0.023 0.043
-0.029 -0.015 0.069
-0.003 -0.019 0.051
-0.017 -0.017 0.083
-0.019 -0.013 0.109
-0.003 -0.019 0.111
0.027 -0.019 0.065
0.045 -0.007 0.061
0.023 -0.021 0.079
0.021 -0.021 0.087
0.031 -0.017 0.083
0.031 -0.013 0.091
0.033 -0.019 0.073
0.057 -0.005 0.079
0.055 -0.005 0.087
0.027 -0.021 0.073
0.029 -0.019 0.071
-0.015 -0.013 0.099
-0.007 -0.019 0.109
-0.011 -0.007 0.093
-0.049 0.001 0.107
0.029 -0.001 0.047
0.033 -0.009 0.043
0.043 -0.009 0.067
0.049 -0.011 0.079
0.045 0.003 0.039
0.049 0.003 0.061
0.049 0.007 0.057
-0.049 -0.007 0.043
-0.051 -0.003 0.055
-0.049 0.001 0.057
-0.045 -0.003 0.069
-0.059 0.003 0.089
-0.059 0.005 0.089
-0.055 -0.001 0.097
-0.035 0.005 0.067
-0.025 0.003 0.089
-0.023 0.001 0.093
-0.057 -0.005 0.097
-0.057 -0.001 0.099
-0.023 0.001 0.099
-0.023 -0.007 0.107
0.009 -0.001 0.047
-0.017 -0.003 0.079
-0.001 0.001 0.071
0.009 -0.011 0.095
0.011 -0.005 0.091
0.041 -0.005 0.083
-0.039 0.017 0.035
-0.039 0.011 0.037
-0.037 0.023 0.039
-0.037 0.007 0.059
-0.039 0.019 0.041
-0.039 0.019 0.039
-0.015 0.015 0.039
-0.059 0.007 0.091
-0.035 0.007 0.097
0.013 0.009 0.043
0.017 0.015 0.043
0.005 -0.007 0.059
-0.047 0.003 0.089
-0.031 0.005 0.095
0.017 -0.001 0.085
0.039 0.015 0.047
0.025 -0.001 0.059
0.047 0.009 0.057
0.045 0.011 0.055
0.023 0.007 0.071
0.047 -0.001 0.067
0.033 -0.003 0.075
0.003 -0.001 0.071
0.013 -0.007 0.073
-0.017 0.015 0.041
-0.033 0.015 0.045
-0.027 0.021 0.037
-0.023 0.009 0.053
-0.025 0.001 0.067
-0.029 0.003 0.073
0.023 0.017 0.047
0.027 0.015 0.059
0.043 0.013 0.037
-0.045 0.007 0.037
-0.027 0.005 0.057
-0.017 -0.007 0.063
-0.049 0.009 0.097
-0.009 -0.003 0.071
-0.007 -0.003 0.077
-0.031 0.005 0.095
-0.007 -0.011 0.085
-0.015 -0.001 0.089
-0.055 0.003 0.101
-0.051 0.009 0.099
0.007 -0.007 0.049
0.013 0.009 0.047
0.001 0.001 0.059
0.017 -0.011 0.069
0.017 -0.011 0.067
0.019 -0.003 0.089
0.037 -0.005 0.065
-0.039 0.015 0.033
-0.051 0.003 0.049
-0.061 0.007 0.091
-0.025 0.003 0.089
-0.053 0.009 0.101
-0.055 0.005 0.103
0.019 0.011 0.059
