-0.047 -0.021 0.039
-0.049 -0.003 0.039
-0.029 -0.021 0.045
-0.011 -0.019 0.061
-0.031 -0.015 0.053
-0.021 -0.007 0.059
-0.045 -0.007 0.069
-0.039 -0.013 0.081
-0.007 -0.015 0.077
-0.021 -0.025 0.099
-0.057 -0.005 0.103
0.013 -0.017 0.035
0.013 -0.025 0.039
-0.011 -0.019 0.061
0.013 -0.017 0.059
-0.007 -0.017 0.075
0.023 -0.019 0.071
0.033 -0.013 0.087
0.047 -0.007 0.087
-0.047 -0.011 0.045
-0.049 -0.011 0.039
-0.041 -0.019 0.053
-0.021 -0.013 0.055
-0.023 -0.013 0.053
-0.035 -0.013 0.059
-0.021 -0.007 0.059
-0.053 -0.007 0.099
-0.043 -0.009 0.101
-0.007 -0.019 0.047
0.013 -0.019 0.055
0.021 -0.021 0.053
0.017 -0.019 0.061
0.017 -0.017 0.065
0.019 -0.017 0.067
0.021 -0.019 0.069
-0.017 -0.019 0.031
-0.031 -0.021 0.043
-0.015 -0.019 0.033
-0.013 -0.013 0.033
-0.003 -0.019 0.055
-0.003 -0.019 0.057
-0.023 -0.017 0.077
0.003 -0.021 0.073
-0.001 -0.013 0.089
-0.023 -0.023 0.101
-0.017 -0.025 0.103
-0.013 -0.017 0.107
0.021 -0.013 0.031
0.021 -0.027 0.039
0.021 -0.029 0.033
0.025 -0.015 0.035
0.033 -0.013 0.041
0.031 -0.001 0.045
0.019 -0.021 0.049
0.027 -0.019 0.051
0.027 -0.017 0.053
0.031 -0.007 0.055
0.029 -0.017 0.057
0.003 -0.019 0.065
0.029 -0.019 0.067
0.007 -0.009 0.065
0.029 -0.019 0.079
0.015 -0.021 0.087
0.045 -0.009 0.071
-0.015 -0.023 0.037
-0.005 -0.011 0.039
0.013 -0.027 0.039
-0.003 -0.011 0.041
0.015 -0.025 0.045
0.017 -0.027 0.039
0.021 -0.023 0.043
-0.005 -0.019 0.057
-0.041 -0.013 0.083
-0.017 -0.017 0.085
0.039 -0.007 0.063
0.041 -0.007 0.061
0.049 0.007 0.057
-0.051 -0.017 0.039
-0.047 -0.023 0.039
-0.045 0.005 0.061
-0.039 0.003 0.071
-0.055 -0.001 0.097
-0.051 -0.001 0.107
-0.051 -0.001 0.089
-0.047 0.001 0.089
-0.047 -0.007 0.087
-0.041 0.005 0.089
-0.039 0.003 0.101
-0.039 0.005 0.099
-0.027 0.001 0.103
-0.031 -0.011 0.105
-0.025 0.001 0.105
-0.035 0.005 0.065
-0.019 0.005 0.053
-0.051 0.005 0.105
-0.055 0.007 0.091
-0.045 0.005 0.089
-0.037 0.007 0.087
0.021 -0.001 0.065
-0.029 0.005 0.097
-0.041 -0.003 0.105
-0.035 0.003 0.101
-0.027 -0.007 0.105
0.005 -0.005 0.089
0.021 -0.003 0.089
-0.039 0.021 0.037
-0.045 0.009 0.045
-0.045 0.005 0.063
-0.039 0.013 0.041
-0.037 0.021 0.043
-0.023 0.007 0.053
-0.049 0.009 0.097
-0.049 0.009 0.099
-0.055 0.007 0.105
0.003 0.013 0.037
0.019 0.009 0.059
0.023 0.015 0.061
0.021 0.007 0.061
0.041 0.009 0.057
-0.029 0.007 0.057
-0.015 0.005 0.049
0.001 -0.001 0.057
-0.017 0.001 0.057
-0.035 0.007 0.085
-0.017 -0.009 0.069
-0.021 -0.007 0.067
-0.013 -0.005 0.067
-0.007 -0.003 0.075
-0.005 -0.003 0.077
-0.009 -0.005 0.099
-0.015 -0.003 0.099
-0.013 -0.003 0.103
0.023 0.011 0.035
0.025 0.019 0.051
0.033 0.005 0.049
0.017 0.015 0.043
0.031 0.013 0.043
0.035 -0.005 0.065
0.029 -0.005 0.057
0.043 0.003 0.065
0.031 -0.005 0.085
0.047 -0.005 0.077
0.037 -0.009 0.081
0.047 -0.003 0.085
-0.031 0.019 0.031
-0.037 0.023 0.043
-0.015 0.015 0.039
-0.011 0.007 0.049
-0.045 0.009 0.085
-0.053 0.009 0.091
-0.025 0.001 0.083
0.007 0.007 0.039
0.001 0.001 0.061
0.021 0.013 0.059
0.041 0.013 0.037
0.043 0.003 0.065
-0.015 -0.023 0.033
-0.011 -0.021 0.047
0.031 -0.017 0.083
0.013 -0.021 0.087
-0.001 -0.013 0.089
0.005 -0.019 0.087
-0.013 -0.011 0.093
-0.015 -0.007 0.101
-0.019 -0.013 0.109
0.029 -0.009 0.045
0.045 -0.009 0.067
0.031 -0.017 0.041
0.053 -0.009 0.081
0.033 -0.013 0.039
0.047 -0.007 0.065
0.013 -0.021 0.079
0.009 -0.007 0.091
0.037 -0.013 0.079
0.055 -0.005 0.087
0.011 -0.011 0.095
-0.025 0.013 0.051
0.031 -0.007 0.087
0.021 -0.005 0.091
-0.049 0.013 0.085
-0.045 -0.001 0.103
-0.023 0.001 0.073
0.021 -0.005 0.091
-0.013 -0.003 0.103
-0.047 0.005 0.103
-0.049 0.003 0.107
-0.033 -0.001 0.105
0.047 -0.009 0.085
0.051 -0.005 0.087
0.027 0.011 0.043
0.045 0.007 0.061
0.029 0.013 0.053
0.049 0.007 0.053
0.001 0.001 0.063
-0.027 -0.001 0.063
0.049 0.007 0.051
0.047 0.007 0.059
0.027 0.009 0.053
0.043 0.003 0.065
0.025 0.007 0.061
0.025 0.011 0.063
-0.011 -0.003 0.087
-0.019 0.001 0.095
0.031 -0.003 0.083
-0.001 0.001 0.069
-0.009 -0.005 0.099
0.045 0.013 0.047
0.049 0.005 0.053
0.029 0.011 0.057
0.033 -0.003 0.075
0.009 -0.003 0.073
0.011 -0.001 0.083
0.057 -0.005 0.081
-0.027 0.019 0.043
-0.027 0.017 0.047
-0.033 0.007 0.061
0.019 0.017 0.043
-0.019 0.015 0.037
-0.013 0.015 0.037
-0.023 0.017 0.045
-0.007 0.015 0.035
-0.027 0.019 0.045
-0.023 0.017 0.043
-0.045 0.003 0.103
-0.047 0.005 0.103
-0.033 0.005 0.099
0.043 0.015 0.045
0.023 0.017 0.045
0.027 0.011 0.061
0.045 0.011 0.039
0.023 -0.029 0.037
-0.027 -0.023 0.037
-0.033 -0.013 0.055
-0.029 -0.015 0.069
-0.021 -0.017 0.077
0.025 -0.021 0.075
0.007 -0.021 0.079
-0.021 -0.021 0.085
0.015 -0.021 0.085
-0.017 -0.013 0.101
-0.005 -0.007 0.101
-0.021 -0.005 0.105
0.027 -0.023 0.037
0.027 -0.019 0.043
0.029 -0.005 0.047
0.023 -0.021 0.057
0.031 -0.015 0.057
0.029 -0.013 0.053
0.011 -0.021 0.079
0.023 -0.019 0.065
0.013 -0.021 0.085
0.019 -0.019 0.089
0.037 -0.013 0.081
0.045 -0.009 0.069
0.027 -0.017 0.051
0.031 -0.013 0.045
0.027 -0.019 0.063
0.025 -0.021 0.083
0.023 -0.019 0.089
0.043 -0.007 0.035
0.039 0.007 0.031
0.039 -0.007 0.039
0.043 -0.007 0.035
0.021 0.005 0.051
0.047 -0.003 0.053
0.047 0.001 0.063
0.045 0.001 0.039
0.041 0.007 0.033
-0.049 -0.017 0.041
-0.045 -0.007 0.035
-0.049 -0.007 0.057
-0.045 -0.013 0.047
-0.051 0.003 0.051
-0.061 -0.001 0.085
-0.061 0.001 0.087
-0.047 -0.011 0.093
-0.061 -0.001 0.083
-0.041 -0.013 0.083
-0.045 -0.009 0.087
-0.043 -0.011 0.103
-0.051 -0.007 0.049
-0.051 -0.005 0.049
-0.045 -0.009 0.067
-0.049 -0.005 0.063
-0.045 -0.007 0.069
-0.039 -0.013 0.069
-0.043 -0.011 0.083
-0.053 0.005 0.083
-0.059 0.003 0.089
-0.055 -0.001 0.097
-0.053 -0.003 0.095
-0.041 -0.007 0.073
-0.059 0.007 0.087
-0.041 0.009 0.039
-0.059 0.007 0.085
-0.049 0.011 0.081
-0.059 0.007 0.085
-0.039 0.015 0.041
-0.029 0.013 0.051
0.019 0.015 0.047
-0.031 0.009 0.057
0.019 0.015 0.051
0.019 0.011 0.053
-0.043 -0.005 0.103
-0.037 -0.001 0.105
-0.037 0.001 0.105
-0.029 -0.005 0.105
-0.011 -0.003 0.101
-0.013 -0.005 0.103
-0.033 0.001 0.105
-0.051 -0.001 0.107
-0.041 -0.005 0.105
-0.003 -0.017 0.081
-0.011 -0.005 0.103
-0.009 -0.003 0.101
-0.011 -0.003 0.101
0.019 -0.009 0.093
0.017 -0.011 0.095
0.017 -0.001 0.085
0.043 -0.005 0.083
-0.017 0.015 0.041
-0.013 0.007 0.047
-0.007 0.007 0.049
-0.007 0.011 0.043
-0.053 0.005 0.105
-0.031 0.001 0.105
0.021 0.007 0.069
0.041 0.015 0.045
0.037 0.007 0.053
-0.037 -0.011 0.033
-0.047 -0.023 0.039
-0.049 -0.007 0.061
-0.033 -0.017 0.053
-0.003 -0.015 0.045
-0.037 -0.017 0.095
-0.027 -0.015 0.071
-0.017 -0.025 0.093
-0.013 -0.025 0.101
-0.025 -0.023 0.107
-0.019 -0.025 0.099
-0.011 -0.017 0.107
0.021 -0.027 0.039
0.017 -0.027 0.037
0.011 -0.019 0.053
0.021 -0.021 0.087
0.015 -0.019 0.089
0.031 -0.013 0.091
0.041 -0.011 0.067
0.029 -0.019 0.079
-0.041 -0.019 0.049
-0.053 -0.005 0.083
-0.053 -0.003 0.089
-0.039 -0.015 0.097
-0.027 -0.021 0.095
-0.051 -0.005 0.101
0.007 -0.009 0.041
0.011 -0.015 0.037
0.011 -0.019 0.043
0.021 -0.021 0.049
0.009 -0.015 0.051
0.011 -0.017 0.055
0.019 -0.019 0.065
-0.029 -0.023 0.033
-0.023 -0.007 0.059
-0.037 -0.013 0.081
-0.013 -0.013 0.077
-0.029 -0.021 0.097
-0.013 -0.025 0.103
0.025 -0.021 0.045
0.021 -0.021 0.061
0.041 -0.005 0.039
0.043 -0.003 0.053
0.015 -0.015 0.093
0.027 -0.019 0.081
0.043 -0.009 0.065
0.035 -0.017 0.075
0.053 -0.007 0.077
0.053 -0.007 0.085
-0.037 -0.021 0.045
-0.001 -0.013 0.047
-0.043 -0.011 0.087
-0.021 -0.013 0.069
-0.023 -0.019 0.083
-0.039 -0.015 0.095
0.039 -0.011 0.033
0.015 -0.027 0.039
0.035 -0.015 0.035
0.037 -0.005 0.041
0.043 -0.007 0.059
-0.049 -0.005 0.039
-0.051 -0.005 0.053
-0.047 -0.009 0.063
-0.049 -0.003 0.041
-0.047 0.007 0.045
-0.031 0.013 0.051
-0.039 0.005 0.067
-0.045 0.005 0.061
-0.045 0.003 0.067
-0.041 0.007 0.061
-0.045 0.005 0.063
-0.041 -0.007 0.073
-0.049 -0.001 0.081
-0.053 0.005 0.101
-0.053 0.009 0.105
-0.015 -0.001 0.097
0.005 0.013 0.039
0.011 0.001 0.049
-0.031 0.007 0.059
0.017 -0.001 0.053
0.021 0.007 0.063
-0.009 -0.007 0.077
0.001 -0.001 0.073
0.021 -0.003 0.073
0.003 -0.003 0.085
0.017 -0.011 0.095
0.021 0.007 0.069
0.009 -0.001 0.081
0.051 -0.003 0.087
-0.039 0.021 0.037
-0.047 0.007 0.047
-0.039 0.019 0.039
-0.037 0.023 0.039
-0.033 0.019 0.045
-0.009 0.013 0.039
-0.049 0.013 0.085
-0.045 0.007 0.089
-0.043 0.009 0.095
-0.053 0.007 0.099
0.007 0.015 0.037
0.033 0.015 0.035
0.021 0.017 0.049
-0.021 0.015 0.043
-0.005 0.007 0.043
-0.007 0.005 0.053
-0.033 0.005 0.069
-0.033 0.003 0.071
-0.031 0.005 0.067
-0.001 -0.001 0.045
0.005 -0.003 0.061
-0.007 0.001 0.063
-0.011 0.001 0.063
-0.017 -0.009 0.073
0.003 -0.001 0.079
-0.045 0.001 0.103
-0.027 0.001 0.103
-0.031 0.001 0.105
-0.013 -0.003 0.103
-0.015 -0.011 0.109
0.027 0.013 0.061
0.049 0.009 0.049
0.035 -0.005 0.069
0.021 0.011 0.063
0.049 0.005 0.047
0.043 -0.005 0.033
0.025 -0.003 0.087
0.037 -0.009 0.079
0.025 -0.001 0.079
0.033 -0.011 0.089
0.037 -0.007 0.075
-0.039 0.009 0.057
-0.023 0.017 0.043
-0.011 0.003 0.057
-0.033 0.005 0.089
-0.041 0.005 0.099
0.021 0.017 0.049
0.019 0.017 0.043
0.033 0.013 0.045
0.023 0.017 0.045
0.033 0.013 0.047
0.029 0.013 0.055
0.029 0.013 0.055
-0.039 0.019 0.039
-0.033 0.023 0.037
-0.019 0.011 0.049
-0.011 0.009 0.047
-0.013 0.003 0.055
-0.013 0.001 0.061
-0.027 0.005 0.057
-0.057 0.007 0.093
-0.047 -0.003 0.095
-0.013 -0.007 0.071
-0.023 0.001 0.073
-0.027 0.001 0.075
-0.015 -0.007 0.065
-0.011 -0.007 0.073
-0.037 0.007 0.097
-0.025 0.001 0.093
-0.009 -0.003 0.095
-0.051 0.009 0.101
-0.037 0.001 0.105
-0.019 0.001 0.107
0.013 0.011 0.037
0.015 -0.003 0.055
0.029 0.011 0.045
-0.005 0.001 0.067
0.017 -0.005 0.075
0.001 0.001 0.067
0.019 -0.003 0.065
0.021 0.003 0.073
0.003 -0.003 0.085
0.001 -0.007 0.087
0.007 -0.003 0.087
0.009 -0.003 0.087
0.009 -0.005 0.089
0.007 -0.007 0.091
0.027 -0.001 0.083
-0.027 0.021 0.035
-0.035 0.023 0.037
0.021 0.017 0.043
0.035 0.015 0.045
0.041 0.015 0.041
0.023 0.019 0.053
