-0.027 -0.023 0.037
-0.035 -0.021 0.043
-0.053 -0.015 0.037
-0.039 -0.021 0.039
-0.049 -0.011 0.039
-0.047 -0.009 0.039
-0.035 -0.017 0.055
-0.047 -0.011 0.057
-0.031 -0.021 0.039
-0.031 -0.023 0.037
-0.013 -0.021 0.045
-0.009 -0.019 0.063
-0.033 -0.013 0.057
-0.029 -0.011 0.057
-0.029 -0.015 0.065
-0.035 -0.013 0.069
-0.041 -0.013 0.085
-0.047 -0.007 0.087
-0.039 -0.013 0.089
-0.041 -0.013 0.097
-0.029 -0.015 0.067
-0.015 -0.025 0.087
-0.055 -0.007 0.099
-0.057 -0.005 0.103
-0.051 -0.003 0.103
-0.025 -0.021 0.099
-0.021 -0.025 0.097
-0.027 -0.021 0.107
-0.025 -0.023 0.109
-0.015 -0.017 0.107
-0.021 -0.013 0.115
0.015 -0.027 0.041
0.023 -0.023 0.041
0.013 -0.023 0.041
0.015 -0.025 0.045
0.019 -0.021 0.053
0.021 -0.021 0.061
0.015 -0.015 0.063
0.023 -0.021 0.043
0.023 -0.021 0.051
0.027 -0.019 0.067
0.019 -0.019 0.065
0.003 -0.021 0.069
0.001 -0.019 0.085
0.045 -0.009 0.085
0.053 -0.009 0.081
-0.039 -0.019 0.041
-0.037 -0.021 0.045
-0.033 -0.021 0.043
-0.049 -0.011 0.053
-0.051 -0.007 0.053
-0.051 -0.007 0.047
-0.051 -0.005 0.055
-0.049 -0.003 0.063
-0.045 -0.015 0.051
-0.035 -0.017 0.055
-0.039 -0.019 0.053
-0.031 -0.015 0.053
-0.049 -0.011 0.049
-0.045 -0.011 0.063
-0.011 -0.013 0.069
-0.061 0.001 0.087
-0.049 -0.009 0.093
-0.043 -0.011 0.095
-0.035 -0.017 0.099
-0.017 -0.019 0.047
-0.013 -0.021 0.053
-0.011 -0.019 0.055
-0.005 -0.017 0.049
0.013 -0.017 0.057
0.017 -0.019 0.059
0.017 -0.019 0.061
0.013 -0.017 0.059
0.021 -0.021 0.061
-0.037 -0.021 0.039
-0.041 -0.019 0.053
-0.039 -0.021 0.049
-0.035 -0.015 0.055
-0.017 -0.025 0.033
-0.015 -0.021 0.049
-0.013 -0.023 0.037
-0.013 -0.017 0.061
-0.019 -0.009 0.061
-0.041 -0.013 0.067
-0.057 -0.003 0.087
-0.047 -0.011 0.093
-0.041 -0.015 0.093
-0.039 -0.013 0.081
-0.035 -0.015 0.085
-0.027 -0.021 0.097
-0.021 -0.017 0.075
-0.017 -0.025 0.103
-0.013 -0.015 0.095
-0.015 -0.017 0.109
-0.015 -0.013 0.109
-0.025 -0.013 0.107
-0.009 -0.007 0.101
0.041 -0.009 0.033
0.017 -0.025 0.045
0.021 -0.025 0.041
0.025 -0.023 0.041
0.021 -0.025 0.041
0.027 -0.023 0.039
0.027 -0.023 0.039
0.029 -0.021 0.039
0.025 -0.021 0.063
0.027 -0.019 0.063
0.021 -0.019 0.069
0.031 -0.015 0.057
0.023 -0.019 0.065
0.019 -0.017 0.069
0.019 -0.021 0.079
0.021 -0.019 0.073
0.023 -0.019 0.073
0.025 -0.019 0.085
0.005 -0.019 0.087
0.027 -0.015 0.089
0.019 -0.013 0.095
0.035 -0.017 0.069
0.043 -0.011 0.079
0.049 -0.011 0.079
-0.033 -0.021 0.047
-0.021 -0.015 0.051
-0.017 -0.013 0.059
-0.021 -0.013 0.055
-0.017 -0.015 0.057
-0.033 -0.013 0.067
-0.023 -0.015 0.069
-0.001 -0.009 0.043
-0.009 -0.019 0.065
-0.007 -0.019 0.067
-0.001 -0.021 0.065
0.003 -0.019 0.065
-0.039 -0.015 0.097
-0.023 -0.023 0.095
-0.023 -0.021 0.105
-0.013 -0.027 0.095
0.025 -0.021 0.049
0.035 -0.001 0.043
0.033 -0.019 0.075
0.037 -0.015 0.073
0.041 -0.001 0.053
0.049 0.003 0.047
-0.049 0.005 0.053
-0.043 0.007 0.061
-0.029 0.005 0.063
-0.033 0.005 0.069
-0.031 0.013 0.049
-0.027 0.009 0.055
-0.045 0.003 0.067
-0.037 0.005 0.069
-0.035 0.005 0.067
-0.031 0.005 0.063
-0.055 0.011 0.089
-0.063 0.007 0.093
-0.061 0.007 0.093
-0.057 0.005 0.093
-0.051 0.009 0.099
-0.057 0.007 0.093
-0.047 0.009 0.101
-0.049 0.009 0.097
-0.037 0.007 0.087
-0.005 -0.001 0.073
-0.035 0.001 0.105
-0.031 0.003 0.101
-0.017 -0.001 0.091
-0.011 -0.003 0.097
-0.055 0.003 0.105
-0.053 0.003 0.105
-0.051 0.003 0.107
-0.037 -0.009 0.105
-0.033 -0.011 0.105
-0.027 -0.017 0.105
-0.025 -0.007 0.107
-0.025 0.001 0.105
-0.005 0.003 0.059
0.007 -0.005 0.041
0.009 -0.003 0.041
-0.007 0.001 0.067
-0.009 -0.005 0.075
0.017 -0.007 0.067
0.013 -0.005 0.057
0.017 -0.001 0.053
0.021 -0.001 0.063
0.021 0.007 0.069
0.019 0.011 0.053
0.021 0.003 0.071
0.011 -0.003 0.089
0.021 0.005 0.071
0.019 -0.009 0.093
0.021 -0.011 0.095
0.017 -0.005 0.091
0.015 -0.001 0.085
0.021 -0.001 0.085
-0.037 0.013 0.045
-0.027 0.017 0.047
-0.051 0.003 0.049
-0.039 0.015 0.035
-0.039 0.015 0.037
-0.045 0.003 0.065
-0.033 0.017 0.045
-0.037 0.023 0.043
-0.019 0.013 0.045
-0.029 0.011 0.055
-0.005 0.003 0.059
-0.013 0.001 0.059
-0.043 0.001 0.069
-0.057 0.011 0.087
-0.051 0.009 0.089
-0.049 0.011 0.087
-0.029 0.003 0.073
-0.055 0.003 0.105
-0.051 0.009 0.101
0.011 0.009 0.037
0.007 0.009 0.039
0.007 0.009 0.039
0.015 0.009 0.039
0.017 0.013 0.039
0.019 0.013 0.051
0.021 0.009 0.065
0.033 0.015 0.043
0.023 0.019 0.055
0.045 0.009 0.057
0.041 0.009 0.057
0.045 0.011 0.055
0.023 0.007 0.071
-0.051 -0.017 0.037
-0.047 -0.023 0.039
-0.047 -0.019 0.039
-0.047 -0.015 0.041
-0.043 -0.017 0.047
-0.023 -0.023 0.035
-0.017 -0.023 0.039
-0.017 -0.023 0.043
-0.021 -0.017 0.043
-0.013 -0.023 0.039
-0.011 -0.021 0.043
-0.023 -0.009 0.063
-0.033 -0.015 0.071
-0.037 -0.013 0.081
-0.051 -0.007 0.083
-0.041 -0.015 0.093
-0.011 -0.017 0.067
-0.007 -0.015 0.077
-0.021 -0.017 0.081
-0.019 -0.023 0.089
-0.031 -0.017 0.091
-0.007 -0.013 0.081
-0.011 -0.007 0.093
-0.017 -0.025 0.097
-0.023 -0.021 0.105
-0.017 -0.013 0.101
-0.025 -0.013 0.111
-0.019 -0.015 0.107
-0.023 -0.013 0.109
-0.015 -0.025 0.103
0.023 -0.023 0.041
0.017 -0.027 0.037
0.019 -0.023 0.045
0.027 -0.021 0.043
0.029 -0.017 0.047
0.019 -0.027 0.041
0.021 -0.025 0.041
0.031 -0.019 0.037
0.027 -0.017 0.055
0.023 -0.021 0.063
0.001 -0.019 0.057
0.013 -0.017 0.059
0.015 -0.013 0.065
0.017 -0.015 0.067
0.043 -0.009 0.063
0.003 -0.019 0.065
0.013 -0.019 0.077
0.011 -0.017 0.071
-0.001 -0.017 0.083
0.019 -0.019 0.065
0.029 -0.019 0.079
0.011 -0.019 0.089
0.013 -0.019 0.089
0.009 -0.013 0.093
0.013 -0.015 0.093
0.017 -0.019 0.089
0.035 -0.017 0.071
-0.031 -0.019 0.051
-0.013 -0.021 0.049
-0.033 -0.013 0.063
-0.047 -0.011 0.059
-0.027 -0.011 0.053
-0.053 -0.009 0.095
-0.051 -0.009 0.095
-0.057 -0.005 0.099
-0.037 -0.015 0.097
0.013 -0.019 0.047
0.007 -0.011 0.051
0.021 -0.021 0.061
0.025 -0.021 0.061
0.027 -0.019 0.061
0.015 -0.019 0.075
0.045 -0.001 0.049
0.035 -0.015 0.063
0.033 -0.019 0.067
0.035 -0.017 0.069
0.043 -0.009 0.065
0.047 -0.005 0.061
-0.025 -0.015 0.051
-0.015 -0.021 0.047
-0.005 -0.019 0.053
-0.039 -0.015 0.057
-0.023 -0.023 0.039
-0.015 -0.023 0.041
-0.029 -0.021 0.047
-0.011 -0.021 0.043
0.005 -0.013 0.059
-0.021 -0.015 0.071
-0.013 -0.011 0.069
-0.011 -0.013 0.081
-0.011 -0.007 0.091
-0.007 -0.007 0.093
-0.049 -0.005 0.101
-0.051 -0.003 0.105
-0.041 -0.013 0.101
-0.021 -0.009 0.109
0.015 -0.027 0.039
0.013 -0.023 0.045
0.021 -0.025 0.041
0.027 -0.015 0.049
0.033 -0.019 0.067
0.029 -0.013 0.047
0.025 -0.021 0.063
0.035 -0.017 0.073
0.037 -0.005 0.041
0.041 -0.003 0.043
0.043 -0.013 0.075
0.033 -0.019 0.077
0.037 -0.011 0.083
0.007 -0.013 0.093
0.021 -0.011 0.095
0.011 -0.013 0.095
0.023 -0.007 0.091
0.023 -0.007 0.091
0.041 -0.011 0.075
0.041 -0.011 0.077
0.045 -0.011 0.079
0.043 -0.009 0.085
0.055 -0.005 0.087
-0.025 -0.011 0.053
-0.015 -0.019 0.087
-0.011 -0.015 0.069
0.019 -0.021 0.085
0.013 -0.021 0.083
-0.021 -0.013 0.111
-0.015 -0.015 0.095
-0.015 -0.015 0.097
0.021 -0.019 0.069
0.025 -0.021 0.083
0.031 -0.019 0.081
0.043 -0.009 0.065
0.039 -0.011 0.081
0.049 0.005 0.055
0.031 -0.011 0.091
-0.029 0.005 0.061
-0.021 0.009 0.051
-0.017 0.009 0.047
-0.045 0.003 0.067
-0.051 0.013 0.085
-0.009 0.007 0.051
-0.005 0.003 0.059
-0.019 -0.003 0.075
-0.025 0.001 0.067
-0.019 -0.005 0.057
-0.019 -0.007 0.061
-0.017 -0.003 0.077
-0.037 0.005 0.099
-0.043 0.005 0.087
-0.049 0.005 0.089
-0.053 -0.003 0.089
-0.047 0.003 0.105
-0.011 -0.009 0.075
-0.013 -0.009 0.073
-0.009 -0.001 0.069
-0.017 -0.001 0.085
-0.003 -0.003 0.081
-0.033 0.003 0.103
-0.019 0.001 0.107
-0.005 -0.005 0.095
-0.059 -0.003 0.103
-0.035 -0.007 0.105
-0.021 -0.009 0.105
-0.015 -0.001 0.103
0.021 0.007 0.067
0.009 0.003 0.047
0.007 -0.007 0.047
0.003 -0.001 0.067
0.009 -0.007 0.053
0.001 0.001 0.063
0.025 0.005 0.069
0.025 0.011 0.065
0.037 0.009 0.053
0.039 -0.001 0.067
0.015 -0.003 0.089
0.009 -0.001 0.079
0.009 -0.017 0.091
0.019 -0.013 0.095
0.009 -0.007 0.091
0.011 -0.005 0.091
0.017 -0.013 0.095
0.025 -0.009 0.091
0.033 -0.005 0.083
0.039 -0.007 0.079
0.043 -0.005 0.087
-0.045 0.009 0.045
-0.033 0.019 0.045
-0.051 0.003 0.053
-0.039 0.009 0.051
-0.037 0.009 0.055
-0.029 0.013 0.051
-0.031 0.015 0.047
-0.027 0.015 0.047
-0.009 0.009 0.047
-0.007 0.005 0.055
-0.035 0.003 0.073
-0.057 0.007 0.091
-0.051 0.009 0.103
0.015 0.011 0.047
0.019 0.015 0.049
0.021 0.013 0.061
0.017 0.015 0.043
0.015 0.003 0.051
0.021 0.013 0.061
0.029 0.013 0.059
0.039 0.013 0.049
0.045 0.003 0.065
-0.041 0.005 0.033
-0.051 0.003 0.051
-0.021 0.015 0.041
-0.015 -0.003 0.061
-0.039 -0.003 0.075
-0.047 0.009 0.087
-0.049 0.011 0.087
-0.043 0.009 0.085
-0.035 -0.009 0.093
-0.025 0.001 0.071
-0.027 0.001 0.077
-0.029 -0.001 0.079
-0.027 0.003 0.095
-0.031 0.003 0.103
-0.025 0.001 0.101
-0.037 0.001 0.105
-0.025 -0.009 0.109
-0.027 -0.001 0.105
0.011 0.007 0.045
0.009 0.001 0.045
0.009 -0.007 0.037
0.009 0.015 0.037
0.017 -0.001 0.051
-0.001 0.001 0.049
0.011 0.003 0.049
0.001 0.001 0.059
-0.001 0.001 0.061
-0.001 0.001 0.063
0.033 0.015 0.043
0.039 0.007 0.057
-0.007 0.001 0.067
-0.005 0.001 0.069
0.017 -0.011 0.069
0.017 -0.005 0.073
0.011 -0.001 0.081
0.021 -0.001 0.081
0.003 -0.001 0.079
-0.001 -0.007 0.085
0.019 -0.009 0.093
0.021 -0.001 0.075
0.023 0.007 0.069
0.031 -0.001 0.065
0.033 -0.003 0.067
0.029 -0.001 0.079
0.045 -0.003 0.083
0.043 -0.005 0.087
-0.027 0.021 0.035
-0.041 0.009 0.037
-0.035 0.023 0.037
-0.047 0.007 0.055
-0.033 0.021 0.035
-0.035 0.023 0.037
-0.031 0.021 0.041
-0.013 0.013 0.039
-0.009 0.015 0.037
-0.027 0.019 0.039
-0.019 0.005 0.053
-0.009 0.005 0.053
-0.045 0.009 0.087
-0.045 0.007 0.095
-0.041 0.005 0.089
-0.031 0.001 0.077
-0.027 0.003 0.083
-0.055 0.005 0.105
-0.053 0.009 0.105
-0.037 0.007 0.097
-0.033 0.005 0.099
-0.019 0.001 0.107
0.021 0.017 0.033
0.033 0.013 0.033
0.007 0.015 0.033
0.019 0.013 0.037
0.029 0.013 0.033
0.019 0.015 0.047
0.013 0.005 0.051
0.027 0.017 0.057
0.023 0.019 0.051
0.033 0.015 0.039
0.035 0.013 0.033
0.039 0.001 0.065
