-0.023 -0.019 0.041
-0.053 -0.017 0.035
-0.045 -0.013 0.057
-0.015 -0.023 0.041
-0.017 -0.015 0.057
-0.019 -0.025 0.093
-0.035 -0.013 0.075
-0.051 -0.007 0.099
-0.007 -0.009 0.081
-0.025 -0.021 0.109
-0.013 -0.017 0.109
-0.043 -0.007 0.103
-0.019 -0.025 0.099
-0.005 -0.019 0.113
-0.021 -0.015 0.105
-0.009 -0.005 0.103
0.001 -0.021 0.067
0.001 -0.019 0.061
0.033 -0.015 0.039
0.035 -0.017 0.069
0.001 -0.021 0.071
0.003 -0.021 0.081
0.015 -0.013 0.095
0.011 -0.011 0.095
0.015 -0.005 0.091
-0.039 -0.013 0.067
-0.045 -0.009 0.067
-0.039 -0.013 0.085
-0.049 -0.005 0.063
-0.043 -0.011 0.087
-0.029 -0.021 0.103
-0.021 -0.023 0.101
-0.033 -0.009 0.105
-0.047 0.003 0.105
0.013 -0.017 0.059
0.017 -0.021 0.081
0.025 -0.021 0.071
0.029 -0.019 0.069
0.019 -0.017 0.069
0.025 -0.021 0.081
0.015 -0.017 0.091
0.009 -0.019 0.089
0.017 -0.009 0.093
0.035 -0.017 0.075
0.035 -0.017 0.071
-0.009 0.007 0.049
-0.029 0.003 0.065
-0.027 0.003 0.067
-0.025 0.005 0.055
0.001 0.001 0.071
-0.005 -0.001 0.075
-0.007 -0.001 0.073
-0.021 0.001 0.087
-0.015 -0.021 0.093
-0.013 -0.003 0.087
-0.017 -0.011 0.109
-0.013 -0.013 0.105
0.025 0.007 0.067
0.015 -0.003 0.059
0.001 -0.005 0.047
0.023 -0.001 0.077
0.003 -0.003 0.055
0.001 -0.003 0.053
0.041 0.009 0.057
0.025 -0.001 0.067
0.047 -0.003 0.067
0.043 -0.005 0.087
-0.017 0.013 0.043
-0.039 0.011 0.047
-0.033 0.023 0.037
-0.017 0.015 0.041
-0.027 0.009 0.055
-0.001 0.001 0.053
-0.035 0.005 0.065
-0.051 0.003 0.107
0.041 0.015 0.045
0.029 0.013 0.059
-0.041 -0.021 0.039
-0.047 -0.023 0.037
-0.045 -0.023 0.039
-0.037 -0.021 0.039
-0.035 -0.019 0.041
-0.045 -0.021 0.039
-0.045 -0.017 0.041
-0.045 -0.013 0.043
-0.049 -0.011 0.049
-0.039 -0.015 0.057
-0.017 -0.019 0.047
-0.053 -0.009 0.095
-0.043 -0.011 0.087
-0.037 -0.013 0.087
-0.041 -0.013 0.097
-0.045 -0.011 0.091
-0.031 -0.015 0.069
-0.025 -0.013 0.067
-0.021 -0.023 0.091
-0.023 -0.023 0.095
-0.033 -0.017 0.097
-0.019 -0.023 0.087
-0.021 -0.023 0.093
-0.043 -0.009 0.103
-0.031 -0.013 0.105
-0.025 -0.023 0.107
-0.029 -0.005 0.105
-0.015 -0.015 0.105
-0.009 -0.017 0.111
0.025 -0.025 0.039
0.015 -0.025 0.045
-0.007 -0.019 0.069
0.011 -0.013 0.059
0.017 -0.021 0.057
0.019 -0.019 0.063
0.005 -0.021 0.075
0.005 -0.021 0.071
0.033 -0.019 0.073
-0.017 -0.017 0.055
-0.037 -0.013 0.073
-0.039 -0.015 0.095
-0.037 -0.017 0.095
-0.051 0.001 0.107
-0.045 -0.005 0.101
-0.003 -0.017 0.047
0.007 -0.009 0.043
0.009 -0.013 0.053
0.013 -0.019 0.053
-0.003 -0.021 0.069
-0.003 -0.021 0.071
0.021 -0.021 0.049
0.011 -0.019 0.047
0.021 -0.019 0.073
-0.017 -0.019 0.099
-0.033 -0.021 0.041
-0.021 -0.023 0.101
-0.041 -0.017 0.055
-0.029 -0.021 0.105
-0.017 -0.019 0.051
-0.017 -0.019 0.051
-0.001 -0.021 0.073
-0.037 -0.015 0.103
-0.043 -0.013 0.101
-0.031 -0.013 0.105
-0.029 -0.009 0.105
-0.001 -0.019 0.081
-0.021 -0.021 0.101
-0.015 -0.007 0.101
-0.009 -0.015 0.071
-0.005 -0.019 0.113
-0.017 -0.025 0.103
-0.053 -0.005 0.101
-0.019 -0.009 0.107
0.021 -0.029 0.037
0.027 -0.023 0.041
0.019 -0.013 0.095
0.017 -0.011 0.095
0.005 -0.021 0.083
0.009 -0.011 0.095
0.033 -0.017 0.037
0.037 -0.009 0.039
0.039 -0.009 0.081
0.047 -0.009 0.085
0.017 -0.021 0.087
0.011 -0.017 0.091
0.041 -0.009 0.083
-0.023 -0.009 0.111
-0.029 -0.005 0.105
-0.021 -0.005 0.105
-0.043 -0.001 0.101
-0.049 -0.001 0.107
-0.055 0.001 0.105
-0.035 0.003 0.103
-0.023 -0.005 0.105
-0.019 -0.005 0.103
-0.001 -0.003 0.083
-0.039 0.001 0.105
0.015 -0.003 0.089
0.027 0.007 0.059
0.025 0.005 0.069
0.021 0.017 0.055
0.033 0.005 0.049
-0.049 -0.011 0.053
-0.051 -0.005 0.053
-0.047 -0.013 0.049
-0.041 -0.019 0.053
-0.045 -0.009 0.067
-0.047 -0.009 0.063
-0.061 0.001 0.085
-0.051 0.003 0.051
-0.051 0.003 0.053
-0.039 0.007 0.061
-0.061 -0.001 0.085
-0.059 0.005 0.089
-0.055 0.011 0.089
-0.061 -0.003 0.083
-0.059 -0.005 0.101
-0.057 -0.001 0.099
-0.045 -0.009 0.087
-0.043 -0.013 0.101
-0.055 -0.001 0.105
-0.053 0.007 0.099
-0.037 -0.001 0.105
-0.059 -0.001 0.103
-0.027 -0.011 0.109
-0.025 -0.011 0.111
-0.049 0.009 0.089
-0.009 0.005 0.055
-0.001 0.001 0.065
-0.057 0.005 0.093
-0.051 -0.001 0.089
-0.053 0.005 0.099
-0.041 0.009 0.085
0.001 -0.001 0.081
-0.031 -0.001 0.105
-0.037 0.003 0.103
0.009 -0.015 0.091
-0.037 0.011 0.051
-0.051 0.001 0.051
-0.027 0.011 0.053
-0.027 0.017 0.047
-0.027 0.013 0.051
-0.055 0.011 0.089
-0.049 0.009 0.099
-0.009 0.005 0.053
0.015 0.011 0.039
0.029 -0.019 0.083
-0.029 -0.021 0.047
-0.011 -0.015 0.089
-0.019 -0.023 0.039
0.013 -0.015 0.093
-0.007 -0.005 0.101
0.011 -0.011 0.095
-0.013 -0.011 0.093
-0.007 -0.005 0.097
-0.017 -0.019 0.099
0.035 -0.015 0.075
0.025 -0.021 0.061
0.037 -0.011 0.083
0.033 -0.015 0.083
0.029 -0.009 0.089
0.041 -0.005 0.041
0.017 -0.017 0.091
0.019 -0.015 0.093
0.021 -0.007 0.091
0.049 -0.009 0.085
-0.027 0.007 0.055
-0.015 0.013 0.041
-0.005 -0.007 0.101
-0.033 -0.003 0.105
-0.017 -0.005 0.103
-0.017 -0.003 0.105
-0.015 -0.001 0.097
-0.019 -0.001 0.105
0.023 0.007 0.051
0.025 0.009 0.065
-0.049 -0.021 0.039
-0.059 0.007 0.093
-0.037 0.003 0.103
-0.055 0.003 0.105
-0.055 0.003 0.105
-0.027 -0.007 0.105
-0.043 0.005 0.099
-0.033 -0.013 0.105
-0.041 -0.001 0.105
-0.025 -0.007 0.107
-0.019 0.001 0.107
-0.037 -0.013 0.103
-0.045 -0.007 0.099
-0.031 -0.019 0.103
-0.025 -0.019 0.107
-0.013 -0.025 0.103
-0.021 -0.001 0.107
0.007 -0.001 0.081
0.005 -0.013 0.093
0.021 -0.013 0.095
0.029 -0.015 0.089
0.003 -0.013 0.093
0.021 -0.013 0.095
0.031 -0.005 0.085
0.025 -0.009 0.091
0.031 -0.005 0.085
-0.023 0.009 0.053
-0.035 0.007 0.095
-0.039 0.001 0.103
-0.037 0.003 0.103
0.019 0.013 0.059
0.015 0.011 0.047
0.021 0.015 0.057
0.025 0.019 0.055
0.047 0.001 0.065
-0.049 -0.021 0.039
-0.027 -0.023 0.033
-0.021 -0.023 0.037
-0.011 -0.013 0.033
-0.059 -0.003 0.083
-0.041 -0.013 0.083
-0.039 -0.013 0.089
-0.035 -0.017 0.093
0.005 -0.021 0.079
-0.013 -0.013 0.079
-0.025 -0.021 0.091
-0.027 -0.021 0.095
0.003 -0.017 0.087
-0.015 -0.025 0.097
0.027 -0.023 0.039
0.019 -0.027 0.041
0.033 -0.017 0.035
0.015 -0.021 0.051
0.027 -0.019 0.057
0.025 -0.019 0.065
0.019 -0.021 0.087
0.037 -0.015 0.073
0.019 -0.019 0.089
0.035 -0.013 0.085
0.045 -0.011 0.075
-0.003 -0.005 0.039
-0.015 -0.013 0.063
-0.027 -0.021 0.105
-0.033 -0.017 0.103
0.023 -0.021 0.051
0.031 -0.019 0.065
0.035 0.001 0.049
0.047 -0.005 0.067
0.029 -0.019 0.077
0.029 -0.019 0.077
0.031 -0.019 0.077
-0.047 0.007 0.051
-0.049 -0.005 0.063
-0.055 0.011 0.089
-0.049 0.009 0.099
-0.051 0.013 0.085
-0.037 0.007 0.083
-0.045 0.005 0.101
-0.025 0.003 0.089
-0.031 0.005 0.097
-0.057 0.001 0.103
-0.019 -0.001 0.109
-0.009 0.003 0.057
0.011 0.007 0.045
-0.003 0.001 0.071
0.001 -0.001 0.073
-0.001 0.001 0.067
0.019 0.005 0.065
0.021 -0.001 0.065
0.019 0.005 0.065
0.015 0.007 0.051
0.021 0.003 0.073
0.037 -0.005 0.065
-0.003 -0.007 0.083
0.023 -0.001 0.073
0.023 -0.007 0.091
0.045 -0.001 0.069
0.021 -0.003 0.089
0.051 -0.003 0.083
0.047 -0.003 0.087
-0.033 0.017 0.045
-0.037 0.023 0.043
-0.035 0.011 0.055
-0.035 0.007 0.063
-0.009 0.013 0.041
-0.027 0.013 0.051
-0.037 0.001 0.073
-0.025 0.003 0.087
0.019 0.017 0.043
0.039 0.001 0.065
0.041 0.009 0.057
-0.041 -0.019 0.035
-0.041 -0.019 0.049
-0.047 -0.011 0.059
-0.001 -0.009 0.043
-0.007 -0.019 0.059
-0.017 -0.017 0.055
-0.015 -0.017 0.057
-0.015 -0.013 0.061
-0.013 -0.017 0.057
-0.045 -0.011 0.065
-0.031 -0.015 0.079
-0.037 -0.011 0.075
-0.039 -0.013 0.083
-0.029 -0.019 0.091
-0.013 -0.013 0.079
-0.001 -0.021 0.073
-0.021 -0.023 0.091
-0.011 -0.015 0.089
-0.045 -0.011 0.095
-0.019 -0.015 0.107
-0.013 -0.015 0.105
0.025 -0.023 0.041
0.013 -0.019 0.055
0.027 -0.019 0.051
0.001 -0.013 0.049
0.043 -0.001 0.045
0.021 -0.019 0.069
0.019 -0.019 0.075
0.045 -0.009 0.065
0.049 -0.011 0.081
-0.025 -0.023 0.033
-0.029 -0.021 0.047
-0.011 -0.019 0.049
-0.013 -0.023 0.037
-0.013 -0.023 0.039
-0.015 -0.021 0.043
-0.045 -0.009 0.081
-0.033 -0.017 0.097
-0.025 -0.021 0.099
0.021 -0.025 0.041
0.031 -0.015 0.045
0.025 -0.021 0.047
0.029 0.015 0.051
0.041 -0.007 0.037
0.043 -0.001 0.045
-0.051 -0.007 0.049
-0.047 -0.011 0.043
-0.051 -0.003 0.057
-0.047 -0.011 0.059
-0.015 -0.021 0.047
-0.011 -0.019 0.057
-0.007 -0.019 0.055
-0.013 -0.017 0.057
-0.035 -0.013 0.073
-0.041 -0.011 0.071
-0.037 -0.013 0.087
-0.041 -0.013 0.099
-0.021 -0.025 0.099
0.019 -0.021 0.059
-0.001 -0.019 0.059
-0.003 -0.021 0.065
0.003 -0.019 0.085
0.011 -0.011 0.095
0.023 -0.021 0.083
0.029 -0.017 0.087
0.043 -0.007 0.087
-0.021 -0.015 0.071
-0.027 -0.017 0.077
-0.041 -0.003 0.073
-0.039 -0.009 0.075
-0.043 -0.011 0.081
-0.051 -0.007 0.083
-0.051 -0.007 0.099
-0.003 -0.019 0.079
-0.001 -0.015 0.087
0.001 -0.013 0.091
0.007 -0.021 0.081
0.021 -0.019 0.073
0.005 -0.017 0.089
0.005 -0.019 0.087
0.009 -0.021 0.085
0.023 -0.019 0.089
-0.025 0.005 0.055
-0.003 0.001 0.059
0.005 -0.005 0.059
0.021 0.007 0.069
-0.011 0.001 0.063
-0.037 0.001 0.075
-0.007 -0.007 0.099
-0.015 -0.011 0.107
-0.017 -0.011 0.109
-0.019 0.001 0.107
0.039 0.013 0.049
0.041 0.003 0.065
0.015 -0.001 0.079
0.019 -0.007 0.091
-0.033 0.021 0.039
-0.033 0.011 0.053
-0.041 0.007 0.059
-0.011 0.007 0.049
-0.003 0.001 0.059
-0.005 0.003 0.059
-0.053 0.007 0.091
-0.049 0.003 0.107
0.029 0.013 0.039
0.021 0.011 0.037
0.025 0.005 0.067
-0.023 0.019 0.035
-0.049 0.003 0.039
-0.051 -0.005 0.043
-0.027 0.013 0.049
-0.031 0.011 0.055
-0.035 -0.007 0.079
-0.045 0.009 0.087
-0.047 0.005 0.095
-0.011 -0.007 0.073
-0.035 0.007 0.085
-0.021 -0.001 0.093
-0.001 -0.011 0.089
-0.019 -0.001 0.103
-0.027 -0.009 0.107
0.007 -0.007 0.043
0.009 0.003 0.043
0.007 -0.007 0.047
-0.005 0.003 0.057
0.013 -0.011 0.061
0.013 -0.007 0.061
0.005 -0.001 0.079
0.017 -0.007 0.067
0.003 -0.001 0.075
0.021 0.007 0.069
0.017 -0.005 0.073
0.021 -0.001 0.077
0.015 -0.003 0.089
-0.001 -0.009 0.087
0.027 -0.003 0.085
0.045 -0.003 0.081
-0.035 0.025 0.041
-0.025 0.021 0.035
-0.033 0.013 0.047
-0.013 0.011 0.043
-0.055 0.011 0.089
-0.053 0.011 0.089
-0.039 0.007 0.095
0.013 0.013 0.033
0.009 0.005 0.041
0.019 0.013 0.037
0.023 0.013 0.063
