-0.017 -0.025 0.033
-0.021 -0.023 0.031
-0.019 -0.023 0.031
-0.043 -0.021 0.035
-0.035 -0.021 0.039
-0.027 -0.023 0.037
-0.027 -0.023 0.037
-0.019 -0.023 0.041
-0.015 -0.017 0.033
-0.013 -0.021 0.035
-0.011 -0.021 0.039
-0.013 -0.021 0.035
-0.003 -0.019 0.051
-0.001 -0.021 0.063
-0.017 -0.017 0.055
-0.011 -0.019 0.055
-0.031 -0.013 0.059
-0.025 -0.009 0.061
-0.001 -0.019 0.057
-0.003 -0.019 0.059
-0.021 -0.017 0.079
-0.027 -0.019 0.085
-0.035 -0.017 0.093
-0.015 -0.023 0.089
0.001 -0.021 0.073
-0.027 -0.015 0.069
-0.023 -0.013 0.067
-0.019 -0.011 0.069
-0.025 -0.017 0.075
-0.015 -0.013 0.075
-0.001 -0.021 0.073
-0.009 -0.013 0.077
0.009 -0.019 0.073
-0.021 -0.023 0.095
-0.015 -0.021 0.089
-0.017 -0.017 0.083
-0.001 -0.017 0.083
-0.011 -0.015 0.091
-0.047 -0.011 0.095
-0.051 -0.005 0.101
-0.043 -0.011 0.099
-0.029 -0.021 0.099
-0.025 -0.023 0.101
-0.007 -0.019 0.111
-0.017 -0.013 0.101
-0.017 -0.011 0.101
0.015 -0.027 0.041
0.025 -0.025 0.039
0.031 -0.019 0.039
0.033 -0.015 0.033
0.031 -0.017 0.041
0.003 -0.017 0.059
0.019 -0.021 0.051
0.011 -0.019 0.049
0.015 -0.019 0.059
0.019 -0.021 0.057
0.027 -0.019 0.059
0.027 -0.013 0.049
0.029 -0.017 0.055
0.029 -0.019 0.063
0.031 -0.019 0.063
0.033 -0.013 0.061
0.033 -0.017 0.035
0.041 -0.005 0.041
0.039 -0.005 0.043
0.033 -0.007 0.057
0.005 -0.021 0.071
0.009 -0.019 0.071
0.003 -0.021 0.073
0.019 -0.019 0.075
0.025 -0.021 0.079
0.035 -0.015 0.065
0.035 -0.015 0.067
0.031 -0.019 0.077
0.005 -0.019 0.087
0.007 -0.019 0.087
0.007 -0.019 0.087
0.019 -0.021 0.085
0.033 -0.015 0.085
0.035 -0.015 0.067
0.041 -0.011 0.067
0.047 -0.005 0.065
0.039 -0.011 0.075
0.043 -0.011 0.073
0.049 -0.009 0.075
0.045 -0.011 0.083
0.039 -0.011 0.081
-0.019 -0.023 0.041
-0.011 -0.021 0.043
-0.025 -0.015 0.051
-0.017 -0.017 0.055
-0.011 -0.019 0.051
-0.009 -0.019 0.053
-0.001 -0.009 0.045
0.015 -0.025 0.043
0.015 -0.021 0.047
-0.003 -0.011 0.041
-0.039 -0.013 0.083
-0.021 -0.017 0.081
-0.019 -0.017 0.081
-0.023 -0.021 0.087
-0.013 -0.015 0.081
-0.015 -0.015 0.083
-0.013 -0.011 0.085
-0.013 -0.025 0.095
0.031 -0.019 0.037
0.031 -0.017 0.035
0.035 -0.015 0.035
0.027 -0.021 0.043
0.037 -0.011 0.037
0.043 -0.005 0.037
0.029 -0.005 0.047
0.035 0.001 0.045
0.033 -0.003 0.043
0.035 0.001 0.047
0.027 0.011 0.053
0.035 -0.011 0.061
0.041 -0.007 0.061
0.043 0.005 0.037
0.041 -0.001 0.045
0.047 -0.001 0.047
0.047 0.005 0.041
0.043 -0.001 0.051
0.049 0.003 0.059
0.049 0.005 0.057
0.019 -0.017 0.091
-0.045 -0.023 0.039
-0.035 -0.019 0.053
-0.033 -0.017 0.053
0.003 -0.013 0.093
-0.019 -0.015 0.073
-0.031 -0.019 0.051
-0.011 -0.015 0.091
-0.013 -0.013 0.097
-0.013 -0.021 0.051
-0.015 -0.023 0.039
-0.027 -0.019 0.047
0.001 -0.021 0.071
0.013 -0.021 0.087
-0.031 -0.013 0.055
0.015 -0.017 0.091
0.013 -0.011 0.095
-0.001 -0.015 0.087
0.017 -0.015 0.093
0.015 -0.015 0.093
-0.013 -0.015 0.093
-0.011 -0.007 0.101
-0.023 -0.019 0.105
-0.023 -0.007 0.105
-0.021 -0.007 0.103
-0.025 -0.019 0.107
-0.015 -0.011 0.109
-0.017 -0.005 0.107
0.011 -0.021 0.083
-0.017 -0.017 0.083
-0.017 -0.013 0.073
-0.019 -0.003 0.073
-0.015 -0.017 0.091
0.017 -0.009 0.093
0.013 -0.011 0.095
0.011 -0.011 0.095
0.011 -0.011 0.095
-0.013 -0.023 0.097
-0.015 -0.009 0.097
-0.013 -0.009 0.083
0.009 -0.013 0.095
-0.011 -0.007 0.091
-0.009 -0.007 0.093
-0.005 -0.007 0.095
-0.057 -0.005 0.103
-0.051 -0.003 0.103
-0.025 -0.011 0.113
-0.023 -0.015 0.107
-0.009 -0.013 0.111
-0.013 -0.015 0.111
-0.017 -0.003 0.107
-0.013 -0.013 0.097
0.027 -0.021 0.069
0.027 -0.019 0.045
0.019 -0.023 0.045
0.045 -0.011 0.083
0.033 -0.019 0.075
0.035 -0.015 0.037
0.025 -0.021 0.059
0.027 -0.019 0.085
0.031 -0.019 0.081
0.031 -0.009 0.089
0.029 -0.013 0.053
0.035 -0.013 0.063
0.035 -0.015 0.065
0.035 -0.009 0.085
0.035 -0.007 0.081
0.035 -0.009 0.041
0.047 -0.011 0.075
0.023 -0.021 0.083
0.007 -0.021 0.077
0.025 -0.019 0.087
0.017 -0.021 0.081
0.021 -0.021 0.085
0.033 -0.015 0.085
0.035 -0.007 0.081
0.047 -0.007 0.087
0.031 -0.005 0.085
0.019 -0.011 0.095
0.009 -0.009 0.091
0.029 -0.015 0.089
0.031 -0.013 0.091
0.027 -0.009 0.091
0.039 -0.011 0.081
0.051 -0.007 0.087
0.051 -0.007 0.087
0.051 -0.007 0.087
-0.021 0.013 0.047
-0.027 0.007 0.055
-0.027 0.005 0.057
-0.031 0.021 0.045
0.023 -0.009 0.091
0.023 -0.009 0.091
0.027 -0.005 0.087
0.027 -0.003 0.087
-0.015 0.013 0.041
0.017 -0.001 0.085
0.021 0.003 0.073
0.027 -0.001 0.083
-0.027 0.019 0.043
0.021 -0.007 0.091
-0.035 0.001 0.105
-0.031 -0.003 0.105
-0.037 0.007 0.097
-0.017 -0.003 0.107
-0.025 0.001 0.105
-0.019 0.001 0.107
-0.031 0.005 0.097
-0.015 -0.001 0.101
-0.049 -0.001 0.107
-0.043 0.003 0.101
-0.031 0.003 0.103
0.049 0.003 0.049
0.045 -0.009 0.085
0.047 -0.005 0.089
0.049 -0.005 0.087
0.049 -0.005 0.087
0.053 -0.009 0.079
0.057 -0.005 0.081
0.047 0.003 0.063
0.051 -0.007 0.087
0.055 -0.007 0.081
0.025 0.009 0.047
0.029 0.011 0.055
0.027 0.013 0.061
0.027 0.009 0.063
0.049 0.009 0.047
0.049 0.007 0.047
0.049 0.007 0.057
-0.049 -0.003 0.037
-0.051 -0.021 0.035
-0.051 -0.013 0.035
-0.051 -0.011 0.037
-0.049 -0.001 0.039
-0.051 -0.007 0.049
-0.051 -0.003 0.053
-0.049 -0.009 0.057
-0.041 -0.019 0.047
-0.045 -0.013 0.051
-0.049 -0.011 0.053
-0.049 -0.009 0.045
-0.049 -0.009 0.049
-0.051 -0.003 0.051
-0.051 -0.001 0.049
-0.051 -0.001 0.051
-0.045 -0.013 0.055
-0.043 -0.013 0.061
-0.049 -0.005 0.063
-0.047 -0.003 0.067
-0.043 -0.003 0.071
-0.037 -0.011 0.075
-0.061 -0.003 0.083
-0.061 -0.001 0.085
-0.061 0.001 0.085
-0.061 0.001 0.087
-0.049 -0.009 0.093
-0.003 -0.021 0.067
-0.043 -0.011 0.083
-0.043 -0.003 0.071
-0.035 -0.013 0.077
-0.039 -0.007 0.075
-0.051 -0.007 0.083
-0.035 -0.003 0.077
-0.061 -0.001 0.083
-0.027 0.001 0.079
-0.055 0.003 0.083
-0.031 -0.017 0.083
-0.037 -0.015 0.085
-0.037 -0.017 0.095
-0.043 0.003 0.095
-0.061 0.005 0.085
-0.053 -0.009 0.095
-0.051 -0.003 0.093
-0.059 -0.005 0.101
-0.055 -0.003 0.097
-0.059 -0.005 0.101
-0.037 -0.015 0.103
-0.055 0.001 0.099
-0.041 -0.007 0.105
-0.033 -0.017 0.103
-0.029 -0.021 0.097
-0.039 -0.015 0.099
-0.057 -0.005 0.103
-0.051 0.003 0.099
-0.055 0.003 0.103
-0.057 0.001 0.105
-0.059 -0.001 0.103
-0.059 -0.001 0.103
-0.043 -0.017 0.047
-0.045 -0.013 0.051
-0.051 -0.005 0.047
-0.051 0.003 0.051
-0.049 0.003 0.055
-0.047 0.007 0.055
-0.047 -0.009 0.063
-0.049 -0.005 0.063
-0.045 -0.007 0.069
-0.045 -0.009 0.067
-0.049 -0.003 0.061
-0.049 0.003 0.059
-0.047 -0.007 0.065
-0.047 -0.005 0.065
-0.047 -0.005 0.065
-0.047 0.003 0.063
-0.045 0.001 0.067
-0.045 0.005 0.061
-0.049 0.003 0.059
-0.045 0.005 0.063
-0.045 -0.001 0.069
-0.041 0.003 0.069
-0.045 0.003 0.067
-0.051 0.003 0.051
-0.051 -0.001 0.055
-0.045 0.007 0.057
-0.043 -0.011 0.081
-0.003 -0.001 0.077
-0.041 -0.013 0.085
-0.043 -0.011 0.087
-0.051 -0.007 0.093
-0.037 -0.001 0.091
-0.059 0.003 0.093
-0.037 0.001 0.075
-0.029 -0.001 0.079
-0.061 0.001 0.087
-0.059 0.007 0.085
-0.055 0.003 0.083
-0.061 0.007 0.091
-0.059 0.007 0.089
-0.039 0.011 0.037
-0.045 0.007 0.037
-0.039 0.013 0.041
-0.033 0.013 0.047
-0.037 0.021 0.039
-0.051 0.001 0.051
-0.045 0.005 0.061
-0.049 0.003 0.039
-0.039 0.011 0.037
-0.043 0.007 0.039
-0.039 0.015 0.039
-0.033 0.013 0.047
-0.043 0.005 0.065
-0.045 0.001 0.067
-0.037 0.001 0.075
-0.059 0.009 0.087
-0.057 0.011 0.085
-0.059 0.003 0.089
-0.059 0.007 0.085
-0.059 0.007 0.085
-0.045 0.007 0.095
-0.031 0.003 0.073
-0.061 0.005 0.085
-0.037 0.003 0.093
-0.057 0.001 0.105
-0.051 0.007 0.097
-0.055 0.003 0.105
-0.043 0.009 0.047
-0.033 0.019 0.045
-0.043 0.009 0.053
0.019 0.015 0.041
-0.043 0.009 0.055
-0.039 0.009 0.057
0.015 0.007 0.051
-0.043 0.009 0.047
0.019 0.015 0.049
0.019 0.015 0.045
0.019 0.015 0.049
0.037 0.001 0.053
0.037 0.003 0.053
0.019 0.011 0.053
0.019 0.005 0.065
0.021 0.007 0.069
-0.033 -0.011 0.031
-0.021 -0.025 0.033
-0.047 -0.011 0.045
-0.041 -0.019 0.051
-0.033 -0.021 0.049
-0.037 -0.017 0.055
-0.043 -0.017 0.049
-0.021 -0.025 0.035
-0.007 -0.005 0.035
-0.013 -0.021 0.053
-0.009 -0.019 0.059
-0.011 -0.019 0.059
-0.007 -0.019 0.057
-0.017 -0.017 0.055
-0.013 -0.015 0.063
-0.035 -0.013 0.065
-0.041 -0.011 0.069
-0.037 -0.013 0.073
-0.033 -0.015 0.075
-0.057 -0.003 0.085
-0.037 -0.017 0.095
-0.007 -0.019 0.069
-0.017 -0.011 0.071
0.003 -0.021 0.073
-0.001 -0.019 0.079
-0.027 -0.019 0.087
-0.019 -0.019 0.085
-0.021 -0.017 0.079
-0.019 -0.017 0.081
-0.011 -0.015 0.093
-0.031 -0.019 0.097
-0.047 -0.009 0.097
-0.047 -0.009 0.097
-0.035 -0.017 0.095
-0.029 -0.021 0.103
-0.011 -0.017 0.109
-0.013 -0.025 0.097
-0.013 -0.025 0.103
-0.015 -0.025 0.103
-0.013 -0.013 0.097
-0.009 -0.007 0.099
-0.021 -0.013 0.113
0.017 -0.029 0.033
0.031 -0.011 0.031
0.021 -0.027 0.039
0.023 -0.025 0.035
0.031 -0.017 0.033
0.013 -0.027 0.037
0.013 -0.023 0.045
0.025 -0.025 0.037
0.027 -0.011 0.033
0.019 -0.021 0.059
0.003 -0.007 0.055
0.015 -0.017 0.061
0.005 -0.013 0.059
0.007 -0.013 0.063
0.005 -0.017 0.063
0.027 -0.017 0.051
0.023 -0.019 0.053
0.031 -0.015 0.057
0.035 -0.009 0.041
0.045 -0.005 0.057
0.049 -0.001 0.061
0.009 -0.021 0.075
0.021 -0.019 0.073
0.023 -0.021 0.081
0.029 -0.017 0.087
0.021 -0.019 0.089
0.023 -0.019 0.085
0.027 -0.019 0.085
0.027 -0.019 0.085
0.027 -0.013 0.091
0.035 -0.017 0.071
-0.013 -0.011 0.031
-0.011 -0.013 0.033
-0.019 -0.025 0.035
-0.029 -0.021 0.039
-0.027 -0.021 0.041
-0.029 -0.021 0.047
-0.023 -0.023 0.039
-0.027 -0.021 0.041
-0.035 -0.019 0.053
-0.041 -0.015 0.057
-0.035 -0.013 0.063
-0.011 -0.021 0.039
-0.015 -0.021 0.043
-0.021 -0.013 0.055
-0.023 -0.017 0.049
-0.001 -0.019 0.061
-0.029 -0.015 0.069
-0.061 0.005 0.093
-0.025 -0.017 0.077
0.001 -0.019 0.065
-0.033 -0.017 0.097
-0.041 -0.013 0.101
-0.039 -0.015 0.101
-0.031 -0.019 0.097
-0.013 -0.027 0.095
0.027 -0.011 0.033
0.035 -0.015 0.033
0.009 -0.011 0.035
0.015 -0.017 0.035
0.015 -0.025 0.043
0.023 -0.029 0.035
0.023 -0.021 0.047
0.019 -0.021 0.049
0.023 -0.021 0.051
0.027 -0.017 0.055
0.027 -0.017 0.055
0.029 -0.009 0.051
0.029 -0.019 0.063
0.043 -0.007 0.033
0.045 -0.001 0.041
0.037 0.001 0.051
0.041 -0.001 0.053
0.043 -0.007 0.061
