-0.019 -0.001 0.109
-0.029 0.003 0.083
-0.027 0.001 0.073
-0.047 0.001 0.105
-0.045 -0.001 0.103
-0.047 0.001 0.105
-0.045 -0.003 0.103
-0.043 -0.005 0.103
-0.041 -0.003 0.105
-0.037 -0.001 0.105
-0.035 -0.003 0.105
-0.047 0.003 0.105
-0.047 0.001 0.105
-0.043 0.001 0.101
-0.039 0.003 0.101
-0.043 0.003 0.101
-0.043 0.003 0.101
-0.037 0.001 0.105
-0.039 0.007 0.099
-0.041 0.009 0.097
-0.041 -0.003 0.105
-0.037 -0.007 0.105
-0.033 -0.007 0.105
-0.035 -0.005 0.105
-0.033 -0.005 0.105
-0.047 0.009 0.101
-0.043 -0.001 0.101
-0.041 -0.001 0.103
-0.033 -0.003 0.105
-0.045 0.001 0.103
-0.043 0.001 0.101
-0.037 -0.003 0.105
-0.035 -0.003 0.105
-0.033 -0.001 0.105
-0.029 0.001 0.103
-0.021 -0.005 0.105
-0.019 -0.003 0.109
-0.021 -0.001 0.107
-0.017 -0.001 0.103
-0.015 -0.001 0.103
-0.011 -0.003 0.101
-0.027 0.003 0.099
-0.019 -0.001 0.097
-0.019 -0.003 0.057
-0.023 0.003 0.055
-0.017 -0.001 0.097
-0.013 -0.001 0.093
-0.011 -0.001 0.067
-0.009 -0.003 0.071
-0.011 -0.001 0.065
-0.013 0.003 0.057
-0.007 0.003 0.059
-0.007 0.003 0.059
-0.007 0.003 0.059
-0.007 -0.005 0.077
-0.007 -0.003 0.077
-0.003 -0.001 0.077
-0.003 -0.005 0.083
-0.003 -0.003 0.079
-0.005 -0.001 0.075
-0.015 -0.005 0.103
-0.015 -0.005 0.103
-0.011 -0.005 0.103
-0.011 -0.007 0.101
-0.019 -0.001 0.109
-0.019 -0.001 0.109
-0.023 0.001 0.101
-0.023 0.001 0.095
-0.023 0.001 0.089
-0.031 0.001 0.105
-0.029 -0.001 0.105
-0.025 0.001 0.105
-0.017 -0.003 0.109
-0.019 0.001 0.107
-0.027 0.003 0.099
-0.027 0.003 0.091
-0.027 0.003 0.085
-0.027 0.003 0.087
-0.017 -0.001 0.089
-0.003 -0.007 0.083
-0.017 -0.003 0.107
-0.013 -0.005 0.067
-0.041 -0.001 0.105
-0.041 -0.001 0.105
-0.033 -0.003 0.105
-0.033 -0.003 0.105
-0.033 -0.003 0.105
-0.043 0.003 0.101
-0.043 0.007 0.099
-0.039 0.003 0.101
-0.033 -0.007 0.105
-0.037 -0.003 0.105
-0.035 -0.003 0.105
-0.037 0.003 0.103
-0.037 0.001 0.105
-0.039 0.005 0.099
-0.049 -0.001 0.107
-0.041 -0.005 0.105
-0.039 -0.007 0.105
-0.035 -0.005 0.105
-0.043 0.003 0.101
-0.045 -0.003 0.103
-0.043 -0.005 0.103
-0.045 -0.011 0.097
-0.037 -0.011 0.105
-0.039 -0.007 0.105
-0.033 -0.007 0.105
-0.035 -0.011 0.105
-0.039 -0.005 0.105
-0.033 -0.007 0.105
-0.013 -0.007 0.101
-0.011 -0.007 0.101
-0.007 -0.017 0.075
-0.003 -0.015 0.083
-0.003 -0.015 0.085
-0.001 -0.019 0.081
-0.001 -0.017 0.083
-0.025 -0.003 0.105
-0.025 -0.001 0.105
-0.025 -0.003 0.105
-0.023 -0.005 0.105
-0.025 -0.007 0.107
-0.029 -0.007 0.105
-0.017 -0.001 0.103
-0.017 -0.003 0.105
-0.019 -0.001 0.097
-0.023 0.001 0.089
-0.017 -0.001 0.101
-0.015 -0.005 0.103
-0.011 -0.005 0.103
-0.013 -0.001 0.093
-0.015 -0.005 0.103
-0.011 -0.005 0.103
-0.013 -0.003 0.103
-0.013 -0.003 0.103
-0.011 -0.003 0.101
-0.001 -0.001 0.079
-0.003 -0.003 0.081
-0.027 -0.013 0.107
-0.023 -0.009 0.111
-0.025 -0.019 0.107
-0.017 -0.019 0.099
-0.017 -0.021 0.101
-0.017 -0.015 0.109
-0.023 -0.021 0.107
-0.021 -0.021 0.101
-0.015 -0.013 0.109
-0.029 -0.007 0.105
-0.019 -0.001 0.097
-0.031 0.001 0.105
-0.017 -0.001 0.095
-0.019 -0.001 0.097
-0.023 0.001 0.105
-0.013 -0.011 0.093
-0.011 -0.007 0.101
-0.015 -0.005 0.103
-0.009 -0.005 0.103
-0.003 -0.011 0.089
-0.007 -0.005 0.103
-0.015 -0.001 0.097
-0.001 -0.003 0.083
-0.011 -0.015 0.093
-0.013 -0.011 0.107
-0.013 -0.011 0.093
-0.013 -0.003 0.103
-0.011 -0.003 0.095
-0.011 -0.003 0.099
-0.009 -0.003 0.097
-0.055 -0.001 0.105
-0.051 0.001 0.107
-0.055 -0.005 0.101
-0.055 -0.001 0.105
-0.057 -0.001 0.105
-0.043 -0.011 0.103
-0.043 -0.009 0.103
-0.037 -0.013 0.103
-0.047 -0.007 0.099
-0.041 0.001 0.101
-0.035 -0.003 0.105
-0.019 -0.025 0.101
-0.029 -0.019 0.105
-0.025 -0.019 0.107
-0.027 -0.019 0.105
-0.031 -0.017 0.103
-0.023 -0.021 0.107
-0.017 -0.021 0.101
-0.017 -0.021 0.101
-0.017 -0.023 0.103
-0.021 -0.013 0.115
-0.025 -0.021 0.109
-0.027 -0.023 0.107
-0.025 -0.021 0.109
-0.005 -0.017 0.113
-0.021 -0.009 0.109
-0.017 -0.001 0.103
-0.025 -0.011 0.113
-0.021 -0.011 0.113
-0.017 -0.011 0.109
-0.011 -0.005 0.103
-0.009 -0.007 0.103
-0.011 -0.003 0.101
-0.005 -0.007 0.101
-0.007 -0.005 0.103
-0.015 -0.013 0.109
-0.011 -0.015 0.111
-0.019 -0.013 0.115
0.013 -0.001 0.083
0.019 -0.001 0.057
0.015 0.003 0.051
0.019 0.001 0.049
0.035 -0.003 0.041
0.031 0.003 0.047
0.037 -0.001 0.059
0.037 0.001 0.057
0.009 -0.011 0.095
0.005 -0.005 0.089
0.007 -0.005 0.089
0.013 -0.011 0.093
0.017 -0.009 0.093
0.023 -0.007 0.091
0.011 -0.005 0.055
0.009 -0.003 0.047
0.003 -0.001 0.081
0.009 -0.003 0.047
0.023 -0.001 0.085
0.015 -0.001 0.051
0.021 0.005 0.067
0.021 0.003 0.073
0.021 0.003 0.073
0.023 0.003 0.071
0.021 0.003 0.073
0.021 0.005 0.071
0.011 -0.009 0.091
0.011 -0.011 0.093
0.023 -0.007 0.091
0.015 -0.009 0.093
0.013 -0.009 0.091
0.001 -0.005 0.085
0.001 -0.003 0.083
0.007 -0.003 0.087
0.011 -0.003 0.051
0.013 -0.001 0.049
0.001 -0.007 0.087
0.003 -0.009 0.089
0.009 -0.005 0.089
0.009 -0.003 0.087
0.011 -0.005 0.091
0.013 -0.003 0.089
0.001 0.001 0.071
-0.001 0.001 0.071
0.001 -0.001 0.081
0.003 -0.001 0.083
0.003 -0.003 0.085
0.005 -0.003 0.085
0.021 -0.005 0.091
0.025 -0.005 0.089
0.025 -0.003 0.085
0.025 -0.003 0.087
0.017 -0.001 0.053
0.023 -0.001 0.073
0.023 -0.001 0.077
0.025 -0.001 0.069
0.021 -0.001 0.071
0.021 -0.001 0.071
0.023 -0.001 0.071
0.023 -0.001 0.073
0.027 -0.001 0.075
0.025 -0.001 0.075
0.025 -0.001 0.071
0.025 -0.003 0.087
0.033 -0.003 0.073
0.039 0.001 0.065
0.037 -0.001 0.059
0.037 0.003 0.055
0.031 -0.001 0.067
0.037 -0.001 0.059
0.041 0.003 0.065
0.037 -0.001 0.059
0.041 -0.001 0.069
0.029 -0.007 0.087
0.039 -0.003 0.067
0.041 -0.003 0.073
0.039 -0.001 0.069
0.003 -0.011 0.091
0.007 -0.011 0.093
0.001 -0.019 0.085
0.019 -0.013 0.095
0.023 -0.013 0.095
0.025 -0.013 0.093
0.005 -0.003 0.087
0.009 -0.007 0.091
0.005 -0.001 0.075
0.013 -0.003 0.087
0.011 -0.011 0.093
0.011 -0.003 0.089
0.015 -0.007 0.091
0.015 -0.003 0.087
0.021 -0.001 0.071
0.017 -0.003 0.089
0.023 -0.001 0.077
0.019 -0.001 0.085
0.031 -0.003 0.079
0.007 -0.017 0.089
0.001 -0.017 0.087
0.007 -0.019 0.087
0.015 -0.019 0.089
0.009 -0.017 0.091
0.013 -0.017 0.091
0.007 -0.017 0.089
0.023 -0.019 0.089
0.025 -0.017 0.089
0.017 -0.017 0.091
0.025 -0.017 0.089
0.003 -0.003 0.085
0.007 -0.001 0.083
0.009 -0.003 0.087
0.011 -0.001 0.085
0.003 -0.013 0.093
0.007 -0.011 0.093
0.013 -0.011 0.095
0.013 -0.015 0.093
0.015 -0.015 0.093
0.013 -0.011 0.095
0.009 -0.007 0.091
0.031 -0.005 0.085
0.031 -0.003 0.083
0.023 -0.013 0.095
0.023 -0.013 0.095
0.017 -0.011 0.095
0.019 -0.007 0.091
0.021 -0.005 0.091
0.023 -0.005 0.089
0.031 -0.013 0.091
0.037 -0.007 0.075
0.041 -0.005 0.085
0.041 -0.005 0.087
0.033 -0.005 0.081
0.035 -0.005 0.079
0.043 -0.005 0.077
0.035 -0.005 0.079
0.053 -0.005 0.087
0.053 -0.005 0.087
0.035 -0.011 0.087
0.047 -0.003 0.085
0.045 -0.005 0.087
0.047 -0.003 0.087
0.033 -0.013 0.089
-0.035 0.013 0.045
-0.033 0.013 0.047
-0.023 0.005 0.053
-0.031 0.015 0.047
-0.017 0.015 0.041
-0.011 0.009 0.047
-0.013 0.011 0.043
-0.013 0.013 0.039
-0.009 0.011 0.043
-0.029 0.019 0.045
-0.047 0.011 0.085
-0.047 0.011 0.081
-0.037 0.007 0.059
-0.039 0.009 0.051
-0.037 0.009 0.053
-0.039 0.013 0.045
-0.035 0.013 0.045
-0.033 0.013 0.047
-0.043 0.009 0.053
-0.039 0.011 0.047
-0.039 0.019 0.041
-0.037 0.017 0.043
-0.037 0.019 0.043
-0.037 0.019 0.043
-0.033 0.019 0.045
-0.037 0.011 0.051
-0.033 0.011 0.055
-0.039 0.009 0.057
-0.045 0.009 0.085
-0.037 0.007 0.063
-0.029 0.011 0.055
-0.019 0.007 0.051
-0.025 0.011 0.053
-0.017 0.011 0.047
-0.023 0.011 0.051
-0.023 0.015 0.045
-0.017 0.009 0.047
-0.023 0.013 0.049
-0.019 0.013 0.045
-0.009 0.007 0.051
-0.011 0.015 0.037
-0.015 0.013 0.041
-0.007 0.013 0.039
-0.007 0.013 0.039
-0.007 0.005 0.055
-0.013 0.011 0.043
-0.009 0.011 0.043
-0.031 0.021 0.041
-0.031 0.021 0.045
-0.023 0.017 0.041
-0.027 0.019 0.045
-0.027 0.005 0.057
-0.025 0.011 0.053
-0.031 0.013 0.051
-0.025 0.013 0.051
-0.031 0.005 0.067
-0.031 0.009 0.057
-0.013 0.003 0.057
-0.011 0.001 0.063
-0.011 0.001 0.063
-0.037 0.007 0.097
-0.037 0.005 0.099
-0.033 0.005 0.089
-0.061 0.001 0.087
-0.049 0.005 0.105
-0.049 0.009 0.097
-0.051 0.011 0.087
-0.059 0.001 0.089
-0.053 0.011 0.089
-0.043 0.005 0.099
-0.043 0.009 0.099
-0.045 0.009 0.101
-0.041 0.007 0.099
-0.035 0.007 0.097
-0.037 0.003 0.101
-0.047 0.009 0.087
-0.045 0.007 0.101
-0.039 0.005 0.099
-0.033 0.003 0.103
-0.037 0.003 0.101
-0.027 0.003 0.071
-0.029 0.005 0.097
-0.025 0.003 0.091
-0.007 0.001 0.067
-0.031 0.005 0.097
-0.029 0.005 0.097
-0.053 0.001 0.105
-0.051 0.003 0.107
-0.049 0.007 0.103
-0.053 0.009 0.105
-0.051 0.001 0.107
-0.051 0.001 0.107
-0.049 0.001 0.107
-0.043 0.003 0.101
-0.037 0.001 0.105
-0.033 0.003 0.103
-0.045 0.009 0.101
-0.025 0.003 0.097
-0.027 0.003 0.099
-0.029 0.001 0.103
-0.031 0.003 0.103
0.015 0.007 0.051
0.019 0.009 0.059
0.035 0.009 0.051
0.005 0.001 0.037
0.005 0.003 0.039
0.011 0.003 0.049
0.013 0.009 0.047
0.013 0.007 0.049
0.007 0.015 0.037
0.003 0.009 0.037
0.013 0.011 0.037
0.015 0.011 0.047
0.013 0.011 0.037
0.015 0.009 0.049
0.015 0.009 0.051
0.019 0.005 0.051
0.025 0.011 0.065
0.017 0.011 0.051
0.019 0.017 0.045
0.029 0.015 0.057
0.021 0.005 0.071
0.031 0.003 0.047
0.031 0.005 0.047
0.031 0.007 0.047
0.021 0.013 0.061
0.019 0.015 0.051
0.019 0.015 0.051
0.027 0.015 0.059
0.019 0.017 0.045
0.019 0.017 0.045
0.017 0.007 0.053
0.025 0.015 0.061
0.021 0.007 0.069
0.019 0.009 0.059
0.021 0.011 0.063
0.023 0.011 0.063
0.023 0.015 0.061
0.035 0.015 0.045
0.037 0.015 0.045
0.039 0.015 0.043
0.039 0.013 0.051
0.043 0.013 0.051
0.041 0.005 0.061
0.045 0.009 0.057
0.039 0.015 0.047
0.045 0.013 0.049
0.041 0.013 0.051
0.045 0.013 0.049
0.035 0.003 0.051
0.039 0.003 0.057
0.037 0.007 0.053
0.039 0.003 0.061
0.035 0.009 0.051
0.035 0.013 0.049
0.041 0.011 0.055
0.047 0.007 0.059
0.047 0.005 0.061
0.049 0.005 0.059
0.047 0.009 0.057
0.019 0.005 0.065
0.023 0.007 0.071
0.021 0.007 0.069
0.021 0.005 0.071
0.039 0.001 0.065
