-0.007 0.013 0.039
0.021 0.017 0.047
0.029 0.011 0.057
0.029 0.015 0.057
0.027 0.011 0.061
0.027 0.017 0.055
-0.011 0.007 0.051
-0.017 0.009 0.047
0.027 0.015 0.059
0.045 0.011 0.055
0.047 0.011 0.053
0.043 0.009 0.059
0.045 0.011 0.055
0.043 0.005 0.063
-0.005 0.003 0.059
-0.003 0.001 0.061
-0.017 -0.003 0.077
-0.007 -0.005 0.097
-0.029 0.003 0.087
-0.021 0.001 0.085
-0.025 0.003 0.085
-0.019 -0.001 0.087
-0.015 -0.001 0.097
-0.025 0.003 0.091
0.017 -0.001 0.081
0.031 -0.001 0.073
0.005 -0.001 0.071
0.001 0.001 0.069
-0.021 -0.001 0.073
0.001 0.001 0.069
0.011 -0.001 0.085
0.007 -0.003 0.087
0.011 -0.005 0.091
-0.011 -0.013 0.091
0.021 -0.005 0.091
0.029 -0.003 0.085
0.011 -0.005 0.091
0.017 -0.001 0.085
-0.009 -0.003 0.089
-0.027 0.003 0.099
-0.027 0.001 0.101
-0.029 0.003 0.099
-0.009 -0.017 0.107
-0.017 -0.011 0.103
-0.015 -0.011 0.105
-0.009 -0.003 0.101
-0.007 -0.005 0.103
-0.005 -0.007 0.101
0.043 0.003 0.035
0.023 -0.027 0.035
0.029 -0.019 0.041
0.049 0.007 0.053
0.047 0.007 0.041
0.033 -0.011 0.041
0.041 0.003 0.063
0.045 0.003 0.063
0.027 0.009 0.059
0.025 0.007 0.063
0.045 0.011 0.055
0.047 0.003 0.043
0.047 0.003 0.045
0.049 0.003 0.055
0.047 -0.003 0.065
0.047 -0.005 0.065
0.049 0.003 0.061
0.035 -0.003 0.071
0.035 -0.005 0.075
0.051 -0.005 0.077
0.053 -0.003 0.085
0.007 -0.001 0.077
0.035 -0.005 0.075
0.031 -0.001 0.071
0.033 -0.003 0.071
0.031 -0.007 0.087
0.027 -0.007 0.089
0.053 -0.003 0.087
0.047 -0.005 0.089
0.055 -0.003 0.087
0.047 -0.007 0.087
0.019 -0.001 0.085
0.019 -0.005 0.091
0.023 -0.011 0.095
0.013 -0.003 0.089
0.027 -0.011 0.093
0.055 -0.005 0.077
0.045 -0.005 0.073
0.041 -0.005 0.087
0.055 -0.005 0.085
0.053 -0.007 0.083
-0.007 0.013 0.039
0.009 0.015 0.037
-0.025 0.013 0.047
-0.031 0.013 0.049
-0.031 0.021 0.033
-0.033 0.021 0.039
-0.035 0.011 0.053
-0.033 0.009 0.057
-0.007 0.015 0.035
-0.015 0.015 0.035
0.023 0.015 0.043
0.027 0.017 0.051
-0.025 0.021 0.035
-0.023 0.017 0.035
-0.017 0.007 0.049
-0.029 0.011 0.055
-0.031 0.005 0.067
-0.045 0.009 0.083
-0.047 0.011 0.085
-0.033 0.005 0.089
-0.031 0.003 0.091
-0.033 0.005 0.093
-0.041 0.009 0.099
-0.047 0.003 0.105
-0.037 0.005 0.099
-0.033 0.005 0.099
-0.035 0.005 0.099
-0.043 0.009 0.097
-0.023 0.001 0.101
-0.021 0.001 0.099
0.043 0.015 0.043
0.009 0.015 0.033
0.017 0.015 0.041
0.019 0.015 0.041
0.021 0.013 0.039
0.021 0.013 0.035
0.037 0.015 0.037
0.037 0.015 0.041
0.045 0.013 0.049
0.025 0.007 0.063
0.029 0.015 0.057
0.047 0.005 0.041
0.037 0.013 0.033
0.043 0.009 0.035
0.049 0.009 0.053
0.049 0.005 0.059
0.001 0.001 0.071
-0.039 -0.021 0.051
-0.049 -0.009 0.053
-0.051 -0.001 0.049
-0.049 -0.011 0.053
-0.039 -0.019 0.053
-0.049 -0.003 0.063
-0.045 -0.009 0.067
-0.017 -0.019 0.045
-0.015 -0.021 0.051
-0.037 -0.015 0.103
-0.025 -0.023 0.101
-0.023 -0.015 0.105
-0.025 -0.013 0.111
-0.023 -0.023 0.093
-0.021 -0.023 0.101
-0.029 -0.019 0.089
-0.037 -0.015 0.103
-0.021 -0.011 0.115
-0.053 -0.005 0.101
-0.045 -0.011 0.097
-0.033 -0.019 0.101
-0.031 -0.017 0.103
-0.033 -0.007 0.105
-0.029 -0.007 0.105
-0.023 -0.015 0.107
-0.019 -0.025 0.097
-0.029 -0.021 0.105
-0.029 -0.021 0.105
-0.019 -0.023 0.103
-0.015 -0.011 0.109
-0.013 -0.007 0.101
-0.053 -0.005 0.101
-0.051 -0.003 0.105
-0.039 -0.015 0.101
-0.037 -0.015 0.103
-0.039 -0.011 0.103
-0.039 -0.009 0.105
-0.037 -0.001 0.105
-0.025 -0.019 0.107
-0.023 -0.015 0.107
-0.017 -0.007 0.101
-0.025 -0.001 0.105
-0.029 -0.009 0.105
0.013 -0.017 0.091
-0.001 -0.021 0.075
0.003 -0.021 0.079
0.013 -0.021 0.045
0.019 -0.029 0.037
0.005 -0.021 0.077
0.015 -0.023 0.045
0.015 -0.019 0.055
0.013 -0.021 0.081
-0.005 -0.015 0.081
0.005 -0.009 0.091
0.013 -0.015 0.093
0.009 -0.013 0.095
0.021 -0.021 0.087
-0.001 -0.019 0.081
-0.001 -0.017 0.083
-0.007 -0.015 0.111
0.013 -0.013 0.095
0.005 -0.011 0.093
0.017 -0.013 0.095
0.017 -0.007 0.091
0.017 -0.021 0.087
0.017 -0.009 0.093
0.025 -0.007 0.089
0.031 -0.007 0.087
-0.007 -0.017 0.113
0.005 -0.007 0.089
0.015 -0.005 0.091
0.005 -0.019 0.087
-0.007 -0.015 0.111
0.003 -0.005 0.087
0.027 -0.009 0.091
0.025 -0.013 0.093
0.027 -0.013 0.093
0.031 -0.005 0.085
0.033 -0.013 0.089
0.037 -0.009 0.083
0.031 -0.011 0.091
0.051 -0.005 0.087
0.051 -0.007 0.087
0.051 -0.007 0.087
-0.033 -0.011 0.105
-0.033 -0.009 0.105
-0.051 0.003 0.107
-0.051 0.005 0.105
-0.041 -0.007 0.105
-0.043 -0.007 0.103
-0.039 -0.003 0.105
-0.043 0.003 0.101
-0.031 -0.007 0.105
-0.029 -0.005 0.105
-0.027 -0.005 0.105
-0.023 -0.011 0.113
-0.023 -0.007 0.107
-0.027 -0.003 0.105
-0.027 -0.003 0.105
-0.023 -0.003 0.105
-0.043 0.005 0.099
-0.041 0.005 0.099
-0.041 0.003 0.099
-0.051 0.013 0.085
-0.057 0.005 0.093
-0.039 -0.001 0.105
-0.041 -0.005 0.105
-0.031 0.003 0.103
-0.023 -0.001 0.107
-0.023 -0.001 0.107
0.003 -0.007 0.089
0.009 -0.001 0.083
0.009 0.015 0.037
0.017 0.007 0.053
0.019 0.011 0.061
0.015 -0.009 0.093
0.021 -0.007 0.091
0.039 0.013 0.051
0.035 0.007 0.051
0.043 0.009 0.059
-0.039 -0.021 0.039
-0.049 -0.023 0.037
-0.049 -0.023 0.037
-0.047 -0.019 0.039
-0.045 -0.021 0.039
-0.037 -0.021 0.039
-0.049 -0.017 0.041
-0.041 -0.019 0.041
-0.043 -0.019 0.041
-0.047 -0.011 0.043
-0.043 -0.011 0.063
-0.025 -0.023 0.037
-0.011 -0.021 0.039
-0.011 -0.021 0.047
-0.007 -0.019 0.047
-0.027 -0.011 0.061
-0.005 -0.019 0.059
-0.015 -0.011 0.065
-0.047 -0.005 0.065
-0.039 -0.007 0.075
-0.051 -0.007 0.093
-0.049 -0.009 0.097
-0.047 -0.011 0.093
-0.039 -0.015 0.095
-0.035 -0.017 0.097
-0.019 -0.017 0.077
-0.027 -0.015 0.067
-0.023 -0.015 0.069
-0.017 -0.025 0.087
-0.015 -0.009 0.067
-0.017 -0.025 0.089
-0.015 -0.025 0.093
-0.005 -0.013 0.083
-0.001 -0.013 0.089
-0.033 -0.019 0.101
-0.057 -0.005 0.101
-0.055 -0.005 0.101
-0.049 -0.007 0.099
-0.035 -0.017 0.097
-0.037 -0.015 0.103
-0.017 -0.025 0.103
-0.011 -0.017 0.109
-0.021 -0.015 0.107
-0.009 -0.007 0.097
-0.011 -0.017 0.107
0.019 -0.027 0.041
0.031 -0.017 0.033
0.023 -0.021 0.049
0.029 -0.019 0.041
0.029 -0.013 0.047
0.025 -0.019 0.053
0.017 -0.021 0.057
0.029 -0.019 0.061
0.005 -0.017 0.063
0.011 -0.013 0.059
-0.001 -0.021 0.067
0.015 -0.015 0.063
0.027 -0.019 0.057
0.035 -0.007 0.041
0.011 -0.021 0.079
0.019 -0.017 0.069
0.027 -0.019 0.067
0.019 -0.017 0.073
0.009 -0.019 0.071
0.011 -0.019 0.075
0.017 -0.013 0.069
0.019 -0.021 0.087
0.015 -0.021 0.085
0.027 -0.019 0.085
0.003 -0.015 0.089
0.009 -0.017 0.091
0.013 -0.017 0.091
0.013 -0.013 0.095
0.017 -0.017 0.091
0.029 -0.013 0.091
0.033 -0.019 0.071
0.043 -0.011 0.077
0.031 -0.015 0.087
0.045 -0.009 0.085
-0.025 -0.019 0.043
-0.041 -0.019 0.051
-0.037 -0.017 0.055
-0.037 -0.015 0.057
-0.019 -0.017 0.049
-0.023 -0.013 0.053
-0.025 -0.009 0.059
-0.009 -0.019 0.053
-0.009 -0.019 0.049
-0.007 -0.019 0.057
-0.015 -0.015 0.059
-0.009 -0.019 0.061
-0.031 -0.013 0.055
-0.027 -0.009 0.055
-0.013 -0.015 0.063
-0.041 -0.009 0.073
-0.051 -0.009 0.095
-0.059 0.003 0.091
-0.043 -0.011 0.095
-0.051 -0.005 0.101
-0.035 -0.011 0.105
-0.001 -0.019 0.055
0.015 -0.021 0.051
0.019 -0.021 0.055
0.023 -0.021 0.057
0.023 -0.021 0.057
0.015 -0.017 0.061
0.017 -0.015 0.067
0.025 -0.021 0.073
0.019 -0.021 0.079
0.023 -0.019 0.073
0.037 -0.007 0.039
0.041 -0.003 0.043
0.043 -0.003 0.041
0.031 -0.017 0.059
0.045 -0.001 0.045
0.039 -0.009 0.067
0.041 -0.011 0.071
-0.015 0.005 0.053
-0.023 0.005 0.053
-0.011 0.001 0.061
-0.031 0.009 0.057
-0.015 0.005 0.049
-0.017 0.011 0.047
-0.027 0.005 0.057
-0.019 0.003 0.055
-0.027 0.001 0.063
-0.025 -0.001 0.065
-0.027 0.003 0.071
-0.039 0.005 0.067
0.001 0.001 0.059
-0.007 0.007 0.049
-0.015 0.011 0.043
-0.001 -0.001 0.045
-0.005 0.001 0.061
-0.019 -0.003 0.057
-0.001 0.001 0.065
-0.003 0.001 0.065
-0.027 0.001 0.075
-0.035 0.007 0.095
-0.039 0.003 0.101
-0.031 0.003 0.093
-0.029 0.003 0.101
-0.027 0.003 0.099
-0.021 0.001 0.097
-0.025 0.003 0.097
-0.029 0.003 0.099
0.009 -0.001 0.077
-0.017 -0.001 0.085
-0.009 -0.007 0.077
0.005 -0.001 0.079
0.003 -0.001 0.079
-0.001 -0.001 0.077
-0.007 -0.005 0.101
-0.015 -0.001 0.091
-0.023 0.001 0.087
-0.017 -0.001 0.091
-0.001 -0.003 0.081
-0.009 -0.003 0.095
-0.009 -0.003 0.093
-0.045 0.005 0.101
-0.045 0.001 0.103
-0.035 -0.005 0.105
-0.035 0.003 0.103
-0.033 0.003 0.103
-0.037 0.003 0.101
-0.037 -0.007 0.105
-0.033 -0.005 0.105
-0.017 -0.003 0.109
-0.019 -0.009 0.107
-0.015 -0.021 0.097
-0.017 -0.021 0.099
-0.001 -0.017 0.113
-0.015 -0.001 0.097
-0.013 -0.003 0.103
-0.023 -0.009 0.109
-0.023 -0.009 0.111
0.047 0.009 0.043
0.041 0.007 0.061
0.049 0.005 0.059
0.043 0.009 0.059
0.049 0.007 0.057
0.027 0.015 0.059
0.029 0.015 0.057
0.025 0.015 0.061
0.049 0.007 0.055
0.039 0.015 0.047
0.033 0.013 0.047
0.039 0.011 0.053
0.043 0.003 0.065
0.025 0.005 0.063
0.003 -0.003 0.055
0.021 0.007 0.069
0.023 0.005 0.071
0.039 0.003 0.061
0.023 -0.001 0.057
0.029 -0.001 0.063
0.049 0.009 0.051
0.049 0.007 0.049
0.043 -0.001 0.069
0.025 -0.001 0.083
0.025 -0.003 0.085
0.033 -0.003 0.077
0.035 -0.007 0.081
0.011 -0.007 0.071
0.005 -0.001 0.081
0.019 -0.005 0.091
0.023 -0.011 0.093
0.021 -0.009 0.093
0.029 -0.009 0.089
0.031 -0.009 0.089
0.041 -0.007 0.087
0.005 -0.011 0.093
0.033 -0.011 0.089
0.029 -0.005 0.087
0.029 -0.005 0.087
0.021 -0.011 0.095
0.045 -0.003 0.071
0.057 -0.005 0.081
-0.043 0.009 0.047
-0.039 0.013 0.045
-0.043 0.005 0.063
-0.027 0.017 0.047
-0.019 0.013 0.045
-0.009 0.013 0.039
-0.005 0.013 0.037
-0.007 0.007 0.045
-0.007 0.003 0.057
-0.003 0.001 0.065
-0.047 0.011 0.083
-0.041 0.005 0.089
-0.045 0.007 0.089
-0.047 0.011 0.081
-0.025 0.003 0.087
-0.021 0.001 0.085
-0.021 0.001 0.095
-0.051 0.009 0.103
-0.031 0.005 0.097
0.033 0.015 0.043
0.023 0.015 0.041
0.007 0.009 0.039
0.043 0.015 0.043
0.035 0.015 0.045
0.023 0.011 0.037
0.035 0.015 0.037
0.029 0.013 0.053
0.023 0.017 0.047
0.025 0.017 0.047
0.025 0.019 0.055
0.029 0.013 0.055
0.029 0.013 0.057
0.025 0.009 0.065
0.045 0.009 0.037
0.041 0.013 0.035
0.043 0.011 0.055
0.049 0.009 0.053
0.047 0.007 0.059
