-0.013 0.003 0.057
-0.033 0.005 0.069
-0.039 0.005 0.063
-0.029 0.003 0.059
-0.031 0.011 0.055
-0.033 0.005 0.069
-0.031 0.005 0.067
-0.001 0.001 0.065
-0.013 0.007 0.045
-0.005 0.003 0.059
0.001 -0.001 0.055
-0.001 0.001 0.049
0.001 -0.001 0.081
-0.017 -0.005 0.059
-0.023 -0.001 0.069
-0.017 -0.003 0.059
-0.007 -0.001 0.073
-0.011 -0.005 0.071
-0.045 0.001 0.067
-0.045 0.003 0.103
-0.029 0.003 0.101
-0.033 0.005 0.099
-0.029 0.005 0.097
-0.037 0.005 0.099
-0.031 0.003 0.101
-0.031 0.003 0.099
0.005 -0.009 0.091
-0.011 -0.007 0.073
-0.015 -0.009 0.077
-0.007 -0.009 0.081
-0.003 -0.009 0.085
-0.007 -0.005 0.077
-0.011 -0.003 0.101
-0.007 -0.005 0.101
-0.015 -0.021 0.093
-0.013 -0.023 0.095
-0.007 -0.005 0.097
-0.009 -0.003 0.097
-0.013 -0.003 0.087
-0.007 -0.005 0.087
-0.009 -0.003 0.101
-0.011 -0.003 0.095
-0.051 0.003 0.107
-0.035 -0.005 0.105
-0.041 -0.003 0.105
-0.031 -0.009 0.105
-0.015 -0.011 0.107
-0.013 -0.013 0.109
-0.007 -0.015 0.111
-0.023 -0.009 0.109
-0.015 -0.011 0.099
-0.021 0.001 0.105
-0.019 -0.001 0.103
-0.025 -0.009 0.109
-0.023 -0.009 0.111
-0.021 -0.013 0.111
-0.015 -0.011 0.109
-0.023 -0.001 0.107
-0.011 -0.003 0.097
-0.013 -0.011 0.107
-0.001 -0.019 0.113
0.029 0.013 0.053
0.035 0.013 0.049
0.045 0.009 0.057
0.025 -0.001 0.067
0.039 0.003 0.061
0.031 -0.001 0.065
0.021 0.009 0.065
0.011 -0.003 0.051
0.029 0.005 0.045
0.029 -0.005 0.047
0.023 -0.001 0.073
0.023 -0.001 0.077
0.025 -0.001 0.073
0.031 -0.001 0.075
0.031 -0.001 0.075
0.023 -0.001 0.081
0.005 -0.003 0.061
0.011 -0.001 0.079
0.013 -0.007 0.061
0.031 -0.005 0.057
0.029 -0.005 0.053
0.027 -0.003 0.055
0.023 0.005 0.071
0.045 0.009 0.057
0.047 0.009 0.055
0.037 -0.007 0.073
0.011 -0.001 0.085
0.015 -0.001 0.085
0.033 -0.005 0.083
0.007 -0.005 0.065
0.017 -0.001 0.081
0.027 -0.001 0.069
0.021 -0.001 0.081
0.017 -0.001 0.079
0.025 -0.001 0.077
0.033 -0.011 0.089
0.011 -0.011 0.093
0.011 -0.005 0.091
0.023 -0.001 0.085
0.019 -0.011 0.095
0.031 -0.009 0.089
0.037 -0.011 0.083
0.041 -0.003 0.073
0.045 -0.003 0.071
0.041 -0.005 0.087
0.047 -0.003 0.087
0.055 -0.005 0.081
0.047 -0.003 0.083
-0.043 0.009 0.055
-0.035 0.021 0.043
-0.041 0.009 0.055
-0.043 0.009 0.049
-0.021 0.013 0.045
-0.009 0.009 0.047
-0.005 0.003 0.047
-0.023 0.019 0.035
-0.023 0.019 0.033
-0.007 0.005 0.053
-0.033 0.003 0.073
-0.049 0.009 0.089
-0.049 0.013 0.083
-0.049 0.013 0.085
-0.049 0.009 0.097
-0.029 0.003 0.085
-0.021 0.001 0.085
-0.051 0.009 0.103
-0.047 0.009 0.101
-0.045 0.007 0.101
-0.039 0.003 0.101
-0.035 0.007 0.097
-0.027 0.003 0.099
-0.023 0.001 0.103
0.005 0.005 0.039
0.015 0.011 0.047
0.009 0.013 0.037
0.025 0.017 0.047
0.023 0.011 0.033
0.029 0.015 0.057
0.029 0.015 0.051
0.025 0.011 0.063
0.027 0.015 0.059
0.023 0.017 0.059
0.023 0.009 0.067
0.037 0.015 0.045
0.037 0.015 0.045
0.037 0.015 0.039
0.041 0.015 0.041
0.041 0.013 0.049
0.037 0.009 0.053
0.049 0.009 0.047
-0.039 -0.021 0.051
-0.049 -0.015 0.041
-0.031 -0.013 0.105
-0.027 -0.023 0.107
-0.041 -0.019 0.053
-0.037 -0.013 0.103
-0.027 -0.021 0.043
-0.013 -0.025 0.103
-0.013 -0.017 0.109
0.001 -0.019 0.081
-0.017 -0.017 0.055
0.003 -0.021 0.081
-0.013 -0.017 0.059
-0.007 -0.019 0.059
-0.007 -0.019 0.111
-0.053 -0.009 0.097
-0.035 -0.013 0.105
-0.031 -0.013 0.105
-0.045 -0.007 0.099
-0.019 -0.023 0.103
-0.001 -0.021 0.067
-0.003 -0.021 0.071
-0.001 -0.021 0.075
-0.017 -0.017 0.095
-0.013 -0.017 0.107
-0.017 -0.007 0.101
-0.003 -0.005 0.083
-0.005 -0.009 0.083
-0.003 -0.005 0.083
-0.019 -0.025 0.101
-0.015 -0.025 0.103
-0.013 -0.015 0.087
-0.013 -0.011 0.109
-0.037 -0.015 0.103
-0.039 -0.011 0.103
-0.047 -0.005 0.101
-0.017 -0.025 0.103
-0.013 -0.017 0.109
-0.007 -0.019 0.111
-0.015 -0.013 0.109
-0.029 -0.003 0.105
-0.025 -0.001 0.105
-0.021 -0.005 0.105
-0.019 -0.003 0.109
-0.005 -0.017 0.113
0.033 -0.017 0.081
0.043 -0.013 0.075
0.015 -0.025 0.045
0.015 -0.023 0.045
0.023 -0.025 0.039
0.027 -0.023 0.039
0.019 -0.021 0.047
0.017 -0.019 0.061
0.019 -0.015 0.093
0.015 -0.011 0.093
0.029 -0.015 0.089
0.027 -0.013 0.091
0.027 -0.011 0.093
0.029 -0.015 0.089
0.033 -0.019 0.071
0.011 -0.019 0.053
0.003 -0.021 0.077
0.023 -0.021 0.063
0.027 -0.021 0.073
0.015 -0.015 0.093
0.021 -0.011 0.095
0.023 -0.007 0.091
0.035 -0.013 0.083
0.045 -0.009 0.085
0.039 -0.009 0.081
0.041 -0.011 0.081
0.011 -0.021 0.085
0.009 -0.021 0.085
0.017 -0.019 0.089
0.025 -0.021 0.083
0.005 -0.005 0.089
0.013 -0.007 0.091
0.029 -0.005 0.087
0.001 -0.013 0.089
0.003 -0.013 0.091
0.015 -0.013 0.095
0.031 -0.005 0.085
0.039 -0.009 0.081
0.049 -0.007 0.087
0.055 -0.007 0.081
-0.009 -0.009 0.079
-0.023 -0.001 0.107
-0.025 -0.003 0.105
-0.019 -0.001 0.109
-0.025 -0.005 0.105
-0.015 -0.007 0.101
-0.009 -0.003 0.101
-0.009 -0.005 0.103
-0.005 0.009 0.043
-0.009 -0.007 0.103
-0.019 -0.001 0.107
-0.019 -0.003 0.107
-0.005 -0.005 0.095
-0.001 -0.005 0.083
-0.029 -0.005 0.105
-0.047 0.009 0.101
-0.037 -0.005 0.105
-0.041 0.005 0.099
-0.043 -0.003 0.103
-0.045 0.003 0.103
-0.055 0.005 0.105
-0.037 0.001 0.105
-0.039 -0.001 0.105
-0.033 -0.001 0.105
-0.033 0.001 0.105
0.013 -0.005 0.091
0.023 -0.003 0.087
0.023 0.013 0.063
0.019 -0.007 0.091
0.025 -0.001 0.083
0.021 0.017 0.055
0.039 0.001 0.065
0.045 0.009 0.057
0.039 0.007 0.059
0.041 0.005 0.061
0.045 -0.005 0.087
-0.013 -0.011 0.031
-0.039 -0.021 0.039
-0.035 -0.021 0.049
-0.037 -0.019 0.053
-0.047 -0.011 0.055
-0.041 -0.019 0.053
-0.047 -0.009 0.063
-0.035 -0.013 0.063
-0.011 -0.021 0.045
-0.009 -0.011 0.035
-0.009 -0.015 0.037
-0.031 -0.013 0.055
-0.025 -0.011 0.053
-0.021 -0.015 0.051
-0.027 -0.011 0.061
0.001 -0.015 0.051
-0.031 -0.015 0.071
-0.041 -0.011 0.071
-0.027 -0.017 0.077
-0.047 -0.011 0.095
-0.049 -0.011 0.095
-0.031 -0.013 0.081
-0.035 -0.015 0.085
-0.045 -0.009 0.083
-0.039 -0.015 0.093
-0.031 -0.017 0.089
-0.033 -0.017 0.089
-0.021 -0.017 0.077
-0.011 -0.017 0.065
-0.005 -0.019 0.073
-0.031 -0.015 0.071
-0.015 -0.013 0.077
-0.007 -0.019 0.067
-0.015 -0.013 0.075
-0.015 -0.015 0.079
-0.005 -0.019 0.073
-0.013 -0.013 0.079
-0.027 -0.019 0.085
-0.015 -0.023 0.087
-0.027 -0.019 0.083
-0.029 -0.015 0.081
-0.013 -0.015 0.091
-0.015 -0.015 0.083
-0.011 -0.007 0.087
0.003 -0.021 0.079
0.001 -0.019 0.081
-0.053 -0.007 0.099
-0.045 -0.011 0.097
-0.039 -0.015 0.095
-0.033 -0.019 0.101
-0.023 -0.021 0.105
-0.011 -0.017 0.109
-0.003 -0.019 0.111
-0.019 -0.015 0.105
-0.017 -0.025 0.103
-0.013 -0.013 0.097
-0.013 -0.007 0.101
-0.013 -0.005 0.103
-0.007 -0.007 0.099
0.039 -0.011 0.031
0.037 -0.013 0.031
0.017 -0.027 0.039
0.023 -0.029 0.035
0.017 -0.025 0.043
0.021 -0.021 0.045
0.011 -0.019 0.047
0.011 -0.023 0.041
0.023 -0.027 0.033
0.017 -0.021 0.057
0.021 -0.021 0.061
0.025 -0.021 0.063
0.001 -0.015 0.051
0.009 -0.015 0.051
0.003 -0.015 0.055
0.005 -0.011 0.057
0.017 -0.019 0.061
0.037 -0.013 0.037
0.033 -0.013 0.041
0.037 -0.005 0.041
0.037 -0.005 0.041
0.047 -0.003 0.055
0.037 -0.003 0.057
0.043 -0.005 0.057
0.031 -0.019 0.065
0.011 -0.021 0.077
0.021 -0.019 0.073
0.031 -0.019 0.077
0.031 -0.019 0.079
0.021 -0.021 0.087
0.003 -0.019 0.085
0.031 -0.013 0.089
0.035 -0.015 0.065
0.039 -0.009 0.065
0.045 -0.011 0.077
0.055 -0.007 0.079
0.043 -0.011 0.081
0.045 -0.011 0.081
0.047 -0.005 0.089
-0.011 0.005 0.031
-0.041 -0.019 0.041
-0.035 -0.021 0.047
-0.021 -0.017 0.043
-0.035 -0.013 0.057
-0.009 -0.019 0.045
-0.013 -0.021 0.049
-0.005 -0.009 0.037
-0.017 -0.019 0.051
-0.013 -0.021 0.051
-0.025 -0.007 0.057
-0.005 -0.019 0.055
-0.033 -0.013 0.067
-0.049 -0.007 0.083
-0.043 -0.011 0.081
-0.043 -0.011 0.085
-0.041 -0.013 0.085
-0.039 -0.013 0.085
-0.031 -0.017 0.085
-0.025 -0.015 0.073
0.001 -0.021 0.069
-0.021 -0.023 0.093
-0.049 -0.003 0.103
-0.039 -0.015 0.099
0.021 -0.027 0.039
0.015 -0.021 0.047
0.017 -0.023 0.045
0.031 -0.017 0.033
0.027 -0.019 0.047
0.033 -0.001 0.045
0.019 -0.021 0.049
0.025 -0.019 0.055
0.025 -0.019 0.057
0.029 0.015 0.051
0.043 -0.007 0.035
0.037 0.001 0.051
0.045 -0.005 0.057
0.049 0.003 0.049
-0.049 0.003 0.039
-0.051 0.001 0.047
-0.049 0.003 0.055
-0.047 0.005 0.059
-0.043 0.007 0.039
-0.037 0.015 0.043
-0.037 0.021 0.041
-0.037 0.013 0.045
-0.013 0.005 0.051
-0.017 0.003 0.055
-0.015 0.003 0.055
-0.013 -0.005 0.065
-0.037 0.009 0.055
-0.041 0.007 0.059
-0.033 0.005 0.063
-0.017 -0.003 0.059
-0.037 -0.001 0.075
-0.053 -0.003 0.081
-0.055 0.013 0.087
-0.057 0.009 0.089
-0.039 0.007 0.095
-0.031 0.005 0.067
-0.025 0.001 0.071
-0.025 0.001 0.071
-0.017 -0.009 0.065
-0.003 0.001 0.071
-0.005 -0.001 0.075
-0.021 0.001 0.087
-0.005 -0.007 0.081
-0.017 -0.001 0.091
-0.011 -0.003 0.089
-0.011 -0.003 0.095
-0.053 -0.001 0.097
-0.051 0.009 0.101
-0.039 0.001 0.105
-0.025 0.001 0.103
-0.019 0.001 0.107
-0.019 0.001 0.107
0.021 0.015 0.035
0.007 -0.007 0.043
0.007 -0.007 0.047
0.013 0.009 0.047
0.009 -0.009 0.035
0.003 0.009 0.037
0.003 -0.001 0.061
0.013 -0.009 0.061
0.005 -0.003 0.061
0.013 -0.011 0.061
0.019 -0.001 0.055
0.021 0.007 0.063
0.029 0.013 0.043
-0.003 -0.003 0.081
0.017 -0.011 0.071
0.011 -0.001 0.081
0.015 -0.003 0.077
0.007 -0.001 0.079
0.017 -0.005 0.067
0.027 -0.001 0.075
0.027 -0.001 0.079
0.011 -0.003 0.089
0.005 -0.011 0.093
0.009 -0.011 0.095
0.013 -0.011 0.095
0.017 -0.011 0.095
0.019 -0.003 0.089
0.021 -0.003 0.089
0.021 0.005 0.069
0.021 -0.001 0.079
0.029 -0.001 0.073
0.039 0.001 0.065
0.041 -0.001 0.069
0.041 -0.007 0.081
-0.041 0.011 0.041
-0.035 0.021 0.033
-0.035 0.023 0.039
-0.049 0.005 0.053
-0.047 0.007 0.053
-0.035 0.011 0.049
-0.037 0.025 0.041
-0.025 0.021 0.035
-0.007 0.007 0.049
-0.029 0.021 0.035
-0.021 0.003 0.055
-0.029 0.011 0.053
-0.029 0.005 0.061
-0.007 0.003 0.059
-0.039 0.005 0.067
-0.053 0.011 0.089
-0.043 0.009 0.083
-0.033 0.005 0.069
-0.023 0.001 0.073
-0.003 0.001 0.067
-0.027 0.003 0.091
-0.049 0.009 0.099
-0.033 0.005 0.097
-0.037 0.003 0.101
-0.035 0.003 0.101
-0.031 0.005 0.097
0.009 0.003 0.047
0.019 0.015 0.035
0.011 0.003 0.049
0.023 0.013 0.063
0.035 0.015 0.043
0.045 0.011 0.053
