-0.021 -0.025 0.033
-0.017 -0.025 0.033
-0.041 -0.019 0.035
-0.035 -0.021 0.039
-0.031 -0.021 0.039
-0.037 -0.019 0.053
-0.039 -0.013 0.059
-0.041 -0.013 0.059
-0.021 -0.023 0.041
-0.017 -0.025 0.033
-0.015 -0.015 0.033
-0.015 -0.023 0.035
0.013 -0.027 0.039
-0.001 -0.011 0.045
0.001 -0.011 0.047
0.011 -0.023 0.043
0.013 -0.019 0.049
-0.009 -0.019 0.051
-0.005 -0.019 0.063
-0.013 -0.021 0.053
-0.029 -0.013 0.063
-0.023 -0.009 0.063
-0.009 -0.019 0.061
-0.037 -0.013 0.065
-0.037 -0.013 0.065
-0.039 -0.013 0.065
-0.027 -0.017 0.079
-0.027 -0.015 0.073
-0.025 -0.015 0.073
-0.037 -0.013 0.081
-0.039 -0.013 0.087
-0.039 -0.013 0.083
-0.029 -0.017 0.083
-0.025 -0.019 0.083
-0.023 -0.021 0.087
-0.017 -0.025 0.087
-0.015 -0.025 0.089
-0.001 -0.021 0.065
0.001 -0.019 0.065
-0.001 -0.021 0.071
-0.021 -0.011 0.067
-0.023 -0.015 0.069
-0.017 -0.011 0.071
-0.007 -0.017 0.075
-0.013 -0.013 0.077
-0.013 -0.013 0.079
-0.003 -0.021 0.069
0.001 -0.021 0.067
0.003 -0.019 0.067
0.005 -0.021 0.071
-0.005 -0.019 0.075
-0.013 -0.013 0.079
-0.023 -0.019 0.083
-0.015 -0.025 0.089
-0.017 -0.025 0.089
-0.015 -0.025 0.093
-0.015 -0.017 0.089
-0.023 -0.019 0.083
-0.023 -0.019 0.083
-0.011 -0.013 0.081
-0.011 -0.013 0.087
-0.007 -0.013 0.085
-0.013 -0.015 0.083
-0.013 -0.009 0.083
-0.013 -0.013 0.085
0.009 -0.021 0.083
-0.057 -0.001 0.105
-0.035 -0.017 0.095
-0.029 -0.021 0.097
-0.035 -0.017 0.099
-0.025 -0.023 0.097
-0.023 -0.023 0.101
-0.017 -0.019 0.099
-0.017 -0.025 0.101
-0.025 -0.021 0.105
-0.017 -0.025 0.103
-0.005 -0.019 0.109
-0.005 -0.019 0.111
-0.015 -0.025 0.101
-0.015 -0.005 0.103
-0.019 -0.015 0.105
-0.013 -0.025 0.103
-0.019 -0.015 0.109
-0.017 -0.015 0.103
-0.013 -0.013 0.105
-0.001 -0.019 0.113
0.021 -0.013 0.031
0.041 -0.009 0.031
0.041 -0.009 0.031
0.015 -0.027 0.041
0.025 -0.025 0.039
0.027 -0.023 0.039
0.031 -0.019 0.039
0.027 -0.021 0.043
0.025 -0.021 0.045
0.023 -0.029 0.037
0.023 -0.021 0.035
0.023 -0.021 0.043
0.023 -0.021 0.049
0.021 -0.015 0.033
0.033 -0.017 0.037
0.031 -0.015 0.045
0.031 -0.015 0.045
0.005 -0.017 0.063
0.027 -0.019 0.051
0.025 -0.019 0.057
0.025 -0.021 0.061
0.003 -0.013 0.055
0.019 -0.021 0.053
0.015 -0.021 0.049
0.003 -0.015 0.057
0.007 -0.011 0.061
0.007 -0.011 0.063
0.031 -0.011 0.055
0.033 -0.015 0.061
0.035 -0.015 0.063
0.037 -0.009 0.039
0.035 -0.011 0.061
0.035 -0.007 0.061
0.005 -0.017 0.065
0.011 -0.017 0.073
0.015 -0.019 0.077
0.023 -0.019 0.067
0.021 -0.019 0.069
0.031 -0.019 0.065
0.025 -0.021 0.077
0.021 -0.019 0.071
0.021 -0.019 0.071
0.023 -0.021 0.077
0.029 -0.019 0.077
0.007 -0.021 0.081
0.017 -0.021 0.087
0.025 -0.021 0.083
0.017 -0.021 0.081
0.023 -0.021 0.081
0.003 -0.013 0.091
0.007 -0.013 0.093
0.035 -0.013 0.087
0.031 -0.017 0.085
0.033 -0.013 0.087
0.031 -0.013 0.089
0.029 -0.017 0.087
0.033 -0.017 0.065
0.033 -0.019 0.069
0.035 -0.017 0.073
0.045 -0.007 0.071
0.039 -0.011 0.077
0.043 -0.011 0.081
0.045 -0.011 0.083
0.047 -0.009 0.083
0.049 -0.007 0.087
0.053 -0.009 0.081
-0.015 -0.023 0.033
-0.015 -0.023 0.033
-0.011 -0.011 0.033
-0.011 -0.011 0.033
0.019 -0.029 0.035
0.023 -0.029 0.035
-0.009 -0.009 0.033
-0.021 -0.023 0.039
-0.013 -0.023 0.039
-0.011 -0.019 0.039
-0.025 -0.017 0.047
-0.009 -0.019 0.045
-0.031 -0.011 0.057
-0.029 -0.013 0.063
-0.023 -0.007 0.061
-0.011 -0.019 0.061
-0.009 -0.015 0.037
-0.007 -0.009 0.035
-0.005 -0.011 0.039
0.013 -0.027 0.037
-0.005 -0.009 0.037
0.019 -0.029 0.037
-0.005 -0.011 0.039
-0.005 -0.009 0.039
0.017 -0.027 0.041
0.017 -0.025 0.045
0.015 -0.021 0.049
0.021 -0.023 0.043
0.011 -0.023 0.043
-0.005 -0.019 0.055
-0.003 -0.019 0.053
-0.007 -0.019 0.061
0.003 -0.011 0.051
0.015 -0.021 0.051
0.015 -0.017 0.061
-0.021 -0.013 0.069
-0.053 -0.005 0.085
-0.053 -0.005 0.087
-0.041 -0.013 0.085
-0.025 -0.017 0.081
-0.023 -0.019 0.083
-0.033 -0.017 0.089
-0.035 -0.015 0.087
-0.021 -0.021 0.085
-0.019 -0.019 0.085
-0.019 -0.017 0.083
-0.015 -0.025 0.093
-0.013 -0.011 0.073
-0.015 -0.013 0.077
-0.013 -0.015 0.081
-0.013 -0.015 0.081
-0.013 -0.015 0.085
-0.015 -0.017 0.091
-0.013 -0.015 0.093
-0.019 -0.025 0.093
-0.017 -0.025 0.097
-0.031 -0.021 0.103
-0.019 -0.025 0.099
-0.015 -0.015 0.097
-0.013 -0.013 0.095
-0.015 -0.007 0.099
0.023 -0.025 0.035
0.027 -0.023 0.041
0.029 -0.019 0.041
0.031 -0.019 0.037
0.031 -0.019 0.037
0.031 -0.019 0.037
0.033 -0.017 0.035
0.033 -0.015 0.039
0.027 -0.021 0.043
0.031 -0.015 0.045
0.031 -0.015 0.045
0.035 -0.011 0.039
0.039 -0.005 0.041
0.043 -0.003 0.039
0.029 -0.005 0.047
0.035 0.001 0.045
0.033 -0.001 0.045
0.027 -0.015 0.051
0.025 0.007 0.049
0.025 0.009 0.049
0.035 -0.009 0.059
0.037 -0.009 0.063
0.037 -0.003 0.057
0.039 -0.005 0.059
0.037 -0.005 0.061
0.037 0.001 0.053
0.043 -0.001 0.033
0.041 0.003 0.033
0.045 0.007 0.037
0.043 0.009 0.035
0.037 0.001 0.047
0.047 0.007 0.043
0.049 0.003 0.047
0.039 0.001 0.049
0.037 0.001 0.049
0.049 0.007 0.049
0.049 0.001 0.051
0.037 -0.011 0.065
0.045 -0.009 0.065
-0.027 -0.023 0.033
-0.021 -0.025 0.033
-0.027 -0.023 0.035
-0.051 -0.021 0.035
-0.047 -0.023 0.035
-0.045 -0.023 0.037
-0.033 -0.021 0.035
-0.033 -0.021 0.037
-0.037 -0.021 0.037
-0.047 -0.023 0.037
-0.037 -0.019 0.035
-0.039 -0.021 0.039
-0.037 -0.021 0.049
-0.049 -0.011 0.053
-0.049 -0.009 0.057
-0.049 -0.005 0.063
-0.039 -0.013 0.059
-0.033 -0.013 0.063
-0.025 -0.023 0.033
-0.021 -0.025 0.035
-0.023 -0.023 0.039
-0.029 -0.021 0.041
-0.019 -0.023 0.041
-0.019 -0.017 0.047
-0.017 -0.025 0.035
-0.013 -0.021 0.041
-0.011 -0.021 0.043
-0.027 -0.023 0.037
-0.013 -0.021 0.035
-0.013 -0.023 0.037
-0.019 -0.023 0.037
-0.031 -0.019 0.051
-0.013 -0.017 0.057
-0.017 -0.017 0.055
-0.019 -0.015 0.055
-0.027 -0.009 0.057
-0.027 -0.013 0.063
-0.025 -0.013 0.065
-0.015 -0.015 0.059
-0.041 -0.011 0.069
-0.039 -0.013 0.065
-0.039 -0.013 0.069
-0.043 -0.007 0.071
-0.043 -0.009 0.069
-0.059 -0.003 0.085
-0.051 -0.007 0.083
-0.053 -0.005 0.087
-0.045 -0.009 0.087
-0.039 -0.013 0.083
-0.037 -0.015 0.085
-0.041 -0.013 0.091
-0.043 -0.013 0.093
-0.039 -0.015 0.093
-0.041 -0.015 0.093
-0.049 -0.009 0.097
-0.023 -0.017 0.077
-0.005 -0.019 0.065
-0.001 -0.019 0.079
-0.029 -0.015 0.065
-0.025 -0.015 0.071
-0.009 -0.017 0.069
-0.013 -0.011 0.071
-0.015 -0.011 0.069
-0.009 -0.015 0.073
-0.007 -0.017 0.075
-0.005 -0.019 0.075
-0.023 -0.021 0.085
-0.015 -0.025 0.089
-0.017 -0.025 0.095
-0.035 -0.017 0.097
-0.007 -0.013 0.081
-0.017 -0.025 0.089
-0.017 -0.025 0.093
-0.017 -0.023 0.091
-0.021 -0.023 0.095
-0.059 -0.005 0.101
-0.059 -0.005 0.101
-0.047 -0.003 0.103
-0.023 -0.023 0.099
-0.013 -0.025 0.097
-0.031 -0.021 0.103
-0.029 -0.021 0.103
-0.027 -0.021 0.103
-0.023 -0.023 0.101
-0.027 -0.021 0.103
-0.027 -0.013 0.107
-0.025 -0.013 0.109
-0.021 -0.013 0.109
-0.031 -0.013 0.105
-0.015 -0.025 0.101
-0.015 -0.017 0.107
-0.011 -0.017 0.111
0.013 -0.023 0.043
0.011 -0.019 0.047
0.021 -0.029 0.035
0.019 -0.029 0.037
0.017 -0.027 0.041
0.017 -0.027 0.041
0.021 -0.021 0.047
0.019 -0.023 0.045
0.027 -0.019 0.045
0.011 -0.015 0.035
0.009 -0.011 0.035
0.007 -0.013 0.043
0.025 -0.025 0.037
0.029 -0.017 0.047
0.025 -0.021 0.047
0.023 -0.021 0.049
0.023 -0.021 0.051
0.015 -0.021 0.051
0.013 -0.017 0.057
0.017 -0.021 0.049
0.023 -0.021 0.055
0.023 -0.021 0.049
0.009 -0.015 0.051
0.009 -0.013 0.053
-0.001 -0.019 0.055
-0.003 -0.019 0.055
0.007 -0.011 0.051
0.015 -0.015 0.063
0.015 -0.015 0.063
0.017 -0.017 0.065
0.019 -0.019 0.061
0.041 -0.007 0.037
0.039 -0.005 0.043
0.031 -0.019 0.063
0.043 -0.009 0.063
0.049 -0.003 0.057
0.021 -0.019 0.077
0.025 -0.021 0.073
-0.001 -0.021 0.075
0.023 -0.021 0.081
0.001 -0.019 0.085
0.001 -0.017 0.087
0.005 -0.019 0.087
0.009 -0.021 0.081
0.015 -0.021 0.085
0.025 -0.019 0.087
0.017 -0.019 0.089
-0.003 -0.015 0.083
-0.003 -0.015 0.085
-0.001 -0.015 0.087
0.007 -0.017 0.089
0.003 -0.013 0.091
0.013 -0.013 0.095
0.013 -0.015 0.093
0.027 -0.017 0.087
0.029 -0.017 0.087
0.013 -0.021 0.085
0.027 -0.017 0.087
0.015 -0.017 0.091
0.019 -0.017 0.091
0.021 -0.017 0.091
0.021 -0.015 0.093
0.025 -0.015 0.091
0.033 -0.019 0.071
0.043 -0.009 0.065
0.033 -0.019 0.069
0.041 -0.011 0.069
0.033 -0.019 0.077
0.033 -0.019 0.077
0.045 -0.011 0.073
0.045 -0.011 0.079
0.035 -0.017 0.077
0.043 -0.013 0.075
0.051 -0.009 0.081
0.045 -0.011 0.083
0.043 -0.011 0.081
0.047 -0.007 0.087
0.049 -0.011 0.081
0.047 -0.009 0.085
0.047 -0.009 0.085
0.051 -0.007 0.087
-0.051 -0.003 0.049
-0.049 -0.007 0.041
-0.041 -0.021 0.037
-0.043 -0.019 0.041
-0.043 -0.017 0.041
-0.049 -0.009 0.045
-0.045 -0.013 0.047
-0.043 -0.017 0.051
-0.039 -0.021 0.051
-0.039 -0.021 0.049
-0.045 -0.011 0.063
-0.041 -0.013 0.063
-0.029 -0.017 0.051
-0.017 -0.023 0.039
-0.013 -0.021 0.041
-0.015 -0.023 0.041
-0.017 -0.019 0.049
-0.015 -0.021 0.049
-0.037 -0.019 0.041
-0.029 -0.011 0.057
-0.031 -0.013 0.055
-0.033 -0.013 0.059
-0.033 -0.013 0.063
-0.035 -0.013 0.061
-0.017 -0.017 0.055
-0.011 -0.019 0.057
-0.011 -0.019 0.061
-0.009 -0.019 0.059
-0.037 -0.013 0.071
-0.037 -0.011 0.075
-0.061 0.001 0.085
-0.059 -0.001 0.087
-0.059 -0.001 0.087
-0.061 0.003 0.091
-0.063 0.005 0.093
-0.047 -0.007 0.085
-0.041 -0.013 0.097
-0.009 -0.019 0.067
-0.035 -0.017 0.093
-0.027 -0.021 0.097
-0.053 -0.003 0.103
-0.051 0.003 0.107
-0.037 -0.015 0.097
-0.035 -0.013 0.105
-0.031 -0.019 0.099
-0.033 -0.017 0.099
0.005 0.001 0.037
0.011 -0.015 0.037
0.009 -0.015 0.051
0.017 -0.027 0.039
0.015 -0.025 0.045
0.013 -0.027 0.039
0.013 -0.019 0.039
0.009 -0.017 0.043
0.017 -0.025 0.045
0.019 -0.021 0.049
0.013 -0.019 0.047
0.019 -0.021 0.047
0.011 -0.021 0.041
0.013 -0.019 0.055
0.015 -0.019 0.057
0.015 -0.019 0.057
0.015 -0.021 0.053
0.017 -0.021 0.055
0.017 -0.021 0.057
0.017 -0.021 0.057
0.013 -0.015 0.061
0.029 -0.019 0.041
0.039 -0.005 0.043
0.041 -0.003 0.043
0.023 -0.021 0.051
0.027 -0.019 0.051
0.043 -0.001 0.049
0.039 0.001 0.047
0.037 0.001 0.049
0.025 -0.019 0.053
0.029 -0.017 0.055
0.041 -0.001 0.053
0.039 -0.003 0.057
0.037 -0.003 0.057
0.041 -0.009 0.065
0.041 -0.005 0.059
0.047 -0.003 0.055
0.045 -0.007 0.061
0.017 -0.013 0.071
0.017 -0.013 0.071
0.041 -0.011 0.067
