-0.007 0.005 0.047
-0.027 -0.001 0.063
-0.043 0.001 0.069
-0.033 0.005 0.069
-0.017 -0.003 0.059
-0.013 -0.001 0.063
-0.001 -0.001 0.045
-0.049 0.005 0.105
-0.003 -0.003 0.081
-0.013 -0.011 0.075
-0.005 -0.005 0.079
-0.001 -0.003 0.083
-0.017 -0.005 0.107
-0.011 -0.003 0.095
-0.017 -0.011 0.107
0.023 0.017 0.059
0.033 0.007 0.049
0.021 0.005 0.071
0.031 -0.005 0.043
0.029 0.011 0.057
0.035 -0.005 0.077
0.013 -0.007 0.061
0.017 -0.001 0.053
0.043 0.007 0.061
0.037 0.001 0.057
0.037 -0.009 0.081
0.045 -0.005 0.069
0.035 -0.005 0.079
0.045 -0.005 0.075
-0.005 0.001 0.039
-0.023 0.007 0.053
-0.039 0.007 0.095
-0.021 0.001 0.085
0.025 0.017 0.059
0.047 0.011 0.047
0.035 0.015 0.037
-0.051 -0.005 0.045
-0.049 -0.019 0.039
-0.055 -0.005 0.083
-0.051 -0.007 0.099
-0.041 -0.013 0.095
-0.049 -0.007 0.099
-0.037 -0.017 0.095
-0.035 -0.017 0.099
-0.043 -0.011 0.099
-0.025 -0.023 0.097
-0.027 -0.021 0.107
-0.027 -0.013 0.107
-0.009 -0.019 0.067
-0.031 -0.019 0.097
-0.027 -0.021 0.099
-0.029 -0.019 0.105
0.019 -0.021 0.083
-0.015 -0.015 0.109
-0.005 -0.015 0.113
0.019 -0.007 0.091
0.019 -0.007 0.091
-0.039 0.017 0.033
-0.051 0.003 0.045
-0.047 0.007 0.055
-0.055 -0.003 0.089
-0.061 0.001 0.085
-0.041 -0.001 0.105
-0.041 0.001 0.101
-0.051 -0.005 0.101
-0.041 -0.001 0.105
-0.035 0.001 0.105
-0.033 -0.005 0.105
-0.015 -0.005 0.103
-0.045 -0.023 0.039
-0.017 -0.019 0.051
-0.013 -0.015 0.095
-0.023 -0.023 0.037
-0.035 -0.013 0.105
0.011 -0.021 0.087
-0.007 -0.005 0.089
0.033 -0.011 0.089
0.041 -0.007 0.087
0.021 -0.017 0.091
0.015 -0.005 0.091
0.047 -0.009 0.085
0.007 -0.007 0.091
-0.027 0.005 0.057
0.021 -0.003 0.089
0.017 -0.007 0.091
-0.019 -0.001 0.105
-0.017 -0.003 0.109
-0.025 -0.003 0.105
-0.021 0.001 0.101
0.055 -0.003 0.087
0.025 0.007 0.061
0.045 0.005 0.061
0.049 0.001 0.051
0.025 0.007 0.067
0.027 0.015 0.049
0.027 -0.001 0.061
0.001 0.001 0.067
0.007 -0.001 0.075
0.001 0.001 0.069
-0.033 0.005 0.099
-0.009 -0.003 0.101
0.043 0.005 0.037
0.029 -0.013 0.047
0.047 0.009 0.043
0.047 0.001 0.047
0.035 -0.005 0.079
0.053 -0.005 0.083
0.009 -0.001 0.081
0.045 -0.003 0.071
0.053 -0.005 0.083
-0.021 0.015 0.041
-0.027 0.019 0.045
-0.021 0.015 0.037
-0.023 0.003 0.055
-0.035 0.007 0.087
-0.047 0.003 0.105
-0.023 0.001 0.103
0.037 0.015 0.039
-0.031 0.011 0.055
-0.031 0.013 0.049
-0.029 0.003 0.071
-0.051 -0.001 0.089
-0.041 0.001 0.089
-0.039 0.003 0.101
-0.027 0.003 0.089
-0.023 0.001 0.073
-0.029 -0.001 0.081
-0.005 -0.007 0.081
-0.015 -0.003 0.099
-0.035 -0.005 0.105
-0.021 0.001 0.107
0.025 0.017 0.047
0.013 -0.003 0.053
0.009 0.005 0.039
0.025 0.005 0.069
0.001 -0.001 0.057
0.003 -0.003 0.055
0.003 -0.001 0.063
0.033 -0.003 0.067
0.017 -0.001 0.083
0.007 -0.001 0.073
0.007 -0.001 0.081
0.019 -0.007 0.069
0.021 -0.009 0.093
0.017 -0.011 0.095
0.041 -0.007 0.083
0.051 -0.003 0.085
-0.037 0.023 0.043
-0.027 0.019 0.039
-0.031 0.021 0.045
-0.021 0.015 0.043
-0.011 0.015 0.037
-0.027 0.001 0.059
-0.025 0.003 0.091
-0.053 0.009 0.101
-0.053 0.009 0.105
-0.025 0.003 0.097
0.029 0.013 0.043
0.039 0.015 0.037
0.039 0.009 0.055
-0.033 -0.021 0.043
-0.013 -0.023 0.037
-0.013 -0.023 0.039
0.019 -0.021 0.049
-0.021 -0.017 0.077
-0.017 -0.019 0.093
0.009 -0.019 0.073
0.001 -0.021 0.067
-0.023 -0.017 0.081
-0.013 -0.025 0.097
-0.025 -0.017 0.103
-0.013 -0.025 0.097
-0.007 -0.015 0.107
0.031 -0.019 0.039
0.029 -0.007 0.045
0.025 -0.019 0.055
0.045 -0.001 0.049
0.031 -0.019 0.079
0.041 -0.011 0.073
0.023 -0.019 0.089
0.033 -0.011 0.089
0.043 -0.011 0.079
0.051 -0.009 0.079
0.025 -0.021 0.047
0.027 -0.017 0.053
0.027 -0.017 0.051
0.031 -0.015 0.041
0.033 -0.015 0.039
0.029 -0.013 0.047
0.029 -0.013 0.053
0.025 -0.021 0.061
0.017 -0.021 0.087
0.025 -0.021 0.083
-0.007 -0.007 0.097
0.037 -0.009 0.039
0.049 0.009 0.047
-0.057 0.005 0.093
-0.037 -0.001 0.105
-0.043 -0.009 0.099
-0.025 -0.013 0.111
-0.025 -0.019 0.107
-0.005 -0.019 0.113
-0.001 0.001 0.065
-0.023 0.001 0.105
-0.019 0.001 0.107
-0.003 -0.003 0.081
0.021 -0.013 0.095
0.043 -0.009 0.085
-0.047 0.007 0.049
-0.009 0.007 0.049
-0.051 0.003 0.107
0.005 0.003 0.039
0.023 0.017 0.059
-0.007 -0.015 0.039
-0.013 -0.021 0.035
-0.007 -0.019 0.055
-0.021 -0.009 0.057
-0.007 -0.019 0.069
-0.045 -0.009 0.067
-0.037 -0.015 0.085
-0.025 -0.017 0.075
-0.053 -0.003 0.103
-0.019 -0.023 0.103
0.023 -0.023 0.041
0.013 -0.021 0.045
0.031 -0.019 0.063
0.011 -0.013 0.093
0.031 -0.013 0.089
0.035 -0.017 0.071
0.041 -0.007 0.087
-0.031 -0.021 0.049
-0.035 -0.013 0.061
-0.001 -0.013 0.047
-0.009 -0.019 0.067
0.035 -0.017 0.075
-0.051 -0.019 0.035
-0.049 0.001 0.057
-0.049 0.005 0.045
-0.035 0.005 0.065
-0.017 -0.005 0.059
-0.033 0.005 0.069
-0.029 0.003 0.073
-0.053 0.007 0.091
-0.055 0.005 0.103
-0.049 0.005 0.105
-0.021 0.001 0.087
-0.027 0.003 0.091
-0.037 0.005 0.099
-0.023 -0.007 0.107
-0.015 -0.001 0.103
-0.007 0.001 0.065
-0.003 0.001 0.071
0.011 -0.001 0.079
-0.007 0.003 0.057
0.021 -0.001 0.053
0.019 -0.001 0.057
0.023 -0.001 0.073
0.031 -0.001 0.075
-0.005 -0.005 0.095
0.003 -0.007 0.089
0.029 -0.001 0.075
0.039 -0.001 0.069
0.041 -0.001 0.069
0.031 -0.011 0.091
-0.039 0.005 0.065
-0.029 0.019 0.045
-0.021 0.013 0.047
-0.007 0.005 0.055
-0.055 0.013 0.087
-0.043 0.009 0.099
-0.035 0.005 0.089
-0.053 0.009 0.105
0.001 0.015 0.033
0.015 0.013 0.039
0.015 0.013 0.039
0.017 0.009 0.053
0.021 0.011 0.063
0.037 0.015 0.041
0.043 0.013 0.047
-0.001 0.001 0.071
-0.011 -0.003 0.095
-0.007 -0.005 0.103
-0.007 -0.005 0.097
0.007 -0.009 0.091
0.009 -0.007 0.091
-0.019 -0.009 0.107
-0.027 -0.005 0.105
-0.007 -0.007 0.079
-0.041 -0.005 0.105
-0.019 -0.001 0.109
-0.007 -0.005 0.103
0.033 -0.005 0.083
0.047 -0.005 0.089
0.047 -0.005 0.089
0.029 -0.003 0.083
0.027 0.001 0.047
0.035 -0.005 0.073
0.027 -0.009 0.091
0.019 -0.005 0.091
0.035 -0.015 0.079
0.015 -0.001 0.085
0.009 -0.011 0.095
0.035 -0.013 0.087
-0.033 0.011 0.055
-0.021 0.007 0.051
-0.049 0.007 0.103
-0.035 0.005 0.089
-0.049 0.003 0.107
-0.041 0.007 0.099
-0.045 0.001 0.103
0.025 0.009 0.065
-0.049 -0.009 0.043
-0.007 -0.017 0.045
-0.027 -0.013 0.063
-0.025 -0.013 0.065
-0.029 -0.017 0.085
-0.013 -0.027 0.095
-0.015 -0.025 0.093
0.009 -0.017 0.045
0.017 -0.025 0.045
0.029 -0.017 0.057
-0.001 -0.019 0.061
0.011 -0.013 0.059
0.019 -0.021 0.079
0.011 -0.021 0.077
0.015 -0.017 0.073
0.001 -0.015 0.087
0.007 -0.015 0.091
0.047 -0.007 0.065
0.035 -0.015 0.081
0.047 -0.009 0.085
-0.011 -0.019 0.057
-0.003 -0.019 0.063
-0.059 -0.001 0.087
-0.045 -0.013 0.093
-0.037 -0.015 0.097
-0.027 -0.017 0.079
-0.049 -0.003 0.105
0.011 -0.017 0.055
0.025 -0.021 0.061
0.041 -0.005 0.041
0.041 -0.011 0.069
-0.035 -0.021 0.039
0.019 -0.021 0.053
-0.013 -0.023 0.097
-0.023 -0.021 0.103
-0.001 -0.021 0.065
0.007 -0.021 0.083
0.025 -0.019 0.087
-0.017 -0.025 0.089
-0.017 -0.023 0.091
-0.011 -0.013 0.081
-0.043 -0.009 0.103
-0.013 -0.023 0.097
-0.023 -0.015 0.107
0.035 -0.015 0.037
0.023 -0.021 0.045
0.045 -0.007 0.061
0.005 -0.021 0.079
0.005 -0.021 0.079
0.027 -0.011 0.093
0.035 -0.017 0.077
0.055 -0.005 0.075
0.037 -0.013 0.081
0.045 -0.011 0.083
-0.001 -0.013 0.045
0.005 -0.017 0.063
0.027 -0.021 0.071
0.015 -0.019 0.077
0.005 -0.019 0.087
0.005 -0.019 0.087
0.031 -0.013 0.045
0.033 -0.011 0.043
0.047 -0.003 0.067
0.047 -0.003 0.067
-0.041 0.009 0.039
-0.049 -0.011 0.037
-0.049 -0.003 0.039
-0.051 0.003 0.045
-0.061 0.003 0.085
-0.059 0.009 0.087
-0.053 -0.003 0.095
-0.053 0.005 0.083
-0.005 -0.001 0.075
-0.023 -0.001 0.107
0.013 0.013 0.037
-0.031 0.013 0.049
0.019 0.009 0.059
-0.033 0.003 0.071
0.001 -0.003 0.083
0.007 -0.001 0.077
0.001 -0.001 0.081
0.021 -0.001 0.067
0.023 0.007 0.071
-0.041 0.009 0.039
-0.035 0.021 0.035
-0.037 0.021 0.041
-0.033 0.021 0.045
-0.013 0.003 0.057
-0.053 0.011 0.089
-0.003 0.001 0.065
-0.051 0.009 0.103
0.019 0.005 0.065
-0.011 0.001 0.061
-0.005 0.003 0.057
-0.003 -0.001 0.041
0.001 0.001 0.065
0.009 -0.003 0.073
0.001 -0.001 0.053
-0.039 0.003 0.069
-0.045 0.007 0.089
0.017 -0.001 0.083
-0.019 -0.003 0.073
-0.005 0.001 0.069
-0.047 0.003 0.105
-0.021 0.001 0.101
-0.023 -0.009 0.111
-0.017 -0.011 0.109
-0.019 -0.011 0.109
-0.011 -0.003 0.101
0.049 0.009 0.053
0.031 -0.001 0.069
0.029 -0.001 0.071
0.025 -0.001 0.065
0.015 -0.009 0.093
0.023 -0.001 0.085
0.053 -0.005 0.081
0.049 -0.003 0.083
-0.033 0.021 0.033
-0.035 0.015 0.045
-0.007 0.011 0.043
-0.029 0.005 0.059
-0.033 0.005 0.067
-0.047 0.001 0.105
-0.035 0.005 0.099
0.039 0.015 0.043
0.043 0.015 0.045
0.037 0.011 0.051
0.025 0.015 0.061
0.025 0.015 0.061
0.041 0.013 0.049
0.025 0.005 0.069
-0.035 -0.015 0.083
-0.019 -0.023 0.103
-0.023 -0.021 0.107
-0.001 -0.021 0.073
-0.021 -0.017 0.075
0.003 -0.013 0.091
-0.037 -0.005 0.105
-0.017 -0.025 0.103
-0.011 -0.015 0.111
0.027 -0.019 0.049
0.029 -0.015 0.047
0.035 -0.015 0.067
0.019 -0.021 0.057
0.017 -0.021 0.057
0.035 -0.017 0.067
0.039 -0.011 0.071
0.043 -0.011 0.073
0.009 -0.019 0.071
0.031 -0.019 0.067
0.023 -0.021 0.081
0.025 -0.021 0.083
0.013 -0.013 0.095
0.037 -0.013 0.081
0.005 -0.021 0.083
0.009 -0.013 0.095
0.047 -0.005 0.065
0.047 -0.011 0.075
-0.013 -0.015 0.085
0.001 -0.019 0.085
-0.003 -0.013 0.089
0.007 -0.019 0.087
-0.047 -0.003 0.103
-0.031 -0.011 0.105
-0.023 -0.013 0.113
0.027 -0.021 0.075
0.027 -0.019 0.085
0.035 -0.013 0.083
0.043 -0.011 0.077
0.031 -0.017 0.085
-0.049 0.005 0.045
-0.051 -0.001 0.057
-0.027 0.001 0.073
-0.015 0.003 0.055
-0.005 0.001 0.067
-0.019 -0.007 0.061
-0.043 0.009 0.097
-0.045 0.009 0.099
-0.031 0.005 0.095
-0.019 -0.011 0.109
-0.023 -0.013 0.115
0.007 -0.007 0.049
0.021 0.007 0.067
0.027 -0.001 0.071
0.027 0.011 0.061
0.037 0.001 0.057
0.037 -0.005 0.065
0.045 0.003 0.065
0.025 -0.001 0.073
0.017 -0.011 0.095
0.053 -0.005 0.087
-0.011 0.013 0.037
-0.023 0.017 0.045
-0.057 0.009 0.089
-0.025 0.001 0.101
0.007 0.003 0.039
0.011 0.007 0.045
0.021 0.017 0.043
0.019 0.011 0.061
0.045 0.011 0.055
0.047 0.011 0.051
