-0.019 -0.025 0.033
-0.017 -0.025 0.033
-0.015 -0.023 0.033
-0.025 -0.023 0.031
-0.017 -0.021 0.031
-0.017 -0.023 0.031
-0.017 -0.025 0.033
-0.015 -0.023 0.033
-0.015 -0.023 0.033
-0.013 -0.011 0.031
-0.045 -0.023 0.037
-0.043 -0.021 0.039
-0.045 -0.023 0.039
-0.031 -0.021 0.045
-0.035 -0.021 0.045
-0.025 -0.023 0.035
-0.037 -0.019 0.053
-0.037 -0.017 0.055
-0.037 -0.021 0.049
-0.035 -0.021 0.049
-0.035 -0.019 0.053
-0.035 -0.013 0.061
-0.027 -0.021 0.041
-0.017 -0.023 0.043
-0.015 -0.023 0.041
-0.015 -0.023 0.035
-0.011 -0.019 0.043
-0.009 -0.015 0.037
-0.009 -0.005 0.033
-0.009 -0.019 0.061
-0.023 -0.015 0.051
-0.027 -0.009 0.057
-0.009 -0.019 0.059
-0.011 -0.019 0.057
-0.041 -0.013 0.067
-0.037 -0.013 0.071
-0.029 -0.015 0.077
-0.027 -0.017 0.079
-0.043 -0.011 0.087
-0.035 -0.015 0.087
-0.031 -0.017 0.085
-0.027 -0.019 0.085
-0.041 -0.013 0.083
-0.037 -0.015 0.093
-0.033 -0.017 0.091
-0.037 -0.015 0.093
-0.021 -0.017 0.077
-0.001 -0.021 0.075
-0.023 -0.015 0.069
-0.027 -0.017 0.079
-0.013 -0.013 0.079
0.005 -0.021 0.071
-0.013 -0.013 0.077
0.005 -0.021 0.077
0.003 -0.021 0.073
0.005 -0.021 0.075
0.009 -0.019 0.073
-0.025 -0.021 0.095
-0.015 -0.021 0.093
-0.013 -0.015 0.081
-0.001 -0.019 0.081
0.001 -0.019 0.085
0.003 -0.019 0.085
0.001 -0.019 0.083
-0.003 -0.013 0.087
-0.013 -0.007 0.095
-0.007 -0.007 0.093
-0.023 -0.021 0.103
-0.023 -0.021 0.103
-0.019 -0.025 0.101
-0.015 -0.025 0.101
-0.013 -0.007 0.099
-0.013 -0.007 0.099
-0.019 -0.015 0.109
-0.007 -0.007 0.097
0.023 -0.011 0.031
0.037 -0.013 0.031
0.041 -0.009 0.031
0.043 -0.003 0.031
0.015 -0.027 0.039
0.023 -0.029 0.037
0.027 -0.023 0.039
0.031 -0.019 0.037
0.023 -0.023 0.041
0.023 -0.029 0.037
0.025 -0.025 0.039
0.027 -0.023 0.039
0.027 -0.017 0.035
0.031 -0.017 0.033
0.037 -0.013 0.033
0.003 -0.019 0.063
0.025 -0.021 0.059
0.023 -0.021 0.051
0.025 -0.019 0.053
0.017 -0.019 0.061
0.015 -0.019 0.059
0.017 -0.019 0.061
0.023 -0.021 0.057
0.031 -0.011 0.055
0.031 -0.017 0.059
0.031 -0.019 0.061
0.039 -0.005 0.043
0.033 -0.009 0.057
0.041 -0.005 0.057
0.047 -0.005 0.063
0.005 -0.021 0.077
0.025 -0.021 0.071
0.025 -0.021 0.071
0.025 -0.021 0.073
0.025 -0.021 0.075
0.021 -0.019 0.065
0.011 -0.021 0.087
0.013 -0.019 0.089
0.023 -0.019 0.085
0.013 -0.021 0.085
0.033 -0.013 0.089
0.045 -0.009 0.065
0.045 -0.007 0.069
0.037 -0.015 0.073
0.035 -0.013 0.085
0.051 -0.009 0.083
0.053 -0.009 0.081
-0.011 -0.011 0.033
-0.027 -0.021 0.045
-0.013 -0.021 0.047
-0.011 -0.021 0.043
-0.007 -0.019 0.047
-0.007 -0.015 0.039
-0.025 -0.009 0.059
-0.023 -0.007 0.061
-0.009 -0.011 0.035
-0.007 -0.013 0.039
0.015 -0.021 0.049
0.019 -0.023 0.043
0.015 -0.021 0.047
0.015 -0.021 0.047
0.015 -0.025 0.045
-0.001 -0.013 0.045
-0.001 -0.017 0.051
-0.001 -0.017 0.053
-0.007 -0.019 0.057
0.001 -0.019 0.057
0.011 -0.019 0.053
0.003 -0.017 0.059
-0.031 -0.015 0.065
-0.021 -0.015 0.071
-0.049 -0.007 0.085
-0.039 -0.013 0.091
-0.019 -0.023 0.087
-0.013 -0.015 0.083
-0.019 -0.017 0.083
-0.015 -0.021 0.093
-0.015 -0.011 0.069
-0.015 -0.013 0.073
-0.013 -0.015 0.087
-0.035 -0.017 0.099
-0.019 -0.025 0.101
-0.017 -0.015 0.099
-0.015 -0.025 0.093
-0.015 -0.025 0.097
-0.015 -0.007 0.099
0.033 -0.015 0.033
0.027 -0.023 0.037
0.031 -0.019 0.037
0.035 -0.009 0.041
0.029 -0.003 0.045
0.037 0.001 0.049
0.043 0.001 0.035
0.037 0.001 0.045
0.047 0.009 0.041
0.047 0.005 0.045
0.045 -0.001 0.049
0.047 -0.001 0.051
0.049 -0.001 0.055
0.049 0.003 0.057
-0.023 -0.023 0.039
-0.037 -0.019 0.041
-0.051 -0.005 0.049
-0.049 -0.009 0.045
-0.049 -0.009 0.047
-0.047 -0.011 0.045
-0.037 -0.019 0.053
-0.049 -0.011 0.053
-0.047 -0.011 0.059
-0.033 -0.015 0.053
-0.047 -0.011 0.059
-0.037 -0.013 0.063
-0.031 -0.021 0.041
-0.021 -0.017 0.049
-0.019 -0.023 0.041
-0.013 -0.021 0.049
-0.027 -0.021 0.045
-0.027 -0.017 0.049
-0.017 -0.019 0.045
-0.015 -0.019 0.053
-0.013 -0.021 0.053
-0.007 -0.019 0.059
-0.009 -0.019 0.061
-0.013 -0.013 0.065
-0.007 -0.019 0.057
-0.025 -0.015 0.051
-0.025 -0.011 0.053
-0.033 -0.015 0.069
-0.035 -0.013 0.075
-0.035 -0.013 0.069
-0.045 -0.003 0.069
-0.041 -0.013 0.083
-0.037 -0.013 0.087
-0.061 -0.001 0.085
-0.053 -0.007 0.095
-0.055 -0.007 0.099
-0.037 -0.015 0.089
-0.037 -0.015 0.089
-0.039 -0.015 0.095
-0.039 -0.015 0.099
-0.047 -0.009 0.097
-0.045 -0.007 0.099
-0.041 -0.013 0.097
-0.043 -0.013 0.101
-0.027 -0.019 0.085
-0.013 -0.013 0.067
-0.025 -0.023 0.097
-0.023 -0.023 0.099
-0.019 -0.023 0.087
-0.021 -0.023 0.093
-0.019 -0.025 0.097
-0.015 -0.025 0.095
-0.027 -0.013 0.107
-0.027 -0.021 0.107
-0.001 -0.003 0.083
-0.027 -0.023 0.107
-0.025 -0.023 0.107
-0.025 -0.021 0.109
-0.023 -0.015 0.107
-0.057 -0.005 0.103
-0.053 -0.005 0.101
-0.021 -0.025 0.099
-0.025 -0.023 0.097
-0.027 -0.021 0.099
-0.027 -0.023 0.107
-0.011 -0.017 0.111
-0.025 -0.007 0.107
-0.019 -0.015 0.107
0.011 -0.021 0.043
0.013 -0.021 0.045
0.009 -0.017 0.041
0.017 -0.021 0.051
0.021 -0.021 0.055
-0.001 -0.019 0.055
0.015 -0.021 0.051
0.021 -0.021 0.055
0.013 -0.015 0.061
0.017 -0.019 0.059
0.017 -0.019 0.061
0.009 -0.015 0.051
-0.003 -0.019 0.073
0.015 -0.019 0.075
0.003 -0.021 0.081
0.023 -0.019 0.073
0.017 -0.021 0.087
0.025 -0.021 0.079
0.001 -0.021 0.075
0.003 -0.021 0.073
0.007 -0.021 0.081
0.021 -0.019 0.067
0.001 -0.021 0.077
-0.001 -0.019 0.081
-0.013 -0.025 0.103
0.007 -0.019 0.087
0.015 -0.015 0.093
0.017 -0.017 0.091
0.007 -0.021 0.085
0.003 -0.003 0.085
0.007 -0.007 0.091
0.013 -0.011 0.095
0.021 -0.013 0.095
0.025 -0.021 0.075
0.023 -0.019 0.089
0.031 -0.019 0.081
0.029 -0.017 0.087
0.043 -0.011 0.079
0.027 -0.017 0.089
0.031 -0.015 0.087
0.043 -0.011 0.083
0.043 -0.009 0.085
0.041 -0.007 0.087
0.047 -0.005 0.089
-0.047 -0.009 0.063
-0.031 -0.015 0.065
-0.051 0.001 0.047
-0.051 -0.003 0.057
-0.051 -0.001 0.055
-0.049 -0.003 0.063
-0.049 0.001 0.059
-0.051 0.001 0.055
-0.051 -0.001 0.057
-0.051 0.001 0.055
-0.049 0.003 0.055
-0.045 -0.003 0.069
-0.047 0.001 0.065
-0.041 -0.013 0.059
-0.027 -0.017 0.079
-0.031 -0.015 0.077
-0.047 -0.005 0.065
-0.037 -0.011 0.075
-0.031 -0.015 0.077
-0.033 -0.013 0.079
-0.041 -0.007 0.073
-0.043 -0.003 0.071
-0.037 -0.011 0.075
-0.021 -0.017 0.079
-0.025 -0.019 0.083
-0.025 -0.019 0.085
-0.025 -0.021 0.087
-0.059 -0.003 0.103
-0.059 -0.003 0.103
-0.061 0.005 0.093
-0.045 -0.005 0.101
-0.053 -0.003 0.103
-0.049 -0.003 0.105
-0.043 -0.011 0.087
-0.043 -0.013 0.093
-0.041 -0.013 0.103
-0.039 -0.013 0.103
-0.051 0.001 0.107
-0.041 0.007 0.099
-0.031 -0.003 0.105
-0.005 -0.019 0.065
-0.009 -0.019 0.067
-0.011 -0.015 0.069
-0.013 -0.013 0.067
-0.003 -0.019 0.077
-0.003 -0.019 0.077
0.001 -0.021 0.077
0.003 -0.021 0.079
-0.013 -0.027 0.095
-0.015 -0.025 0.087
-0.019 -0.025 0.101
-0.001 -0.015 0.087
-0.015 -0.023 0.103
-0.001 -0.011 0.089
0.001 -0.011 0.091
-0.017 -0.025 0.103
0.003 -0.019 0.085
0.013 -0.021 0.087
0.019 -0.017 0.091
0.003 -0.013 0.093
-0.021 -0.023 0.037
-0.013 -0.023 0.039
-0.005 -0.015 0.043
-0.045 -0.023 0.039
-0.049 -0.017 0.041
-0.031 -0.021 0.049
-0.027 -0.017 0.049
-0.027 -0.021 0.045
-0.025 -0.017 0.049
-0.015 -0.021 0.051
-0.013 -0.021 0.049
-0.021 -0.019 0.041
-0.015 -0.021 0.049
-0.007 -0.017 0.043
-0.003 -0.013 0.043
-0.001 -0.013 0.045
0.001 -0.015 0.051
-0.003 -0.017 0.049
-0.015 -0.013 0.061
-0.023 -0.007 0.057
-0.027 -0.013 0.063
-0.019 -0.015 0.073
-0.013 -0.015 0.081
-0.015 -0.011 0.065
-0.009 -0.019 0.065
-0.025 -0.021 0.089
-0.049 -0.011 0.095
-0.051 -0.009 0.097
-0.039 -0.015 0.101
-0.041 -0.011 0.103
-0.039 -0.013 0.085
-0.035 -0.017 0.095
-0.029 -0.021 0.099
-0.031 -0.021 0.103
-0.033 -0.017 0.103
-0.031 -0.015 0.103
-0.015 -0.023 0.087
-0.027 -0.015 0.069
-0.011 -0.015 0.089
-0.025 -0.017 0.077
-0.011 -0.013 0.071
0.001 -0.017 0.087
-0.011 -0.013 0.081
-0.005 -0.013 0.085
-0.001 -0.015 0.087
-0.013 -0.027 0.095
-0.021 -0.025 0.099
-0.013 -0.027 0.095
-0.015 -0.025 0.087
-0.019 -0.025 0.099
-0.013 -0.015 0.083
-0.001 -0.017 0.113
-0.007 -0.007 0.101
-0.027 -0.023 0.107
-0.047 -0.005 0.101
-0.031 -0.017 0.103
-0.041 -0.007 0.105
-0.037 -0.003 0.105
-0.015 -0.025 0.097
-0.025 -0.021 0.105
-0.023 -0.019 0.105
-0.009 -0.017 0.111
-0.013 -0.017 0.109
-0.017 -0.013 0.109
-0.019 -0.013 0.115
-0.019 -0.011 0.109
-0.003 -0.019 0.113
0.029 -0.017 0.043
0.029 -0.013 0.047
0.037 -0.009 0.039
0.025 -0.021 0.045
0.019 -0.021 0.049
0.021 -0.021 0.045
0.029 -0.017 0.045
0.027 -0.017 0.053
0.033 -0.009 0.043
0.035 -0.017 0.069
0.003 -0.017 0.059
0.027 -0.017 0.053
0.013 -0.017 0.059
0.013 -0.017 0.057
0.015 -0.017 0.061
0.013 -0.015 0.061
0.011 -0.017 0.071
0.009 -0.017 0.069
0.015 -0.021 0.087
0.035 -0.015 0.065
0.037 -0.007 0.039
0.039 -0.011 0.071
0.045 -0.011 0.079
0.045 -0.009 0.067
0.047 -0.005 0.061
0.043 -0.009 0.065
0.005 -0.019 0.067
0.021 -0.019 0.071
0.023 -0.021 0.083
0.027 -0.021 0.075
0.019 -0.021 0.087
0.021 -0.021 0.085
0.019 -0.015 0.093
0.031 -0.017 0.085
0.031 -0.015 0.087
0.031 -0.013 0.091
0.029 -0.013 0.091
0.033 -0.007 0.085
0.011 -0.017 0.091
0.017 -0.019 0.089
0.025 -0.021 0.083
0.009 -0.013 0.095
0.003 -0.013 0.091
0.005 -0.013 0.093
0.043 -0.011 0.069
0.043 -0.011 0.079
0.053 -0.009 0.081
0.053 -0.009 0.079
0.033 -0.017 0.081
0.035 -0.013 0.087
0.047 -0.005 0.089
0.051 -0.009 0.083
-0.001 -0.021 0.073
0.011 -0.021 0.081
-0.001 -0.017 0.083
0.003 -0.019 0.085
-0.029 -0.013 0.061
-0.023 -0.009 0.055
-0.017 -0.025 0.097
-0.013 -0.025 0.101
-0.011 -0.015 0.087
-0.003 -0.017 0.081
0.005 -0.021 0.071
0.017 -0.021 0.087
0.015 -0.021 0.081
0.015 -0.021 0.083
0.015 -0.021 0.087
0.015 -0.021 0.087
0.003 -0.017 0.087
-0.003 -0.013 0.089
-0.013 -0.013 0.077
0.001 -0.019 0.085
0.001 -0.017 0.087
-0.013 -0.015 0.087
-0.017 -0.015 0.097
-0.041 -0.003 0.105
-0.027 -0.013 0.107
-0.011 -0.017 0.111
-0.015 -0.013 0.109
-0.049 0.001 0.107
-0.045 0.003 0.103
-0.017 -0.005 0.107
0.045 -0.001 0.045
0.021 -0.019 0.067
0.029 -0.019 0.071
0.025 -0.021 0.083
0.033 -0.019 0.077
0.033 -0.019 0.069
0.043 -0.009 0.065
0.041 -0.011 0.079
0.027 -0.019 0.081
0.037 -0.013 0.079
0.035 -0.013 0.085
0.025 0.017 0.059
0.049 -0.011 0.081
0.043 -0.011 0.071
0.047 -0.011 0.079
0.033 -0.013 0.089
