-0.013 -0.023 0.037
-0.013 -0.017 0.035
-0.049 -0.023 0.037
-0.045 -0.023 0.035
-0.043 -0.021 0.037
-0.045 -0.023 0.039
-0.035 -0.021 0.039
-0.039 -0.019 0.041
-0.045 -0.021 0.039
-0.047 -0.019 0.039
-0.049 -0.017 0.041
-0.045 -0.017 0.041
-0.039 -0.021 0.049
-0.039 -0.019 0.053
-0.041 -0.021 0.039
-0.029 -0.021 0.039
-0.027 -0.021 0.041
-0.031 -0.021 0.041
-0.029 -0.021 0.045
-0.035 -0.021 0.045
-0.033 -0.021 0.049
-0.035 -0.021 0.051
-0.037 -0.017 0.055
-0.035 -0.017 0.055
-0.047 -0.011 0.055
-0.047 -0.011 0.059
-0.045 -0.011 0.065
-0.041 -0.019 0.053
-0.031 -0.015 0.053
-0.039 -0.015 0.057
-0.041 -0.013 0.063
-0.017 -0.025 0.033
-0.029 -0.023 0.037
-0.025 -0.023 0.039
-0.019 -0.025 0.035
-0.027 -0.021 0.043
-0.029 -0.021 0.045
-0.011 -0.019 0.043
-0.011 -0.021 0.043
-0.011 -0.021 0.045
-0.007 -0.017 0.043
-0.011 -0.021 0.043
-0.011 -0.021 0.039
-0.007 -0.011 0.037
-0.007 -0.015 0.039
-0.005 -0.009 0.037
-0.007 -0.017 0.043
-0.001 -0.013 0.045
-0.001 -0.013 0.045
0.001 -0.013 0.049
-0.015 -0.021 0.051
-0.015 -0.019 0.053
-0.001 -0.019 0.055
-0.001 -0.019 0.057
-0.011 -0.019 0.057
-0.009 -0.019 0.059
-0.011 -0.019 0.061
-0.009 -0.019 0.063
-0.001 -0.021 0.065
-0.031 -0.017 0.051
-0.025 -0.015 0.051
-0.025 -0.009 0.055
-0.019 -0.013 0.055
-0.021 -0.011 0.055
-0.023 -0.007 0.061
-0.011 -0.019 0.061
-0.011 -0.017 0.065
-0.009 -0.019 0.067
-0.005 -0.019 0.069
-0.039 -0.013 0.069
-0.039 -0.011 0.071
-0.035 -0.013 0.075
-0.031 -0.015 0.079
-0.031 -0.015 0.079
-0.035 -0.013 0.077
-0.031 -0.015 0.079
-0.033 -0.013 0.079
-0.033 -0.017 0.093
-0.055 -0.005 0.083
-0.057 -0.003 0.085
-0.053 -0.003 0.089
-0.049 -0.009 0.093
-0.049 -0.009 0.097
-0.043 -0.011 0.081
-0.035 -0.015 0.085
-0.029 -0.019 0.089
-0.043 -0.011 0.087
-0.039 -0.013 0.091
-0.035 -0.015 0.091
-0.025 -0.021 0.087
-0.039 -0.015 0.093
-0.045 -0.013 0.093
-0.045 -0.011 0.095
-0.035 -0.017 0.093
-0.033 -0.017 0.091
-0.033 -0.017 0.093
-0.035 -0.017 0.095
-0.031 -0.021 0.103
-0.021 -0.025 0.099
-0.031 -0.019 0.101
-0.027 -0.021 0.103
-0.023 -0.021 0.103
-0.021 -0.017 0.077
-0.023 -0.017 0.079
-0.021 -0.017 0.079
-0.019 -0.017 0.079
-0.009 -0.019 0.067
-0.003 -0.021 0.067
-0.001 -0.021 0.069
-0.005 -0.019 0.069
-0.003 -0.021 0.071
-0.021 -0.015 0.071
-0.017 -0.013 0.073
-0.017 -0.013 0.075
-0.017 -0.011 0.071
-0.017 -0.015 0.077
-0.015 -0.013 0.077
-0.013 -0.015 0.081
-0.007 -0.019 0.071
-0.009 -0.017 0.069
-0.007 -0.019 0.071
-0.011 -0.015 0.069
-0.003 -0.019 0.079
-0.013 -0.013 0.077
-0.005 -0.017 0.077
0.003 -0.021 0.081
-0.015 -0.025 0.087
-0.017 -0.025 0.087
-0.025 -0.021 0.089
-0.027 -0.021 0.095
-0.017 -0.025 0.089
-0.017 -0.025 0.095
-0.015 -0.025 0.097
-0.015 -0.025 0.087
-0.015 -0.023 0.087
-0.013 -0.027 0.095
-0.023 -0.023 0.091
-0.011 -0.015 0.089
-0.019 -0.025 0.099
-0.007 -0.013 0.081
-0.007 -0.013 0.085
-0.003 -0.015 0.085
-0.011 -0.015 0.087
-0.013 -0.009 0.087
0.007 -0.019 0.087
-0.013 -0.015 0.095
-0.013 -0.013 0.097
-0.011 -0.007 0.091
-0.055 -0.005 0.101
-0.057 -0.005 0.103
-0.051 -0.007 0.099
-0.039 -0.015 0.099
-0.041 -0.013 0.103
-0.041 -0.011 0.103
-0.033 -0.019 0.101
-0.037 -0.015 0.101
-0.041 -0.011 0.103
-0.043 -0.005 0.103
-0.025 -0.023 0.109
-0.035 -0.009 0.105
-0.033 -0.007 0.105
-0.017 -0.025 0.101
-0.017 -0.025 0.103
-0.015 -0.025 0.103
-0.009 -0.017 0.107
-0.005 -0.019 0.109
-0.005 -0.019 0.111
-0.007 -0.019 0.111
-0.025 -0.023 0.107
-0.015 -0.013 0.099
-0.015 -0.017 0.109
-0.015 -0.013 0.099
-0.019 -0.015 0.107
-0.015 -0.017 0.107
-0.013 -0.017 0.107
-0.023 -0.015 0.105
-0.025 -0.013 0.105
-0.021 -0.013 0.111
-0.021 -0.013 0.113
-0.021 -0.013 0.109
-0.019 -0.015 0.109
-0.015 -0.017 0.109
-0.015 -0.015 0.097
-0.011 -0.007 0.097
-0.011 -0.007 0.097
-0.007 -0.019 0.109
-0.005 -0.019 0.109
-0.005 -0.007 0.101
-0.013 -0.017 0.107
-0.007 -0.019 0.111
-0.005 -0.019 0.111
-0.023 -0.013 0.113
0.029 -0.019 0.037
0.029 -0.021 0.039
0.027 -0.021 0.041
0.031 -0.017 0.039
0.033 -0.017 0.037
0.039 -0.011 0.033
0.041 -0.009 0.035
0.043 -0.007 0.035
0.013 -0.027 0.039
0.019 -0.025 0.041
0.019 -0.023 0.043
0.011 -0.023 0.043
0.011 -0.023 0.043
0.021 -0.029 0.035
0.021 -0.029 0.035
0.023 -0.029 0.037
0.021 -0.027 0.039
0.021 -0.025 0.041
0.021 -0.025 0.041
0.025 -0.025 0.039
0.025 -0.025 0.039
0.025 -0.023 0.041
0.025 -0.025 0.039
0.027 -0.023 0.039
0.023 -0.021 0.045
0.025 -0.021 0.047
0.017 -0.027 0.041
0.017 -0.025 0.045
0.017 -0.025 0.043
0.019 -0.023 0.045
0.021 -0.021 0.047
0.019 -0.021 0.051
0.017 -0.021 0.053
0.027 -0.023 0.039
0.031 -0.019 0.039
0.027 -0.021 0.043
0.029 -0.017 0.043
0.029 -0.017 0.047
0.031 -0.017 0.041
0.031 -0.015 0.041
0.031 -0.013 0.043
0.027 -0.015 0.049
0.031 -0.007 0.043
0.029 -0.011 0.047
0.015 -0.021 0.051
0.015 -0.019 0.057
0.001 -0.019 0.061
0.005 -0.017 0.063
0.021 -0.021 0.053
0.027 -0.019 0.051
0.025 -0.019 0.055
0.001 -0.015 0.051
0.011 -0.017 0.055
0.013 -0.017 0.059
0.005 -0.013 0.061
0.029 -0.017 0.057
0.029 -0.009 0.053
0.031 -0.017 0.059
0.031 -0.019 0.067
0.033 -0.017 0.063
0.033 -0.019 0.069
0.035 -0.017 0.069
0.033 -0.017 0.035
0.039 -0.009 0.037
0.041 -0.009 0.035
0.039 -0.007 0.039
0.043 -0.003 0.039
0.039 -0.001 0.053
0.043 -0.003 0.053
0.035 -0.015 0.063
0.033 -0.011 0.059
0.037 -0.011 0.065
0.037 -0.013 0.067
0.005 -0.019 0.067
0.023 -0.019 0.069
0.025 -0.019 0.067
0.019 -0.021 0.079
0.019 -0.021 0.081
0.027 -0.021 0.075
0.031 -0.019 0.079
0.019 -0.021 0.079
0.011 -0.021 0.087
0.021 -0.021 0.085
0.027 -0.021 0.073
0.029 -0.019 0.077
0.037 -0.015 0.071
0.033 -0.015 0.083
0.003 -0.021 0.081
0.001 -0.019 0.083
0.007 -0.021 0.085
0.013 -0.021 0.083
0.015 -0.021 0.087
0.017 -0.021 0.083
0.017 -0.019 0.089
0.021 -0.019 0.089
0.023 -0.019 0.089
0.005 -0.017 0.089
0.009 -0.019 0.089
0.011 -0.017 0.091
0.007 -0.017 0.089
0.011 -0.017 0.091
0.017 -0.015 0.093
0.003 -0.015 0.089
0.005 -0.015 0.089
0.003 -0.013 0.091
0.005 -0.013 0.093
0.009 -0.013 0.095
0.011 -0.013 0.093
0.019 -0.013 0.095
0.031 -0.017 0.083
0.027 -0.015 0.089
0.035 -0.013 0.087
0.031 -0.013 0.089
0.031 -0.013 0.091
0.031 -0.013 0.089
0.025 -0.017 0.089
0.023 -0.017 0.091
0.025 -0.015 0.091
0.019 -0.013 0.095
0.029 -0.015 0.089
0.029 -0.013 0.091
0.021 -0.015 0.093
0.037 -0.011 0.065
0.041 -0.011 0.071
0.045 -0.011 0.071
0.039 -0.011 0.069
0.037 -0.015 0.071
0.037 -0.013 0.075
0.041 -0.011 0.071
0.047 -0.003 0.067
0.047 -0.009 0.073
0.035 -0.017 0.079
0.033 -0.017 0.081
0.037 -0.013 0.079
0.047 -0.011 0.079
0.037 -0.013 0.081
0.047 -0.011 0.075
0.043 -0.011 0.079
0.045 -0.011 0.081
0.055 -0.007 0.079
0.033 -0.015 0.083
0.033 -0.015 0.085
0.033 -0.013 0.087
0.041 -0.007 0.087
0.051 -0.009 0.083
0.055 -0.005 0.087
-0.025 -0.021 0.043
-0.023 -0.019 0.043
-0.013 -0.021 0.045
-0.017 -0.019 0.045
-0.013 -0.021 0.047
-0.009 -0.017 0.043
-0.009 -0.019 0.045
-0.011 -0.019 0.053
-0.037 -0.019 0.053
-0.033 -0.013 0.055
-0.027 -0.013 0.053
-0.027 -0.011 0.053
-0.025 -0.009 0.055
-0.021 -0.011 0.055
-0.029 -0.011 0.057
-0.019 -0.017 0.053
-0.015 -0.017 0.055
-0.013 -0.019 0.055
-0.011 -0.019 0.057
-0.021 -0.013 0.055
-0.013 -0.017 0.057
-0.011 -0.019 0.059
-0.011 -0.017 0.063
-0.035 -0.013 0.059
-0.031 -0.015 0.065
-0.027 -0.013 0.065
-0.023 -0.007 0.061
-0.023 -0.009 0.063
-0.021 -0.009 0.065
-0.035 -0.013 0.069
-0.023 -0.015 0.073
-0.009 -0.019 0.049
-0.005 -0.017 0.047
-0.011 -0.019 0.053
-0.011 -0.019 0.055
-0.007 -0.019 0.057
-0.001 -0.017 0.051
-0.009 -0.019 0.055
-0.005 -0.019 0.055
-0.005 -0.019 0.055
-0.005 -0.019 0.057
-0.017 -0.013 0.059
-0.009 -0.019 0.065
-0.001 -0.021 0.063
-0.003 -0.013 0.043
-0.003 -0.005 0.039
0.001 -0.015 0.051
-0.005 0.007 0.035
-0.005 0.007 0.037
0.011 -0.019 0.053
-0.001 -0.019 0.059
-0.003 -0.019 0.059
0.001 -0.013 0.049
0.001 -0.015 0.051
-0.001 -0.019 0.059
0.003 -0.011 0.053
-0.005 -0.019 0.057
-0.005 -0.019 0.055
-0.009 -0.019 0.063
-0.011 -0.017 0.065
-0.009 -0.019 0.067
-0.007 -0.019 0.063
-0.021 -0.007 0.063
-0.021 -0.013 0.069
-0.019 -0.015 0.073
0.003 -0.019 0.063
-0.003 -0.021 0.067
0.001 -0.019 0.065
-0.001 -0.021 0.067
0.001 -0.021 0.073
0.005 -0.021 0.071
-0.035 -0.013 0.073
-0.027 -0.017 0.075
-0.023 -0.017 0.077
-0.025 -0.017 0.079
-0.029 -0.015 0.079
-0.017 -0.025 0.087
-0.059 -0.001 0.087
-0.055 -0.003 0.087
-0.055 -0.003 0.087
-0.047 -0.007 0.087
-0.041 -0.013 0.097
-0.035 -0.017 0.095
-0.033 -0.017 0.099
-0.047 -0.011 0.095
-0.039 -0.015 0.097
-0.039 -0.015 0.099
-0.031 -0.019 0.101
-0.027 -0.021 0.097
-0.029 -0.021 0.099
-0.019 -0.025 0.097
-0.019 -0.025 0.097
-0.027 -0.021 0.097
-0.027 -0.021 0.097
-0.023 -0.023 0.099
-0.021 -0.025 0.099
-0.027 -0.023 0.107
-0.019 -0.025 0.101
-0.023 -0.019 0.103
-0.017 -0.017 0.083
-0.015 -0.019 0.087
0.007 -0.021 0.081
-0.015 -0.025 0.101
-0.013 -0.025 0.103
-0.015 -0.025 0.103
-0.041 -0.013 0.103
-0.047 -0.003 0.103
-0.043 -0.009 0.103
-0.055 -0.001 0.105
-0.047 0.003 0.105
-0.049 0.001 0.107
-0.021 -0.015 0.103
-0.017 -0.015 0.105
-0.015 -0.017 0.107
0.027 -0.021 0.043
0.031 -0.015 0.043
0.031 -0.015 0.043
0.041 -0.007 0.037
0.043 -0.005 0.037
0.015 -0.021 0.047
0.025 -0.021 0.049
0.021 -0.021 0.049
0.019 -0.021 0.053
0.021 -0.021 0.053
0.021 -0.021 0.055
0.023 -0.021 0.051
0.025 -0.019 0.053
0.023 -0.021 0.057
0.021 -0.021 0.057
0.021 -0.021 0.059
0.023 -0.021 0.061
0.033 -0.013 0.041
0.033 -0.013 0.041
0.029 -0.013 0.047
0.031 -0.011 0.045
0.027 -0.013 0.049
0.027 -0.013 0.049
0.027 -0.017 0.053
0.033 -0.001 0.045
0.029 -0.017 0.057
0.029 -0.009 0.051
0.033 0.001 0.047
0.033 0.001 0.047
0.029 -0.017 0.057
0.029 -0.019 0.061
0.029 -0.019 0.061
0.031 -0.019 0.063
0.035 -0.011 0.061
0.025 -0.021 0.061
0.027 -0.019 0.059
0.027 -0.019 0.061
0.031 -0.017 0.061
0.031 -0.019 0.067
0.037 -0.011 0.067
0.031 -0.019 0.071
0.031 -0.019 0.073
0.033 -0.019 0.071
0.037 -0.013 0.069
0.043 -0.003 0.039
0.045 0.001 0.039
0.041 -0.003 0.043
0.045 0.003 0.041
0.047 0.003 0.043
0.047 0.003 0.043
0.047 0.005 0.045
0.039 0.001 0.051
0.043 -0.001 0.049
0.039 -0.001 0.053
0.035 0.003 0.051
0.049 -0.001 0.057
0.049 0.001 0.059
0.031 -0.019 0.081
0.033 -0.017 0.081
0.033 -0.019 0.077
