-0.013 -0.023 0.037
0.031 -0.017 0.059
0.025 -0.019 0.055
0.031 -0.015 0.057
0.035 -0.013 0.063
0.031 -0.009 0.055
-0.037 -0.021 0.039
-0.013 -0.021 0.049
-0.027 -0.021 0.045
-0.029 -0.019 0.049
0.037 -0.013 0.075
0.043 -0.013 0.075
0.033 -0.017 0.081
0.035 -0.013 0.083
0.033 -0.013 0.089
0.033 -0.013 0.089
0.029 -0.017 0.087
0.031 -0.013 0.091
-0.017 -0.025 0.035
-0.017 -0.023 0.043
-0.015 -0.023 0.041
0.025 -0.019 0.067
0.025 -0.019 0.053
-0.011 -0.021 0.039
0.023 -0.021 0.055
0.025 -0.019 0.053
0.033 -0.011 0.059
0.029 -0.017 0.055
0.031 -0.007 0.053
0.047 -0.007 0.065
0.047 -0.007 0.065
0.031 -0.017 0.059
0.027 -0.021 0.069
0.033 -0.019 0.069
0.027 -0.021 0.075
0.033 -0.019 0.077
0.033 -0.015 0.085
0.033 -0.007 0.085
0.047 -0.009 0.085
0.033 -0.017 0.065
0.025 -0.009 0.091
0.021 -0.007 0.091
0.019 -0.017 0.091
0.017 -0.015 0.093
0.011 -0.007 0.091
0.015 -0.007 0.091
-0.005 -0.007 0.101
-0.015 -0.009 0.095
-0.015 -0.011 0.095
-0.015 -0.009 0.095
-0.015 -0.009 0.095
-0.005 -0.005 0.095
-0.015 -0.015 0.099
-0.015 -0.011 0.097
-0.015 -0.013 0.099
-0.015 -0.011 0.095
-0.019 -0.017 0.099
-0.019 -0.007 0.103
-0.015 -0.009 0.097
-0.005 -0.007 0.101
0.011 -0.019 0.089
-0.017 -0.017 0.083
0.025 -0.021 0.079
0.025 -0.021 0.083
0.013 -0.021 0.081
0.031 -0.015 0.087
0.027 -0.007 0.089
0.033 -0.015 0.083
0.035 -0.009 0.085
0.033 -0.011 0.089
0.023 -0.017 0.091
0.029 -0.009 0.089
-0.015 -0.019 0.087
-0.017 -0.017 0.083
-0.015 -0.021 0.087
-0.015 -0.019 0.087
-0.013 -0.025 0.097
-0.011 -0.015 0.089
-0.007 -0.005 0.103
-0.011 -0.013 0.087
-0.011 -0.015 0.091
-0.013 -0.015 0.095
-0.009 -0.007 0.093
-0.007 -0.005 0.093
-0.005 -0.007 0.095
-0.019 -0.019 0.101
-0.013 -0.011 0.107
-0.023 -0.007 0.107
-0.017 -0.005 0.107
-0.021 -0.005 0.105
-0.015 -0.021 0.097
-0.019 -0.017 0.099
-0.025 -0.019 0.107
-0.023 -0.019 0.105
-0.005 -0.015 0.113
-0.009 -0.013 0.109
-0.023 -0.009 0.111
-0.009 -0.013 0.111
-0.017 -0.003 0.109
-0.007 -0.015 0.109
-0.005 -0.015 0.113
-0.007 -0.015 0.107
0.037 -0.013 0.037
0.041 -0.005 0.041
0.043 -0.005 0.033
0.027 -0.019 0.045
0.027 -0.019 0.051
0.025 -0.021 0.049
0.023 -0.027 0.037
0.023 -0.027 0.033
0.033 -0.017 0.037
0.031 -0.017 0.041
0.031 -0.017 0.041
0.027 -0.017 0.053
0.027 -0.015 0.053
0.029 -0.017 0.055
0.031 -0.017 0.041
0.033 -0.015 0.039
0.035 -0.011 0.039
0.035 -0.009 0.041
0.027 -0.009 0.047
0.029 -0.007 0.045
0.025 -0.021 0.059
0.027 -0.019 0.057
0.025 -0.021 0.063
0.037 -0.013 0.067
0.037 -0.013 0.069
0.033 -0.017 0.063
0.037 -0.013 0.067
0.037 -0.013 0.071
0.047 -0.011 0.077
0.047 -0.011 0.075
0.047 -0.005 0.063
0.055 -0.007 0.075
0.051 -0.009 0.077
0.045 -0.009 0.065
0.055 -0.007 0.075
0.033 -0.017 0.035
0.043 -0.001 0.033
0.033 -0.013 0.041
0.035 -0.009 0.059
0.047 -0.003 0.063
0.025 -0.021 0.079
0.033 -0.019 0.075
0.031 -0.019 0.079
0.037 -0.013 0.081
0.039 -0.011 0.079
0.037 -0.013 0.081
0.049 -0.007 0.087
0.047 -0.005 0.089
0.027 -0.003 0.087
0.049 -0.011 0.079
0.051 -0.009 0.083
0.055 -0.005 0.085
0.021 -0.021 0.087
0.013 -0.017 0.091
0.019 -0.011 0.095
0.015 -0.013 0.095
0.017 -0.015 0.093
0.017 -0.009 0.093
0.013 -0.007 0.091
0.017 -0.007 0.091
0.047 -0.005 0.089
0.027 -0.015 0.089
0.029 -0.015 0.089
0.029 -0.011 0.091
0.055 -0.007 0.077
0.055 -0.007 0.079
0.035 -0.011 0.087
0.049 -0.011 0.081
0.045 -0.007 0.087
0.047 -0.005 0.089
0.047 -0.003 0.087
0.055 -0.005 0.085
0.045 -0.007 0.069
0.047 -0.007 0.065
0.045 0.003 0.065
0.047 0.001 0.063
0.049 0.001 0.059
0.049 0.005 0.059
0.027 0.009 0.059
0.057 -0.005 0.081
0.023 0.003 0.065
0.055 -0.005 0.087
0.053 -0.003 0.085
0.055 -0.003 0.087
0.023 0.003 0.071
0.023 0.003 0.069
0.025 0.007 0.067
0.023 0.007 0.069
0.023 0.009 0.067
0.025 -0.003 0.087
0.027 0.007 0.059
0.025 0.005 0.061
0.023 0.007 0.071
0.025 0.007 0.067
0.027 0.009 0.059
0.049 0.001 0.061
0.047 0.007 0.059
0.041 -0.001 0.069
0.045 -0.003 0.069
0.027 0.009 0.059
0.025 0.011 0.065
0.053 -0.003 0.087
0.055 -0.005 0.085
0.031 -0.001 0.069
0.051 -0.003 0.081
0.051 -0.003 0.081
0.055 -0.005 0.075
-0.007 0.007 0.049
-0.049 0.009 0.089
-0.043 0.007 0.087
-0.025 0.003 0.097
-0.009 -0.003 0.095
-0.031 0.003 0.093
-0.029 0.003 0.091
-0.029 0.005 0.097
-0.035 0.007 0.097
-0.021 -0.001 0.081
0.047 -0.005 0.089
-0.023 0.001 0.093
-0.017 -0.003 0.109
-0.037 0.005 0.099
-0.019 0.001 0.107
-0.023 0.001 0.103
-0.035 0.007 0.097
-0.019 -0.001 0.105
-0.019 -0.001 0.107
0.049 0.003 0.055
0.049 0.005 0.059
0.049 0.003 0.061
0.045 0.001 0.041
0.047 0.003 0.043
0.047 0.009 0.055
0.047 0.009 0.055
0.027 0.015 0.047
0.029 0.011 0.057
0.027 0.007 0.059
0.029 0.015 0.053
0.025 0.007 0.063
0.027 0.009 0.063
0.025 0.009 0.065
0.043 0.001 0.035
0.045 0.001 0.039
0.045 0.011 0.039
0.049 -0.001 0.053
0.045 0.013 0.045
0.043 0.015 0.043
0.049 0.003 0.057
0.049 0.007 0.057
0.047 0.011 0.049
0.047 0.003 0.063
0.049 0.007 0.057
0.047 0.003 0.063
0.049 0.009 0.053
0.049 0.001 0.057
0.023 0.003 0.067
0.023 0.003 0.071
0.025 0.005 0.069
0.025 0.007 0.067
-0.023 -0.025 0.033
-0.033 -0.019 0.033
-0.015 -0.023 0.035
-0.049 -0.023 0.037
-0.047 -0.023 0.039
-0.053 -0.017 0.035
-0.047 -0.023 0.037
-0.043 -0.019 0.041
-0.049 -0.021 0.039
-0.039 -0.021 0.039
-0.045 -0.023 0.039
-0.049 -0.021 0.039
-0.049 -0.021 0.039
-0.047 -0.017 0.041
-0.041 -0.019 0.045
-0.047 -0.011 0.041
-0.047 -0.011 0.043
-0.049 -0.007 0.059
-0.043 -0.017 0.053
-0.045 -0.013 0.057
-0.041 -0.013 0.063
-0.025 -0.023 0.033
-0.033 -0.021 0.037
-0.029 -0.021 0.047
-0.013 -0.023 0.037
-0.013 -0.021 0.045
-0.019 -0.025 0.035
-0.023 -0.023 0.037
-0.013 -0.023 0.037
-0.009 -0.017 0.041
-0.007 -0.017 0.045
-0.001 -0.019 0.055
-0.011 -0.019 0.057
-0.029 -0.013 0.063
-0.027 -0.011 0.061
-0.029 -0.013 0.061
-0.029 -0.013 0.063
-0.029 -0.015 0.065
-0.027 -0.013 0.065
-0.019 -0.009 0.061
-0.015 -0.017 0.055
-0.015 -0.013 0.063
-0.017 -0.009 0.061
-0.041 -0.013 0.067
-0.043 -0.011 0.069
-0.037 -0.013 0.067
-0.047 -0.007 0.065
-0.033 -0.015 0.073
-0.035 -0.011 0.079
-0.041 -0.009 0.073
-0.039 -0.009 0.075
-0.033 -0.017 0.093
-0.057 -0.003 0.083
-0.059 -0.001 0.087
-0.045 -0.009 0.087
-0.033 -0.015 0.083
-0.037 -0.015 0.085
-0.045 -0.009 0.085
-0.039 -0.013 0.085
-0.041 -0.013 0.091
-0.043 -0.013 0.093
-0.043 -0.005 0.089
-0.023 -0.017 0.077
-0.017 -0.017 0.079
-0.007 -0.019 0.071
-0.001 -0.021 0.073
-0.003 -0.019 0.079
-0.019 -0.013 0.071
-0.031 -0.015 0.077
-0.013 -0.011 0.069
-0.015 -0.011 0.069
-0.011 -0.011 0.073
-0.005 -0.017 0.079
-0.009 -0.013 0.077
-0.027 -0.017 0.081
-0.025 -0.021 0.091
-0.023 -0.023 0.093
-0.019 -0.023 0.095
-0.001 -0.019 0.081
-0.025 -0.019 0.083
-0.023 -0.021 0.089
-0.003 -0.017 0.081
-0.003 -0.015 0.083
-0.017 -0.025 0.089
-0.003 -0.015 0.083
-0.003 -0.015 0.083
-0.001 -0.013 0.089
-0.015 -0.025 0.095
-0.009 -0.007 0.089
-0.057 -0.005 0.101
-0.059 -0.005 0.101
-0.057 -0.001 0.105
-0.049 -0.007 0.099
-0.053 -0.007 0.099
-0.051 -0.003 0.103
-0.045 -0.011 0.097
-0.041 -0.013 0.103
-0.037 -0.015 0.097
-0.045 -0.007 0.099
-0.047 -0.003 0.103
-0.037 -0.011 0.105
-0.031 -0.021 0.103
-0.027 -0.021 0.101
-0.017 -0.025 0.097
-0.023 -0.023 0.101
-0.021 -0.023 0.101
-0.031 -0.013 0.105
-0.023 -0.021 0.107
-0.025 -0.021 0.105
-0.019 -0.025 0.097
-0.007 -0.007 0.097
-0.013 -0.015 0.105
0.019 -0.015 0.033
0.015 -0.015 0.033
0.021 -0.029 0.035
0.013 -0.023 0.043
0.015 -0.025 0.045
0.021 -0.029 0.037
0.021 -0.027 0.039
0.015 -0.027 0.041
0.019 -0.027 0.041
0.021 -0.023 0.043
0.021 -0.021 0.045
0.011 -0.015 0.037
0.009 -0.013 0.037
0.009 -0.011 0.037
0.007 -0.013 0.045
0.007 -0.013 0.049
0.009 -0.015 0.043
0.017 -0.027 0.037
0.019 -0.027 0.039
0.027 -0.019 0.047
0.023 -0.021 0.049
0.025 -0.021 0.049
0.009 -0.017 0.049
0.015 -0.021 0.049
0.005 -0.017 0.063
0.027 -0.019 0.051
0.019 -0.021 0.059
0.027 -0.019 0.057
0.027 -0.019 0.059
0.031 -0.019 0.061
0.011 -0.017 0.055
-0.001 -0.019 0.057
0.001 -0.019 0.059
0.025 -0.019 0.053
0.025 -0.019 0.055
0.021 -0.021 0.057
0.017 -0.017 0.063
0.023 -0.021 0.063
0.023 -0.019 0.065
0.023 -0.019 0.065
0.031 -0.017 0.041
0.039 -0.011 0.035
0.031 -0.017 0.041
0.045 -0.003 0.055
0.041 -0.007 0.061
0.001 -0.021 0.073
0.003 -0.021 0.073
0.015 -0.017 0.073
0.011 -0.019 0.075
0.021 -0.019 0.071
0.009 -0.019 0.071
0.003 -0.021 0.081
0.009 -0.021 0.081
0.021 -0.019 0.069
0.013 -0.021 0.079
0.025 -0.021 0.075
0.007 -0.021 0.085
0.001 -0.019 0.085
0.015 -0.021 0.083
0.021 -0.021 0.081
0.017 -0.019 0.089
0.003 -0.015 0.089
-0.001 -0.013 0.089
0.009 -0.015 0.091
0.027 -0.017 0.087
0.027 -0.017 0.087
0.025 -0.013 0.093
0.031 -0.019 0.069
0.033 -0.019 0.077
0.037 -0.015 0.071
0.029 -0.019 0.067
0.033 -0.019 0.073
0.043 -0.011 0.073
0.047 -0.011 0.075
0.051 -0.007 0.073
0.049 -0.009 0.075
0.047 -0.011 0.079
0.055 -0.007 0.079
0.031 -0.017 0.085
0.039 -0.011 0.081
0.041 -0.009 0.083
0.045 -0.009 0.085
0.049 -0.009 0.085
-0.051 -0.007 0.047
-0.051 -0.007 0.049
-0.043 -0.013 0.043
-0.039 -0.021 0.051
-0.043 -0.013 0.043
-0.043 -0.017 0.047
-0.051 -0.005 0.055
-0.027 -0.021 0.043
-0.031 -0.021 0.045
-0.023 -0.017 0.047
-0.015 -0.023 0.039
-0.013 -0.021 0.049
-0.035 -0.019 0.041
-0.021 -0.013 0.055
-0.033 -0.013 0.061
-0.015 -0.017 0.055
-0.015 -0.017 0.057
-0.015 -0.013 0.063
-0.043 -0.007 0.071
-0.061 0.001 0.087
-0.059 -0.001 0.087
-0.055 0.003 0.091
-0.049 -0.007 0.085
-0.041 -0.013 0.097
-0.035 -0.013 0.067
-0.027 -0.017 0.077
-0.025 -0.021 0.087
-0.053 -0.003 0.103
-0.051 0.001 0.107
-0.039 -0.013 0.103
-0.029 -0.021 0.099
0.013 -0.017 0.035
0.005 0.001 0.037
0.007 -0.013 0.041
0.007 -0.013 0.043
0.009 0.001 0.035
0.005 0.001 0.035
0.007 -0.013 0.043
0.013 -0.019 0.051
0.019 -0.021 0.049
0.009 -0.017 0.049
0.017 -0.021 0.047
0.019 -0.021 0.051
0.013 -0.019 0.053
0.015 -0.019 0.055
0.015 -0.011 0.065
0.013 -0.015 0.061
0.039 -0.007 0.039
0.037 -0.009 0.039
0.045 -0.001 0.045
0.041 -0.001 0.049
0.045 -0.001 0.049
0.025 -0.019 0.053
0.029 -0.017 0.055
0.031 -0.019 0.061
0.041 -0.007 0.061
0.031 -0.019 0.067
