-0.031 -0.011 0.031
-0.039 -0.007 0.031
-0.017 -0.023 0.031
-0.021 -0.023 0.031
-0.021 -0.025 0.033
-0.011 -0.009 0.031
-0.047 -0.023 0.035
-0.047 -0.023 0.037
-0.035 -0.021 0.035
-0.043 -0.019 0.041
-0.035 -0.021 0.043
-0.035 -0.021 0.043
-0.033 -0.021 0.047
-0.045 -0.023 0.039
-0.041 -0.021 0.039
-0.047 -0.011 0.043
-0.047 -0.011 0.045
-0.047 -0.011 0.047
-0.043 -0.021 0.035
-0.043 -0.021 0.035
-0.043 -0.021 0.035
-0.041 -0.017 0.035
-0.029 -0.023 0.033
-0.043 -0.019 0.041
-0.045 -0.013 0.043
-0.045 -0.013 0.045
-0.037 -0.019 0.041
-0.041 -0.017 0.055
-0.039 -0.021 0.051
-0.035 -0.021 0.051
-0.047 -0.013 0.049
-0.047 -0.011 0.057
-0.047 -0.013 0.049
-0.039 -0.021 0.049
-0.041 -0.019 0.053
-0.041 -0.019 0.053
-0.035 -0.017 0.055
-0.043 -0.013 0.059
-0.033 -0.013 0.057
-0.045 -0.011 0.063
-0.043 -0.011 0.063
-0.029 -0.023 0.035
-0.031 -0.023 0.037
-0.027 -0.023 0.037
-0.031 -0.021 0.039
-0.019 -0.025 0.033
-0.029 -0.021 0.047
-0.017 -0.023 0.041
-0.013 -0.021 0.035
-0.015 -0.023 0.037
-0.015 -0.021 0.045
-0.023 -0.023 0.035
-0.011 -0.013 0.035
-0.007 -0.013 0.037
-0.009 -0.005 0.033
-0.007 -0.009 0.035
-0.003 -0.013 0.043
-0.003 -0.011 0.041
-0.003 -0.013 0.043
-0.001 -0.013 0.047
-0.001 -0.013 0.047
-0.005 -0.019 0.055
-0.011 -0.019 0.057
-0.003 -0.019 0.059
-0.021 -0.015 0.053
-0.023 -0.013 0.053
-0.017 -0.017 0.055
-0.023 -0.009 0.055
-0.015 -0.017 0.055
-0.029 -0.011 0.059
-0.015 -0.017 0.057
-0.025 -0.007 0.057
-0.023 -0.007 0.061
-0.003 -0.017 0.049
-0.013 -0.017 0.059
0.003 -0.017 0.057
-0.041 -0.013 0.067
-0.043 -0.011 0.069
-0.037 -0.013 0.065
-0.033 -0.015 0.071
-0.041 -0.011 0.071
-0.035 -0.013 0.077
-0.035 -0.013 0.077
-0.029 -0.015 0.077
-0.037 -0.017 0.095
-0.035 -0.017 0.093
-0.055 -0.005 0.083
-0.051 -0.007 0.083
-0.049 -0.007 0.083
-0.049 -0.011 0.095
-0.053 -0.003 0.089
-0.049 -0.011 0.095
-0.035 -0.015 0.083
-0.035 -0.015 0.083
-0.031 -0.013 0.081
-0.031 -0.017 0.085
-0.029 -0.017 0.083
-0.045 -0.009 0.081
-0.045 -0.009 0.083
-0.037 -0.013 0.083
-0.035 -0.015 0.085
-0.031 -0.017 0.083
-0.037 -0.015 0.089
-0.029 -0.019 0.089
-0.037 -0.013 0.091
-0.045 -0.003 0.089
-0.029 -0.019 0.089
-0.027 -0.017 0.079
-0.023 -0.017 0.075
-0.017 -0.017 0.079
-0.007 -0.019 0.065
-0.001 -0.021 0.069
-0.027 -0.015 0.067
-0.023 -0.013 0.067
-0.017 -0.011 0.071
-0.023 -0.013 0.067
-0.021 -0.009 0.065
-0.019 -0.017 0.077
-0.011 -0.017 0.067
-0.007 -0.019 0.069
-0.009 -0.017 0.069
-0.011 -0.015 0.069
-0.013 -0.011 0.071
-0.003 -0.021 0.065
-0.009 -0.015 0.073
-0.007 -0.017 0.073
-0.015 -0.013 0.075
-0.001 -0.021 0.073
0.001 -0.021 0.075
0.003 -0.021 0.073
-0.031 -0.017 0.083
-0.025 -0.019 0.083
-0.025 -0.021 0.087
-0.021 -0.017 0.081
-0.019 -0.017 0.083
-0.025 -0.021 0.093
-0.023 -0.021 0.089
-0.015 -0.025 0.089
-0.021 -0.023 0.093
-0.027 -0.019 0.083
-0.027 -0.019 0.083
-0.027 -0.017 0.079
-0.015 -0.015 0.081
-0.017 -0.017 0.083
-0.013 -0.015 0.087
-0.013 -0.015 0.081
-0.015 -0.015 0.083
-0.011 -0.013 0.081
-0.013 -0.011 0.083
-0.013 -0.015 0.085
-0.005 -0.015 0.081
-0.001 -0.017 0.083
-0.011 -0.007 0.087
-0.007 -0.007 0.087
-0.013 -0.015 0.093
-0.013 -0.015 0.095
-0.011 -0.015 0.087
-0.011 -0.007 0.095
-0.007 -0.007 0.095
-0.007 -0.007 0.095
-0.033 -0.019 0.101
-0.051 -0.007 0.099
-0.051 -0.007 0.099
-0.047 -0.007 0.099
-0.039 -0.015 0.101
-0.039 -0.015 0.101
-0.035 -0.015 0.103
-0.039 -0.015 0.099
-0.037 -0.015 0.101
-0.043 -0.011 0.099
-0.035 -0.017 0.099
-0.023 -0.023 0.097
-0.023 -0.023 0.099
-0.029 -0.021 0.097
-0.025 -0.023 0.101
-0.021 -0.025 0.099
-0.025 -0.021 0.105
-0.025 -0.021 0.105
-0.015 -0.025 0.101
-0.015 -0.025 0.101
-0.013 -0.013 0.097
-0.015 -0.025 0.101
-0.015 -0.025 0.101
-0.021 -0.015 0.107
-0.019 -0.015 0.109
-0.017 -0.015 0.107
-0.015 -0.025 0.103
-0.013 -0.007 0.099
-0.007 -0.007 0.097
-0.005 -0.007 0.101
-0.013 -0.025 0.103
-0.013 -0.015 0.105
-0.011 -0.017 0.107
-0.007 -0.019 0.111
0.021 -0.029 0.033
0.017 -0.013 0.031
0.021 -0.013 0.031
0.025 -0.011 0.031
0.027 -0.009 0.031
0.031 -0.011 0.031
0.033 -0.013 0.031
0.039 -0.011 0.031
0.037 -0.013 0.031
0.041 -0.005 0.031
0.011 -0.023 0.043
0.017 -0.027 0.041
0.023 -0.027 0.033
0.019 -0.029 0.037
0.023 -0.029 0.037
0.019 -0.027 0.039
0.021 -0.027 0.039
0.025 -0.025 0.039
0.027 -0.023 0.039
0.025 -0.023 0.041
0.021 -0.023 0.043
0.023 -0.021 0.043
0.021 -0.021 0.047
0.027 -0.019 0.045
0.009 -0.015 0.039
0.013 -0.027 0.037
0.013 -0.027 0.039
0.019 -0.029 0.035
0.011 -0.023 0.041
0.011 -0.019 0.047
0.013 -0.019 0.047
0.021 -0.029 0.033
0.027 -0.017 0.035
0.033 -0.015 0.033
0.023 -0.029 0.035
0.023 -0.013 0.033
0.023 -0.029 0.035
0.023 -0.013 0.033
0.027 -0.017 0.035
0.027 -0.011 0.033
0.031 -0.019 0.039
0.031 -0.015 0.043
0.027 -0.019 0.047
0.029 -0.017 0.045
0.031 -0.015 0.045
0.011 -0.019 0.053
0.023 -0.021 0.051
0.027 -0.019 0.051
0.023 -0.021 0.059
0.021 -0.021 0.061
0.019 -0.019 0.063
0.001 -0.013 0.051
0.011 -0.019 0.049
0.011 -0.019 0.051
0.003 -0.009 0.051
0.001 -0.019 0.057
0.005 -0.013 0.057
0.017 -0.019 0.061
0.003 -0.017 0.057
0.017 -0.017 0.063
0.027 -0.017 0.051
0.027 -0.015 0.053
0.029 -0.013 0.053
0.023 -0.021 0.055
0.027 -0.007 0.049
0.031 -0.011 0.055
0.027 -0.017 0.055
0.031 -0.017 0.059
0.025 -0.021 0.059
0.025 -0.021 0.061
0.035 -0.015 0.035
0.037 -0.013 0.033
0.039 -0.011 0.035
0.033 -0.017 0.037
0.039 -0.009 0.037
0.041 -0.009 0.033
0.035 -0.011 0.039
0.043 -0.007 0.035
0.041 -0.005 0.039
0.037 -0.003 0.043
0.039 -0.005 0.043
0.033 -0.015 0.061
0.035 -0.011 0.061
0.037 -0.009 0.063
0.041 -0.005 0.057
0.045 -0.005 0.057
0.043 -0.005 0.057
0.047 -0.005 0.061
0.049 -0.001 0.053
0.049 -0.003 0.057
0.001 -0.021 0.075
0.005 -0.021 0.073
0.009 -0.019 0.073
0.011 -0.017 0.073
0.021 -0.019 0.069
0.021 -0.019 0.069
0.021 -0.019 0.075
0.009 -0.013 0.067
0.007 -0.009 0.065
0.005 -0.019 0.067
0.007 -0.017 0.069
0.009 -0.017 0.069
0.015 -0.019 0.075
0.019 -0.019 0.065
0.019 -0.019 0.065
0.033 -0.017 0.065
0.033 -0.019 0.067
0.017 -0.015 0.073
0.031 -0.019 0.073
0.031 -0.019 0.075
0.003 -0.017 0.087
0.013 -0.021 0.083
0.015 -0.021 0.087
0.009 -0.019 0.089
0.013 -0.019 0.089
0.025 -0.021 0.081
0.029 -0.019 0.083
0.023 -0.019 0.089
0.023 -0.017 0.091
0.007 -0.019 0.087
0.005 -0.019 0.085
0.013 -0.021 0.081
0.019 -0.021 0.083
0.005 -0.013 0.093
0.015 -0.015 0.093
0.029 -0.017 0.087
0.031 -0.015 0.087
0.021 -0.021 0.085
0.025 -0.019 0.085
0.029 -0.017 0.085
0.027 -0.019 0.083
0.021 -0.019 0.089
0.019 -0.013 0.095
0.021 -0.013 0.095
0.027 -0.017 0.087
0.039 -0.009 0.067
0.037 -0.015 0.071
0.039 -0.011 0.071
0.035 -0.015 0.065
0.041 -0.011 0.071
0.041 -0.011 0.069
0.043 -0.011 0.071
0.037 -0.013 0.075
0.039 -0.011 0.079
0.043 -0.011 0.073
0.045 -0.011 0.077
0.041 -0.011 0.073
0.037 -0.013 0.079
0.049 -0.009 0.077
0.047 -0.011 0.079
0.049 -0.009 0.075
0.033 -0.017 0.081
0.035 -0.013 0.085
0.041 -0.009 0.083
0.047 -0.009 0.083
0.049 -0.011 0.081
0.043 -0.007 0.087
0.049 -0.009 0.085
0.047 -0.005 0.089
0.053 -0.009 0.081
0.049 -0.009 0.085
-0.011 -0.013 0.033
-0.035 -0.021 0.037
-0.031 -0.023 0.037
-0.033 -0.021 0.039
-0.031 -0.021 0.039
-0.029 -0.023 0.037
-0.027 -0.023 0.037
-0.035 -0.021 0.047
-0.029 -0.021 0.045
-0.027 -0.021 0.043
-0.027 -0.021 0.045
-0.027 -0.019 0.047
-0.027 -0.021 0.041
-0.025 -0.021 0.043
-0.027 -0.021 0.043
-0.043 -0.017 0.053
-0.037 -0.021 0.049
-0.033 -0.017 0.053
-0.029 -0.019 0.049
-0.027 -0.015 0.051
-0.039 -0.013 0.061
-0.029 -0.011 0.057
-0.027 -0.011 0.061
-0.017 -0.023 0.039
-0.015 -0.023 0.041
-0.013 -0.023 0.037
-0.009 -0.015 0.037
-0.013 -0.023 0.039
-0.023 -0.017 0.049
-0.013 -0.021 0.047
-0.009 -0.011 0.035
-0.007 0.005 0.033
-0.005 -0.009 0.037
-0.005 -0.009 0.037
-0.007 -0.019 0.047
-0.007 -0.017 0.043
-0.007 -0.017 0.043
-0.019 -0.023 0.037
-0.017 -0.023 0.039
-0.015 -0.021 0.043
-0.017 -0.019 0.047
-0.015 -0.021 0.047
-0.023 -0.009 0.055
-0.021 -0.015 0.053
-0.017 -0.017 0.053
-0.013 -0.021 0.051
-0.011 -0.019 0.049
-0.025 -0.009 0.059
-0.007 -0.019 0.055
-0.009 -0.019 0.053
0.001 -0.015 0.051
-0.001 -0.017 0.053
-0.001 -0.017 0.053
-0.039 -0.013 0.067
-0.039 -0.013 0.067
-0.037 -0.013 0.067
-0.033 -0.013 0.067
-0.027 -0.015 0.073
-0.057 -0.003 0.083
-0.051 -0.005 0.081
-0.045 -0.009 0.083
-0.045 -0.009 0.081
-0.045 -0.009 0.085
-0.057 -0.001 0.089
-0.043 -0.011 0.087
-0.045 -0.009 0.087
-0.041 -0.013 0.083
-0.039 -0.013 0.081
-0.039 -0.013 0.081
-0.041 -0.013 0.085
-0.031 -0.017 0.083
-0.027 -0.019 0.083
-0.029 -0.017 0.083
-0.041 -0.011 0.087
-0.035 -0.017 0.093
-0.029 -0.017 0.087
-0.027 -0.019 0.087
-0.031 -0.017 0.093
-0.027 -0.019 0.091
-0.031 -0.017 0.093
-0.019 -0.017 0.077
-0.019 -0.015 0.075
-0.021 -0.017 0.083
-0.019 -0.017 0.083
-0.017 -0.025 0.093
-0.049 -0.007 0.099
-0.043 -0.013 0.101
-0.035 -0.017 0.095
-0.037 -0.015 0.099
-0.029 -0.021 0.097
-0.027 -0.021 0.101
-0.031 -0.021 0.103
-0.019 -0.025 0.099
-0.015 -0.025 0.097
0.023 -0.027 0.033
0.035 -0.015 0.033
0.009 -0.013 0.037
0.013 -0.023 0.041
0.015 -0.027 0.037
0.015 -0.027 0.037
0.017 -0.027 0.039
0.019 -0.023 0.043
0.015 -0.021 0.047
0.023 -0.029 0.035
0.033 -0.015 0.033
0.029 -0.019 0.041
0.023 -0.023 0.041
0.031 -0.019 0.037
0.033 -0.017 0.035
0.027 -0.019 0.045
0.027 -0.019 0.047
0.025 -0.021 0.045
0.025 -0.021 0.045
0.027 -0.019 0.045
0.025 -0.021 0.049
0.029 -0.017 0.047
0.029 -0.017 0.047
0.033 -0.013 0.041
0.033 -0.011 0.043
0.031 -0.001 0.045
0.029 -0.005 0.047
0.029 -0.017 0.047
0.021 -0.021 0.049
0.023 -0.021 0.049
0.027 -0.019 0.051
0.025 -0.019 0.055
0.029 -0.009 0.051
0.027 -0.019 0.059
0.031 -0.017 0.059
0.025 -0.021 0.059
0.025 -0.021 0.059
0.027 -0.019 0.057
0.029 -0.017 0.059
0.025 -0.021 0.061
0.027 -0.019 0.061
0.031 -0.015 0.057
0.029 -0.019 0.061
0.043 0.003 0.035
0.043 0.003 0.035
0.037 -0.009 0.039
0.039 -0.009 0.037
0.039 -0.007 0.039
0.043 0.007 0.035
0.043 -0.007 0.035
0.047 0.005 0.045
0.041 -0.005 0.041
0.037 0.001 0.047
0.045 -0.001 0.041
0.043 -0.003 0.041
0.043 -0.001 0.045
0.049 -0.001 0.053
0.039 0.001 0.051
0.039 -0.001 0.053
0.043 -0.001 0.049
0.041 -0.009 0.063
0.049 0.001 0.059
0.005 -0.017 0.065
