-0.041 -0.019 0.041
-0.035 -0.019 0.041
-0.027 -0.023 0.033
-0.023 -0.025 0.033
-0.017 -0.023 0.043
-0.015 -0.023 0.041
-0.011 -0.021 0.041
-0.049 -0.021 0.039
-0.045 -0.023 0.039
-0.041 -0.019 0.041
-0.035 -0.021 0.043
-0.033 -0.021 0.041
-0.051 -0.007 0.047
-0.045 -0.023 0.039
-0.041 -0.021 0.039
-0.047 -0.017 0.041
-0.037 -0.021 0.039
-0.039 -0.019 0.041
-0.033 -0.021 0.045
-0.033 -0.021 0.045
-0.041 -0.019 0.051
-0.041 -0.019 0.053
-0.035 -0.021 0.051
-0.033 -0.017 0.053
-0.049 -0.009 0.057
-0.049 -0.009 0.059
-0.039 -0.013 0.059
-0.025 -0.023 0.039
-0.025 -0.021 0.043
-0.025 -0.017 0.047
-0.023 -0.019 0.041
-0.023 -0.019 0.043
-0.013 -0.023 0.039
-0.027 -0.023 0.037
-0.023 -0.023 0.037
-0.021 -0.023 0.041
-0.031 -0.021 0.045
-0.013 -0.021 0.041
-0.011 -0.021 0.041
-0.007 -0.017 0.045
-0.005 -0.017 0.045
-0.005 -0.017 0.047
-0.001 -0.013 0.047
-0.003 -0.019 0.051
-0.003 -0.019 0.051
-0.003 -0.019 0.053
-0.015 -0.021 0.051
-0.015 -0.021 0.049
-0.015 -0.021 0.051
-0.015 -0.019 0.053
-0.015 -0.017 0.055
-0.011 -0.019 0.055
-0.003 -0.019 0.055
-0.011 -0.019 0.057
-0.011 -0.019 0.057
-0.001 -0.019 0.057
-0.003 -0.019 0.059
-0.025 -0.017 0.049
-0.019 -0.013 0.055
-0.031 -0.013 0.059
-0.029 -0.013 0.061
-0.027 -0.011 0.061
-0.021 -0.009 0.057
-0.025 -0.015 0.069
-0.027 -0.015 0.071
-0.017 -0.009 0.061
-0.013 -0.015 0.063
-0.015 -0.013 0.063
-0.043 -0.011 0.067
-0.033 -0.015 0.071
-0.045 -0.007 0.069
-0.039 -0.009 0.075
-0.049 -0.005 0.087
-0.055 -0.005 0.095
-0.045 -0.009 0.087
-0.039 -0.013 0.081
-0.033 -0.015 0.083
-0.037 -0.015 0.085
-0.037 -0.013 0.087
-0.039 -0.013 0.085
-0.039 -0.013 0.087
-0.045 -0.009 0.085
-0.041 -0.013 0.085
-0.047 -0.007 0.083
-0.045 -0.009 0.087
-0.047 -0.005 0.087
-0.037 -0.015 0.089
-0.033 -0.017 0.091
-0.035 -0.015 0.091
-0.041 -0.013 0.091
-0.033 -0.017 0.091
-0.037 -0.017 0.095
-0.037 -0.017 0.095
-0.037 -0.015 0.097
-0.033 -0.017 0.097
-0.047 -0.011 0.095
-0.045 -0.011 0.097
-0.037 -0.015 0.097
-0.039 -0.015 0.097
-0.003 -0.021 0.067
-0.003 -0.019 0.075
-0.029 -0.015 0.065
-0.031 -0.015 0.069
-0.031 -0.015 0.071
-0.023 -0.011 0.065
-0.021 -0.011 0.067
-0.021 -0.011 0.067
-0.021 -0.017 0.077
-0.031 -0.015 0.077
-0.021 -0.015 0.073
-0.017 -0.013 0.075
-0.029 -0.019 0.089
-0.021 -0.017 0.079
-0.019 -0.017 0.081
-0.021 -0.017 0.081
-0.005 -0.017 0.077
-0.009 -0.013 0.079
-0.013 -0.015 0.081
-0.007 -0.017 0.075
-0.007 -0.013 0.079
-0.005 -0.015 0.081
-0.003 -0.015 0.085
-0.017 -0.025 0.087
-0.023 -0.021 0.085
-0.031 -0.019 0.095
-0.021 -0.023 0.091
-0.023 -0.023 0.093
-0.019 -0.025 0.097
-0.017 -0.025 0.097
-0.015 -0.025 0.087
-0.015 -0.025 0.095
-0.029 -0.017 0.083
-0.027 -0.019 0.085
-0.031 -0.017 0.087
-0.031 -0.017 0.087
-0.021 -0.023 0.101
-0.003 -0.015 0.083
-0.007 -0.013 0.083
-0.001 -0.015 0.087
-0.015 -0.025 0.095
-0.013 -0.025 0.097
-0.013 -0.025 0.097
-0.013 -0.027 0.095
-0.011 -0.015 0.091
-0.011 -0.015 0.091
-0.013 -0.025 0.097
-0.013 -0.023 0.097
-0.015 -0.025 0.103
-0.015 -0.025 0.103
-0.011 -0.007 0.095
-0.005 -0.007 0.095
-0.007 -0.007 0.095
-0.033 -0.017 0.103
-0.059 -0.005 0.101
-0.053 -0.007 0.099
-0.049 -0.007 0.099
-0.049 -0.003 0.105
-0.045 -0.011 0.097
-0.041 -0.013 0.101
-0.041 -0.013 0.103
-0.045 -0.011 0.097
-0.021 -0.025 0.097
-0.029 -0.021 0.097
-0.029 -0.021 0.099
-0.025 -0.021 0.103
-0.017 -0.025 0.101
-0.023 -0.023 0.101
-0.021 -0.023 0.101
-0.019 -0.025 0.101
-0.017 -0.025 0.103
-0.029 -0.021 0.105
-0.027 -0.023 0.107
-0.025 -0.023 0.107
-0.009 -0.017 0.107
-0.015 -0.017 0.109
-0.011 -0.017 0.109
-0.031 -0.017 0.103
-0.017 -0.025 0.101
-0.019 -0.013 0.103
-0.019 -0.015 0.105
-0.021 -0.015 0.105
-0.017 -0.015 0.107
-0.019 -0.015 0.109
-0.027 -0.021 0.107
-0.027 -0.013 0.107
-0.029 -0.013 0.105
-0.025 -0.013 0.111
-0.021 -0.013 0.109
-0.009 -0.007 0.101
-0.009 -0.017 0.109
0.019 -0.027 0.041
0.019 -0.027 0.041
0.023 -0.023 0.041
0.013 -0.027 0.037
0.013 -0.027 0.039
0.011 -0.023 0.041
0.015 -0.025 0.043
0.011 -0.023 0.043
0.021 -0.029 0.037
0.019 -0.027 0.041
0.029 -0.019 0.037
0.031 -0.019 0.037
0.023 -0.023 0.041
0.023 -0.021 0.045
0.021 -0.021 0.045
0.029 -0.017 0.043
0.013 -0.027 0.039
0.013 -0.023 0.041
0.011 -0.023 0.041
0.009 -0.015 0.041
0.009 -0.017 0.045
0.009 -0.017 0.047
0.007 -0.013 0.049
0.009 -0.015 0.051
0.023 -0.023 0.041
0.027 -0.023 0.041
0.023 -0.023 0.041
0.021 -0.021 0.045
0.019 -0.021 0.049
0.027 -0.019 0.045
0.029 -0.017 0.047
0.025 -0.021 0.049
0.025 -0.019 0.051
0.019 -0.021 0.053
0.023 -0.021 0.055
0.017 -0.021 0.055
0.027 -0.019 0.049
0.023 -0.021 0.057
0.021 -0.021 0.061
0.031 -0.017 0.059
0.025 -0.021 0.061
0.025 -0.021 0.063
0.001 -0.015 0.051
0.003 -0.015 0.055
-0.001 -0.019 0.059
-0.001 -0.019 0.061
0.001 -0.019 0.061
0.003 -0.017 0.057
0.005 -0.015 0.059
0.013 -0.015 0.061
0.001 -0.021 0.071
0.013 -0.015 0.061
0.031 -0.017 0.059
0.019 -0.019 0.065
0.029 -0.019 0.063
0.025 -0.021 0.063
0.029 -0.019 0.061
0.017 -0.015 0.065
0.015 -0.013 0.065
0.029 -0.019 0.067
0.023 -0.019 0.073
0.033 -0.015 0.039
0.031 -0.015 0.045
0.037 -0.005 0.041
0.033 -0.001 0.045
0.041 -0.003 0.043
0.033 -0.017 0.063
0.041 -0.001 0.051
0.047 -0.001 0.049
0.047 -0.001 0.051
0.043 -0.003 0.053
0.033 -0.015 0.061
0.033 -0.019 0.067
0.043 -0.007 0.061
0.005 -0.019 0.067
0.009 -0.017 0.069
0.003 -0.021 0.079
0.011 -0.017 0.073
0.013 -0.019 0.075
0.013 -0.021 0.079
0.019 -0.019 0.065
0.023 -0.019 0.065
0.021 -0.019 0.069
0.025 -0.019 0.065
0.027 -0.021 0.069
0.021 -0.021 0.079
0.025 -0.021 0.075
0.009 -0.019 0.073
0.005 -0.021 0.073
0.015 -0.019 0.075
0.007 -0.021 0.085
0.013 -0.021 0.085
0.013 -0.021 0.087
0.013 -0.021 0.087
0.017 -0.015 0.067
0.019 -0.017 0.071
0.019 -0.017 0.073
0.017 -0.021 0.079
0.027 -0.021 0.075
0.015 -0.021 0.079
0.015 -0.021 0.083
0.029 -0.019 0.083
0.029 -0.017 0.085
0.023 -0.019 0.087
-0.001 -0.015 0.087
0.001 -0.017 0.087
0.003 -0.015 0.089
0.007 -0.017 0.089
0.009 -0.017 0.091
0.009 -0.015 0.091
0.005 -0.017 0.089
0.007 -0.013 0.093
0.003 -0.013 0.093
0.007 -0.013 0.093
0.013 -0.015 0.093
0.011 -0.013 0.095
0.013 -0.015 0.093
0.015 -0.017 0.091
0.015 -0.015 0.093
0.019 -0.015 0.093
0.025 -0.017 0.089
0.023 -0.017 0.091
0.029 -0.015 0.089
0.023 -0.017 0.091
0.017 -0.015 0.093
0.027 -0.013 0.091
0.027 -0.013 0.093
0.015 -0.015 0.093
0.035 -0.017 0.077
0.035 -0.017 0.067
0.043 -0.011 0.071
0.037 -0.015 0.073
0.033 -0.019 0.077
0.037 -0.013 0.075
0.037 -0.015 0.073
0.039 -0.011 0.077
0.045 -0.011 0.075
0.047 -0.011 0.079
0.035 -0.017 0.077
0.041 -0.011 0.075
0.043 -0.011 0.077
0.047 -0.011 0.081
0.033 -0.017 0.081
0.033 -0.015 0.083
0.037 -0.011 0.083
0.045 -0.011 0.081
0.045 -0.011 0.083
0.033 -0.013 0.087
0.041 -0.011 0.081
0.049 -0.009 0.083
0.053 -0.007 0.083
0.049 -0.007 0.087
0.051 -0.007 0.087
0.051 -0.005 0.087
0.055 -0.005 0.087
-0.031 -0.017 0.051
-0.031 -0.021 0.047
-0.021 -0.017 0.043
-0.015 -0.021 0.051
-0.047 -0.011 0.051
-0.047 -0.011 0.053
-0.051 -0.007 0.051
-0.041 -0.019 0.049
-0.039 -0.021 0.049
-0.045 -0.013 0.047
-0.037 -0.021 0.051
-0.033 -0.021 0.049
-0.033 -0.019 0.051
-0.037 -0.019 0.053
-0.037 -0.017 0.055
-0.043 -0.015 0.055
-0.037 -0.013 0.061
-0.033 -0.013 0.061
-0.033 -0.013 0.059
-0.031 -0.013 0.059
-0.051 -0.005 0.057
-0.049 -0.007 0.061
-0.041 -0.013 0.067
-0.045 -0.011 0.065
-0.037 -0.013 0.071
-0.035 -0.013 0.073
-0.019 -0.017 0.049
-0.023 -0.015 0.051
-0.027 -0.015 0.051
-0.023 -0.013 0.053
-0.021 -0.013 0.055
-0.017 -0.015 0.057
-0.029 -0.013 0.063
-0.025 -0.009 0.059
-0.017 -0.013 0.059
-0.015 -0.021 0.049
-0.009 -0.019 0.049
-0.009 -0.019 0.053
-0.007 -0.019 0.051
-0.007 -0.019 0.051
-0.015 -0.019 0.053
-0.009 -0.019 0.055
-0.011 -0.019 0.057
-0.009 -0.019 0.063
-0.013 -0.017 0.059
-0.011 -0.019 0.061
-0.011 -0.019 0.061
-0.025 -0.013 0.051
-0.027 -0.013 0.053
-0.023 -0.013 0.053
-0.023 -0.013 0.053
-0.025 -0.009 0.061
-0.027 -0.013 0.063
-0.017 -0.013 0.059
-0.023 -0.007 0.059
-0.017 -0.009 0.061
-0.021 -0.009 0.057
-0.019 -0.009 0.061
-0.029 -0.015 0.071
-0.009 -0.019 0.063
-0.007 -0.019 0.069
-0.011 -0.013 0.071
-0.005 -0.019 0.071
-0.005 -0.019 0.071
-0.041 -0.009 0.073
-0.039 -0.011 0.073
-0.039 -0.009 0.075
-0.035 -0.013 0.081
-0.061 -0.001 0.085
-0.057 -0.003 0.087
-0.055 -0.005 0.095
-0.055 0.001 0.091
-0.047 -0.011 0.095
-0.059 0.003 0.091
-0.059 0.001 0.089
-0.057 0.001 0.091
-0.055 -0.003 0.089
-0.051 -0.009 0.095
-0.051 -0.009 0.097
-0.053 -0.009 0.097
-0.053 -0.009 0.097
-0.039 -0.015 0.097
-0.039 -0.015 0.093
-0.045 -0.011 0.095
-0.045 -0.011 0.095
-0.039 -0.013 0.103
-0.025 -0.017 0.077
-0.031 -0.015 0.079
-0.025 -0.017 0.081
-0.029 -0.017 0.087
-0.007 -0.017 0.075
-0.029 -0.019 0.095
-0.029 -0.021 0.097
-0.031 -0.021 0.103
-0.027 -0.021 0.099
-0.025 -0.021 0.103
-0.053 0.001 0.105
-0.049 -0.001 0.107
-0.037 -0.011 0.105
-0.039 -0.009 0.105
-0.027 -0.013 0.107
-0.027 -0.011 0.109
-0.021 -0.015 0.107
-0.019 -0.013 0.113
0.023 -0.021 0.049
0.035 -0.011 0.039
0.029 -0.017 0.045
0.005 0.001 0.037
0.009 -0.017 0.049
0.011 -0.019 0.049
0.007 -0.013 0.045
0.005 0.003 0.039
0.011 -0.019 0.051
0.011 -0.015 0.057
0.015 -0.021 0.053
0.021 -0.021 0.053
0.013 -0.019 0.053
0.015 -0.019 0.057
0.017 -0.021 0.055
0.015 -0.019 0.059
0.027 -0.019 0.059
0.017 -0.019 0.059
0.025 -0.021 0.059
0.017 -0.019 0.059
0.019 -0.021 0.059
0.019 -0.019 0.061
0.025 -0.021 0.063
0.021 -0.019 0.065
0.011 -0.013 0.059
0.013 -0.015 0.061
0.015 -0.017 0.061
0.019 -0.019 0.065
0.015 -0.013 0.065
0.023 -0.019 0.069
0.019 -0.017 0.071
0.017 -0.019 0.077
0.019 -0.021 0.079
0.021 -0.019 0.077
0.021 -0.021 0.079
0.019 -0.017 0.071
0.019 -0.019 0.075
0.023 -0.019 0.073
0.023 -0.019 0.075
0.039 -0.005 0.041
0.029 -0.013 0.047
0.039 0.001 0.045
0.037 0.001 0.047
0.027 -0.019 0.061
0.031 -0.019 0.063
0.037 0.001 0.051
0.033 -0.019 0.067
0.045 -0.005 0.057
0.033 -0.017 0.063
0.033 -0.019 0.067
0.033 -0.019 0.067
0.041 -0.003 0.055
0.033 -0.019 0.067
0.037 -0.013 0.067
0.041 -0.011 0.069
0.037 -0.015 0.071
0.049 -0.001 0.053
0.047 -0.005 0.059
0.019 -0.021 0.081
0.019 -0.021 0.083
0.019 -0.021 0.081
0.019 -0.021 0.083
0.039 -0.011 0.071
