-0.015 0.001 0.057
-0.019 0.005 0.053
-0.013 0.003 0.055
-0.011 0.005 0.053
-0.021 0.009 0.051
-0.009 0.009 0.047
-0.029 0.003 0.065
-0.029 0.003 0.061
-0.025 -0.005 0.059
-0.027 0.003 0.071
-0.039 0.009 0.057
-0.037 0.009 0.053
-0.037 0.005 0.069
-0.043 0.005 0.063
-0.045 0.003 0.067
-0.043 0.003 0.067
-0.031 0.001 0.077
-0.041 0.001 0.071
-0.005 0.001 0.065
-0.015 -0.003 0.061
-0.009 -0.001 0.065
-0.009 -0.001 0.067
-0.005 0.003 0.059
-0.001 0.001 0.065
-0.001 0.001 0.063
-0.007 0.003 0.057
-0.015 0.007 0.047
-0.001 0.001 0.053
-0.005 0.005 0.043
-0.005 0.003 0.045
-0.003 0.001 0.043
0.003 -0.001 0.059
-0.001 -0.001 0.073
0.003 -0.001 0.071
-0.001 -0.001 0.079
-0.011 -0.003 0.069
-0.021 -0.001 0.075
-0.027 -0.001 0.061
-0.017 -0.001 0.057
0.005 -0.003 0.063
-0.043 0.001 0.069
-0.041 0.001 0.071
-0.025 0.003 0.091
-0.027 0.003 0.091
-0.033 0.005 0.083
-0.031 0.001 0.077
-0.055 0.007 0.091
-0.045 0.009 0.099
-0.031 0.003 0.101
-0.037 0.005 0.099
-0.031 0.003 0.099
-0.029 0.003 0.089
-0.031 0.001 0.105
-0.029 0.003 0.101
-0.031 0.001 0.105
-0.029 0.003 0.101
-0.029 -0.001 0.105
-0.039 0.001 0.103
-0.031 0.003 0.103
-0.029 0.005 0.097
-0.015 -0.001 0.095
-0.015 -0.001 0.097
-0.001 -0.003 0.083
0.003 -0.005 0.087
0.005 -0.007 0.089
-0.019 -0.003 0.073
-0.023 -0.001 0.069
-0.007 -0.003 0.075
-0.011 -0.003 0.069
-0.011 -0.005 0.071
-0.009 -0.003 0.089
-0.003 -0.003 0.079
-0.015 -0.001 0.103
-0.013 -0.003 0.097
-0.013 -0.003 0.103
-0.013 -0.003 0.101
-0.011 -0.013 0.107
-0.023 0.001 0.097
-0.027 0.003 0.099
-0.007 -0.005 0.097
-0.007 -0.007 0.099
-0.007 -0.005 0.103
-0.011 -0.003 0.095
-0.009 -0.005 0.091
-0.009 -0.003 0.097
-0.029 -0.007 0.105
-0.045 -0.001 0.103
-0.049 0.005 0.105
-0.045 0.003 0.103
-0.043 0.003 0.101
-0.013 -0.013 0.105
-0.017 -0.011 0.105
-0.023 -0.011 0.113
-0.021 -0.011 0.113
-0.019 -0.011 0.109
-0.015 -0.011 0.107
-0.023 -0.009 0.111
-0.015 -0.011 0.109
-0.025 0.001 0.105
-0.007 -0.015 0.107
-0.013 -0.011 0.109
-0.007 -0.015 0.107
0.031 0.003 0.047
0.029 0.015 0.055
0.045 0.011 0.053
0.025 0.007 0.067
0.021 0.005 0.071
0.023 0.003 0.071
0.029 -0.001 0.067
0.031 -0.001 0.065
0.039 0.003 0.061
0.029 -0.005 0.053
0.037 -0.001 0.059
0.015 -0.003 0.059
0.013 -0.003 0.055
0.015 -0.003 0.059
0.027 0.009 0.063
0.029 -0.005 0.049
0.031 0.003 0.047
0.029 0.013 0.059
0.029 -0.005 0.053
0.029 -0.005 0.047
0.027 -0.001 0.079
0.029 -0.001 0.077
0.027 -0.001 0.083
0.003 -0.003 0.055
0.005 -0.005 0.059
0.015 -0.005 0.063
0.015 -0.005 0.063
0.013 -0.009 0.061
0.005 -0.007 0.057
0.017 -0.005 0.065
0.025 0.011 0.063
0.023 0.007 0.069
0.021 0.005 0.071
0.033 -0.003 0.063
0.029 -0.001 0.063
0.041 0.005 0.061
0.047 0.011 0.049
0.039 0.003 0.061
0.035 -0.005 0.063
0.039 0.003 0.061
0.015 -0.003 0.089
0.027 -0.003 0.087
0.025 -0.005 0.089
0.015 -0.001 0.083
0.019 -0.003 0.075
0.013 -0.003 0.077
0.003 -0.001 0.071
0.017 -0.005 0.067
0.015 -0.001 0.081
0.021 0.003 0.073
0.023 -0.001 0.077
0.031 -0.001 0.073
0.015 -0.011 0.093
0.017 -0.011 0.095
0.009 -0.007 0.091
0.011 -0.011 0.095
0.015 -0.011 0.093
0.007 -0.005 0.089
0.009 -0.005 0.089
0.013 -0.005 0.091
0.029 -0.003 0.085
0.029 -0.011 0.091
0.031 -0.011 0.091
0.025 -0.009 0.091
0.037 -0.005 0.067
0.055 -0.005 0.075
0.045 -0.005 0.087
0.047 -0.003 0.087
0.045 -0.003 0.085
0.047 -0.003 0.085
0.047 -0.005 0.089
0.053 -0.003 0.087
-0.025 0.017 0.045
-0.019 0.013 0.045
-0.013 0.015 0.037
-0.009 0.011 0.043
-0.013 0.015 0.035
-0.009 0.015 0.031
-0.027 0.021 0.035
-0.029 0.015 0.047
-0.035 0.015 0.045
-0.045 0.009 0.051
-0.039 0.013 0.045
-0.039 0.013 0.045
-0.037 0.013 0.045
-0.033 0.019 0.045
-0.035 0.013 0.045
-0.035 0.023 0.039
-0.033 0.019 0.045
-0.035 0.009 0.057
-0.023 0.017 0.035
-0.017 0.015 0.039
-0.023 0.013 0.047
-0.023 0.013 0.047
-0.009 0.015 0.037
-0.007 0.013 0.033
-0.007 0.015 0.035
-0.011 0.007 0.051
-0.005 0.003 0.047
-0.031 0.021 0.033
-0.023 0.017 0.045
-0.025 0.007 0.053
-0.017 0.005 0.053
-0.009 0.007 0.051
-0.007 0.005 0.055
-0.005 0.003 0.049
-0.003 0.003 0.051
-0.003 0.003 0.053
-0.051 0.013 0.085
-0.053 0.011 0.087
-0.049 0.009 0.097
-0.035 0.007 0.087
-0.039 0.007 0.099
-0.033 0.005 0.089
-0.033 0.005 0.093
-0.029 0.003 0.067
-0.023 0.001 0.075
-0.027 0.003 0.083
-0.027 0.003 0.091
-0.047 0.007 0.101
-0.043 0.009 0.099
-0.041 0.009 0.099
-0.035 0.007 0.097
-0.039 0.007 0.099
-0.021 0.001 0.099
-0.019 0.001 0.107
0.009 0.011 0.037
0.009 0.015 0.037
0.015 0.011 0.047
0.029 0.011 0.045
0.035 0.015 0.045
0.023 0.015 0.041
0.033 0.015 0.041
0.023 0.017 0.045
0.023 0.019 0.055
0.021 0.015 0.057
0.029 0.013 0.059
0.025 0.013 0.061
0.023 0.013 0.063
0.023 0.015 0.061
0.043 0.015 0.045
0.047 0.011 0.051
0.035 0.015 0.035
0.035 0.007 0.051
0.047 0.011 0.045
0.047 0.011 0.043
0.041 0.007 0.061
0.041 0.013 0.049
0.043 0.013 0.051
0.049 0.007 0.057
0.045 0.003 0.063
0.047 0.005 0.061
0.049 0.001 0.061
0.049 0.003 0.061
0.023 0.009 0.067
0.025 0.007 0.065
0.043 0.003 0.065
0.045 0.003 0.065
-0.021 -0.019 0.041
-0.021 -0.017 0.047
-0.051 -0.021 0.037
-0.049 -0.017 0.041
-0.047 -0.017 0.041
-0.049 -0.017 0.041
-0.023 -0.021 0.107
-0.021 -0.023 0.101
-0.017 -0.025 0.103
-0.027 -0.017 0.105
-0.025 -0.015 0.103
-0.029 -0.017 0.105
-0.029 -0.019 0.105
-0.025 -0.023 0.109
-0.025 -0.023 0.109
-0.041 -0.015 0.057
-0.039 -0.017 0.055
-0.037 -0.011 0.105
-0.033 -0.019 0.101
-0.035 -0.017 0.099
-0.033 -0.019 0.101
-0.017 -0.025 0.095
-0.031 -0.021 0.041
-0.017 -0.023 0.043
-0.013 -0.023 0.039
-0.009 -0.019 0.047
-0.017 -0.017 0.095
-0.005 -0.019 0.073
-0.003 -0.021 0.071
0.003 -0.011 0.091
0.003 -0.021 0.081
-0.011 -0.019 0.059
-0.009 -0.019 0.063
-0.019 -0.017 0.099
-0.017 -0.015 0.109
-0.017 -0.013 0.109
-0.011 -0.017 0.111
-0.011 -0.017 0.111
-0.007 -0.017 0.113
-0.013 -0.015 0.111
0.005 -0.011 0.093
-0.005 -0.015 0.113
-0.005 -0.015 0.111
-0.031 -0.017 0.103
-0.029 -0.021 0.105
-0.023 -0.021 0.107
-0.033 -0.015 0.103
-0.029 -0.017 0.105
-0.031 -0.013 0.105
-0.031 -0.011 0.105
-0.025 -0.009 0.111
-0.055 -0.007 0.099
-0.053 -0.007 0.099
-0.047 -0.011 0.095
-0.033 -0.017 0.103
-0.035 -0.017 0.099
-0.027 -0.013 0.107
-0.043 -0.009 0.103
-0.031 -0.009 0.105
-0.047 -0.011 0.095
-0.031 -0.019 0.103
-0.041 -0.009 0.103
-0.011 -0.017 0.067
-0.003 -0.021 0.067
-0.005 -0.019 0.075
-0.003 -0.019 0.079
-0.023 -0.021 0.105
-0.011 -0.017 0.111
-0.017 -0.017 0.095
-0.003 -0.017 0.113
-0.007 -0.007 0.087
-0.015 -0.015 0.081
-0.007 -0.007 0.087
-0.007 -0.007 0.079
-0.023 -0.021 0.107
-0.023 -0.021 0.103
-0.015 -0.025 0.103
-0.017 -0.019 0.099
-0.013 -0.025 0.097
-0.015 -0.007 0.101
-0.029 -0.005 0.105
-0.005 -0.013 0.085
-0.001 -0.015 0.087
-0.009 -0.007 0.103
-0.001 -0.009 0.087
-0.013 -0.015 0.093
-0.009 -0.007 0.103
-0.013 -0.005 0.103
-0.031 -0.019 0.103
-0.057 -0.005 0.103
-0.055 -0.007 0.099
-0.055 -0.005 0.101
-0.051 -0.003 0.105
-0.053 -0.003 0.103
-0.051 -0.001 0.107
-0.041 -0.013 0.103
-0.041 -0.009 0.103
-0.033 -0.017 0.103
-0.043 -0.005 0.103
-0.043 -0.003 0.103
-0.035 -0.009 0.105
-0.025 -0.023 0.109
-0.025 -0.023 0.109
-0.015 -0.017 0.109
-0.023 -0.015 0.107
-0.017 -0.005 0.103
-0.025 -0.013 0.111
-0.017 -0.015 0.109
-0.019 -0.011 0.115
-0.013 -0.007 0.101
-0.007 -0.007 0.101
-0.013 -0.015 0.111
0.029 -0.019 0.083
0.023 -0.017 0.091
0.035 -0.015 0.081
0.013 -0.019 0.047
0.015 -0.021 0.047
0.021 -0.029 0.037
0.023 -0.023 0.041
0.017 -0.025 0.045
0.021 -0.023 0.043
0.021 -0.021 0.047
0.027 -0.023 0.041
0.017 -0.021 0.087
0.019 -0.015 0.093
0.021 -0.013 0.095
0.007 -0.019 0.087
0.015 -0.021 0.087
0.015 -0.021 0.087
0.027 -0.021 0.075
0.025 -0.021 0.079
0.031 -0.019 0.081
0.033 -0.009 0.087
0.033 -0.009 0.087
0.011 -0.019 0.053
0.015 -0.021 0.053
0.017 -0.021 0.087
0.027 -0.021 0.075
0.023 -0.021 0.063
0.027 -0.021 0.073
0.025 -0.021 0.061
0.033 -0.019 0.077
0.013 -0.017 0.091
0.007 -0.009 0.091
0.011 -0.013 0.095
0.031 -0.017 0.085
0.031 -0.019 0.081
0.031 -0.019 0.081
0.023 -0.009 0.091
0.031 -0.009 0.089
0.031 -0.007 0.087
0.033 -0.017 0.037
0.037 -0.013 0.081
0.043 -0.013 0.075
0.035 -0.017 0.079
0.049 -0.007 0.087
0.045 -0.011 0.083
0.001 -0.021 0.077
0.003 -0.021 0.077
0.017 -0.021 0.087
0.009 -0.021 0.079
0.023 -0.019 0.087
0.015 -0.019 0.089
0.015 -0.007 0.091
0.021 -0.019 0.089
0.033 -0.007 0.085
0.019 -0.007 0.091
0.031 -0.005 0.085
0.003 -0.019 0.085
0.001 -0.017 0.087
0.011 -0.021 0.087
0.021 -0.021 0.087
0.017 -0.019 0.089
0.003 -0.005 0.087
0.001 -0.011 0.091
0.015 -0.007 0.091
0.029 -0.015 0.089
0.031 -0.009 0.089
0.019 -0.007 0.091
0.033 -0.019 0.073
0.035 -0.017 0.079
0.043 -0.011 0.079
0.035 -0.009 0.085
0.037 -0.011 0.083
0.043 -0.011 0.077
0.041 -0.011 0.079
0.051 -0.009 0.083
0.053 -0.009 0.081
0.053 -0.009 0.081
0.055 -0.007 0.081
0.033 -0.013 0.087
0.041 -0.009 0.085
0.043 -0.007 0.087
0.045 -0.007 0.087
0.049 -0.007 0.087
-0.033 -0.009 0.105
-0.033 -0.007 0.105
-0.021 -0.001 0.107
-0.019 0.001 0.107
-0.023 0.001 0.105
-0.037 0.023 0.043
-0.035 -0.009 0.105
-0.019 0.011 0.049
-0.017 0.011 0.047
-0.017 0.011 0.047
-0.003 -0.005 0.083
-0.001 -0.003 0.083
-0.027 0.017 0.047
-0.011 -0.007 0.097
-0.017 -0.005 0.107
-0.011 0.005 0.053
-0.005 -0.001 0.075
-0.007 -0.003 0.077
-0.029 -0.005 0.105
-0.051 -0.003 0.105
-0.047 0.005 0.103
-0.045 0.001 0.103
-0.043 0.007 0.099
-0.031 -0.003 0.105
-0.021 -0.005 0.105
-0.005 -0.003 0.077
-0.017 -0.005 0.107
-0.051 0.005 0.105
-0.049 0.003 0.107
-0.039 0.001 0.105
-0.023 -0.001 0.107
0.029 -0.009 0.089
0.015 -0.005 0.091
0.017 -0.009 0.093
0.021 -0.005 0.091
0.007 0.013 0.039
0.019 -0.001 0.085
0.015 0.009 0.051
0.027 -0.003 0.087
0.031 -0.003 0.083
0.025 0.005 0.069
0.025 0.009 0.065
0.029 0.007 0.045
0.021 -0.001 0.085
0.025 0.007 0.061
0.021 0.009 0.065
0.027 0.015 0.059
0.045 -0.005 0.087
0.047 -0.007 0.087
0.047 -0.003 0.087
0.043 0.009 0.059
0.051 -0.005 0.087
0.049 0.005 0.059
0.035 0.007 0.051
0.041 -0.005 0.087
0.047 0.003 0.063
0.045 -0.005 0.087
