0.005 -0.019 0.065
0.003 0.049 0.059
0.003 0.049 0.057
0.003 0.049 0.057
0.005 0.045 0.063
0.003 -0.011 0.049
-0.001 0.049 0.061
0.007 0.033 0.059
-0.001 0.035 0.077
0.001 0.039 0.073
0.003 0.007 0.059
0.003 0.033 0.073
0.001 0.041 0.071
0.003 0.039 0.071
0.001 0.011 0.063
-0.005 -0.053 0.075
-0.001 -0.003 0.075
-0.001 -0.021 0.067
-0.001 -0.025 0.071
-0.001 -0.025 0.075
0.007 0.063 0.093
0.007 0.053 0.083
0.011 0.057 0.085
-0.001 -0.027 0.073
0.001 0.027 0.075
0.013 0.055 0.087
0.005 0.053 0.099
0.009 0.053 0.103
0.003 0.031 0.101
-0.003 0.037 0.091
0.005 0.053 0.099
0.009 0.053 0.101
0.017 -0.019 0.045
0.013 -0.019 0.049
0.013 -0.019 0.049
0.019 -0.021 0.051
0.015 0.027 0.047
0.007 -0.021 0.063
0.015 -0.023 0.059
-0.013 0.049 0.039
-0.001 0.049 0.039
-0.005 0.051 0.057
0.005 0.049 0.049
0.007 0.049 0.049
0.003 0.051 0.049
0.007 0.047 0.047
0.009 0.045 0.045
-0.015 0.049 0.041
0.005 0.045 0.061
-0.001 0.045 0.067
-0.017 0.043 0.049
-0.015 0.045 0.051
-0.011 0.045 0.063
-0.009 0.041 0.073
0.001 0.043 0.069
0.007 0.061 0.093
-0.001 0.035 0.091
0.007 0.059 0.091
-0.001 0.055 0.097
-0.001 0.057 0.101
-0.007 0.055 0.099
-0.001 0.037 0.091
-0.009 0.025 0.109
0.003 0.051 0.107
-0.011 0.021 0.115
0.001 0.057 0.105
0.001 0.055 0.099
-0.001 0.055 0.097
0.001 0.057 0.103
0.019 0.039 0.037
0.007 0.039 0.033
0.005 0.035 0.031
0.003 0.043 0.033
0.001 0.039 0.031
0.013 0.031 0.051
0.017 0.029 0.047
0.013 0.039 0.041
0.009 0.035 0.057
0.009 0.041 0.037
0.013 0.039 0.039
0.019 0.037 0.043
0.007 0.045 0.059
0.003 0.049 0.059
0.001 0.005 0.069
0.003 0.031 0.071
0.009 0.049 0.099
0.005 0.037 0.069
0.007 0.041 0.087
0.011 0.057 0.087
0.009 0.049 0.097
0.013 0.055 0.087
0.011 0.055 0.089
0.013 -0.013 0.037
0.015 -0.017 0.043
0.017 -0.019 0.043
0.013 -0.035 0.049
0.015 -0.019 0.049
0.001 -0.039 0.063
0.011 -0.017 0.051
0.017 -0.021 0.047
0.015 -0.019 0.051
-0.007 -0.007 0.047
-0.007 -0.007 0.039
0.011 -0.005 0.037
-0.003 -0.019 0.061
-0.003 -0.015 0.059
-0.007 -0.015 0.065
0.009 -0.021 0.065
-0.001 -0.019 0.059
0.003 0.005 0.051
-0.011 -0.013 0.061
-0.005 -0.015 0.063
-0.007 -0.013 0.061
-0.003 -0.035 0.071
0.001 -0.039 0.065
-0.003 -0.033 0.077
0.003 -0.021 0.071
-0.001 -0.029 0.071
-0.001 -0.003 0.067
-0.001 -0.003 0.075
-0.003 -0.029 0.085
-0.009 0.001 0.087
-0.005 -0.013 0.091
-0.009 -0.001 0.089
0.013 -0.033 0.033
0.015 -0.041 0.039
0.013 -0.027 0.037
0.015 -0.037 0.039
0.015 -0.039 0.043
0.011 -0.043 0.053
0.011 -0.017 0.049
0.017 -0.019 0.043
0.015 -0.001 0.033
0.007 -0.013 0.049
0.001 -0.001 0.069
0.003 0.043 0.033
0.019 0.027 0.045
0.001 0.003 0.055
-0.001 0.049 0.039
0.001 0.051 0.045
0.001 0.051 0.043
0.007 0.043 0.061
-0.007 0.011 0.073
-0.001 0.021 0.081
0.001 0.023 0.075
-0.009 0.005 0.083
-0.009 0.005 0.083
-0.009 0.007 0.081
-0.003 0.009 0.089
-0.001 0.017 0.087
-0.003 0.009 0.093
-0.001 0.013 0.093
0.007 0.037 0.085
0.005 0.037 0.093
0.001 0.039 0.089
0.003 0.031 0.103
0.001 0.023 0.101
-0.009 0.027 0.107
-0.011 0.023 0.113
0.009 0.045 0.101
0.001 0.035 0.105
0.011 0.011 0.041
0.011 0.015 0.043
0.021 0.031 0.039
0.017 0.023 0.041
0.021 0.031 0.045
0.005 0.011 0.053
0.005 0.013 0.053
0.013 0.031 0.051
0.019 0.039 0.039
0.013 0.039 0.039
0.025 0.035 0.041
0.003 0.025 0.089
0.003 0.027 0.095
0.003 0.033 0.091
0.007 0.055 0.091
0.003 0.037 0.103
0.009 0.049 0.097
0.003 0.049 0.107
0.003 -0.039 0.061
0.009 -0.043 0.059
0.015 -0.037 0.039
0.013 -0.029 0.039
0.013 -0.029 0.039
0.015 -0.031 0.041
0.009 -0.027 0.045
0.009 -0.025 0.065
0.013 -0.023 0.063
-0.007 -0.039 0.075
-0.007 -0.047 0.075
-0.005 -0.035 0.077
-0.005 -0.041 0.087
-0.009 -0.009 0.067
-0.001 -0.023 0.077
0.009 -0.023 0.065
-0.001 -0.005 0.073
-0.005 -0.033 0.083
-0.003 -0.031 0.081
-0.003 -0.031 0.083
-0.003 -0.031 0.081
-0.009 -0.019 0.093
-0.005 -0.013 0.091
-0.001 -0.009 0.083
-0.003 -0.003 0.085
0.009 -0.037 0.031
0.013 -0.041 0.037
0.013 -0.037 0.033
0.009 -0.047 0.041
0.013 -0.035 0.047
0.011 -0.041 0.055
0.007 -0.041 0.059
0.009 -0.045 0.057
0.009 -0.043 0.057
0.015 -0.019 0.035
0.015 -0.021 0.035
0.015 -0.021 0.041
0.013 -0.017 0.033
0.009 -0.013 0.045
0.013 -0.027 0.061
0.019 -0.023 0.051
0.003 -0.041 0.065
0.015 0.009 0.035
0.015 0.017 0.033
0.019 0.023 0.033
-0.003 0.005 0.039
-0.003 0.001 0.045
0.009 0.005 0.041
0.005 0.007 0.053
0.003 0.017 0.055
0.015 0.023 0.039
0.013 0.031 0.049
0.007 0.019 0.051
0.007 0.043 0.061
0.009 0.037 0.055
-0.001 0.009 0.069
-0.007 0.019 0.071
-0.005 0.003 0.083
-0.003 -0.005 0.087
-0.007 0.001 0.085
-0.007 -0.001 0.087
-0.005 0.007 0.087
-0.003 0.013 0.087
-0.003 0.011 0.087
-0.003 0.015 0.085
-0.001 0.021 0.081
0.003 0.025 0.085
0.003 0.027 0.083
0.003 0.035 0.073
0.001 0.023 0.093
-0.001 0.029 0.081
0.003 0.029 0.085
-0.013 0.011 0.107
0.001 0.021 0.101
-0.009 0.019 0.107
0.001 0.021 0.107
0.015 0.009 0.031
0.015 0.017 0.033
0.021 0.029 0.033
0.013 0.007 0.037
0.001 0.003 0.045
0.015 0.011 0.035
0.013 0.019 0.045
0.005 0.009 0.055
0.003 0.015 0.055
0.021 0.033 0.039
0.007 0.047 0.047
0.009 0.041 0.083
0.007 0.043 0.087
0.009 0.041 0.083
0.007 0.037 0.095
0.013 0.055 0.085
0.013 0.055 0.087
0.009 0.053 0.091
0.007 0.057 0.093
0.007 0.057 0.093
-0.011 -0.039 0.033
-0.017 -0.031 0.035
-0.009 -0.035 0.041
-0.003 -0.047 0.053
-0.005 -0.047 0.063
-0.015 -0.035 0.065
-0.023 -0.027 0.039
-0.029 -0.021 0.037
-0.025 -0.021 0.041
-0.027 -0.015 0.041
-0.021 -0.023 0.055
-0.017 -0.017 0.063
-0.017 -0.013 0.057
-0.015 -0.013 0.059
-0.017 -0.003 0.059
-0.011 -0.043 0.073
-0.017 -0.035 0.071
-0.019 -0.033 0.071
-0.005 -0.057 0.081
-0.009 -0.049 0.085
-0.017 -0.019 0.073
-0.019 -0.021 0.071
-0.017 -0.017 0.065
-0.015 -0.017 0.073
-0.017 -0.011 0.073
-0.017 -0.011 0.091
-0.003 -0.041 0.043
-0.001 -0.039 0.053
-0.003 -0.041 0.055
-0.025 -0.023 0.039
-0.027 -0.015 0.039
-0.023 -0.013 0.043
-0.019 -0.011 0.045
0.003 -0.005 0.039
0.007 -0.003 0.037
-0.021 -0.023 0.057
-0.021 -0.015 0.053
-0.019 -0.017 0.061
-0.017 -0.011 0.055
-0.023 0.015 0.039
-0.023 0.019 0.037
-0.019 0.011 0.059
-0.017 0.015 0.057
-0.021 0.033 0.037
-0.021 0.037 0.037
-0.021 0.047 0.039
-0.021 0.049 0.039
-0.011 0.049 0.049
-0.019 0.001 0.079
-0.013 0.009 0.077
-0.015 0.029 0.079
-0.015 0.003 0.085
-0.015 0.011 0.089
-0.023 0.021 0.091
-0.017 0.031 0.083
-0.017 0.031 0.083
-0.007 0.047 0.065
-0.011 0.039 0.073
-0.013 0.033 0.079
-0.011 0.033 0.081
-0.015 0.035 0.085
-0.013 0.045 0.093
-0.009 0.051 0.095
-0.021 0.025 0.105
-0.025 0.019 0.101
-0.013 0.041 0.097
-0.013 0.041 0.097
-0.011 0.043 0.103
-0.005 0.047 0.101
-0.021 0.013 0.051
-0.023 0.021 0.041
-0.021 0.025 0.043
-0.021 0.029 0.039
-0.015 0.017 0.057
-0.019 0.009 0.063
-0.013 0.045 0.043
-0.009 0.049 0.045
-0.013 0.037 0.059
-0.011 0.043 0.085
-0.007 0.047 0.085
-0.013 0.041 0.085
-0.017 0.033 0.097
-0.007 0.049 0.083
0.003 0.061 0.091
-0.011 -0.037 0.037
-0.009 -0.043 0.063
-0.027 -0.023 0.037
-0.005 -0.043 0.037
-0.017 -0.033 0.037
-0.005 -0.031 0.043
-0.001 -0.033 0.045
-0.019 -0.027 0.047
-0.011 -0.033 0.043
-0.021 -0.025 0.063
-0.011 -0.037 0.065
-0.007 -0.055 0.079
-0.007 -0.045 0.071
-0.005 -0.055 0.085
-0.011 -0.045 0.081
-0.005 -0.047 0.089
-0.007 -0.045 0.071
-0.011 -0.047 0.075
-0.009 -0.053 0.079
-0.021 -0.011 0.077
-0.021 -0.025 0.083
-0.009 -0.027 0.091
-0.011 -0.035 0.085
-0.013 -0.023 0.095
-0.001 -0.049 0.055
0.007 -0.049 0.049
-0.001 -0.043 0.043
-0.001 -0.047 0.047
-0.003 -0.045 0.055
-0.001 -0.049 0.057
0.013 -0.027 0.061
-0.003 -0.045 0.071
-0.021 -0.027 0.041
-0.013 -0.031 0.043
-0.017 -0.029 0.043
-0.019 -0.025 0.053
-0.015 -0.035 0.067
-0.019 0.001 0.055
-0.021 -0.019 0.059
-0.019 -0.031 0.065
-0.025 -0.015 0.045
-0.019 0.003 0.051
-0.023 0.015 0.041
-0.021 0.001 0.065
-0.019 -0.031 0.071
-0.021 -0.003 0.069
-0.021 -0.011 0.077
-0.019 -0.031 0.079
-0.015 -0.035 0.077
-0.021 -0.021 0.085
-0.025 0.015 0.087
-0.021 -0.009 0.083
-0.017 0.017 0.083
-0.023 0.015 0.087
-0.021 -0.005 0.073
-0.021 -0.005 0.073
-0.021 -0.013 0.081
-0.017 0.015 0.089
-0.015 -0.025 0.091
-0.017 0.017 0.095
-0.019 -0.015 0.089
-0.013 0.013 0.095
-0.011 0.015 0.099
-0.021 0.017 0.099
-0.021 0.017 0.101
-0.019 0.023 0.105
-0.021 0.015 0.097
-0.019 0.017 0.097
-0.013 0.017 0.101
-0.013 -0.031 0.043
-0.007 -0.029 0.045
-0.005 -0.029 0.045
-0.007 -0.033 0.057
-0.007 -0.033 0.057
-0.011 -0.035 0.061
-0.005 -0.031 0.055
-0.017 -0.029 0.055
-0.003 0.009 0.095
-0.007 -0.027 0.089
0.001 0.021 0.097
-0.007 0.007 0.099
0.009 -0.049 0.053
0.011 -0.047 0.053
0.011 -0.029 0.045
-0.001 -0.023 0.059
-0.003 -0.033 0.063
-0.005 -0.029 0.049
0.015 -0.023 0.061
-0.007 -0.007 0.063
-0.005 -0.051 0.075
-0.003 -0.049 0.081
-0.007 -0.037 0.073
-0.007 -0.035 0.081
-0.003 -0.005 0.065
-0.001 -0.017 0.083
-0.003 -0.021 0.087
-0.005 -0.011 0.091
-0.005 -0.011 0.091
-0.011 -0.001 0.091
0.011 -0.039 0.053
0.009 -0.043 0.059
0.011 -0.023 0.035
0.017 -0.025 0.047
0.017 -0.027 0.053
0.017 -0.023 0.045
0.013 -0.019 0.059
0.001 -0.001 0.059
0.003 -0.041 0.065
0.007 -0.023 0.071
0.011 0.005 0.039
-0.003 0.005 0.037
-0.001 0.003 0.041
0.003 0.005 0.045
0.003 0.009 0.057
0.011 0.017 0.045
-0.005 -0.007 0.065
-0.005 -0.005 0.057
0.001 0.005 0.069
-0.003 0.021 0.055
-0.003 0.025 0.063
-0.003 0.023 0.067
-0.001 0.025 0.057
-0.005 0.025 0.061
0.009 0.027 0.055
0.009 0.029 0.055
0.005 0.031 0.065
-0.001 0.023 0.069
0.007 0.035 0.063
-0.001 0.009 0.069
-0.001 0.021 0.077
-0.005 0.005 0.095
-0.001 0.017 0.095
0.003 0.025 0.091
0.001 0.023 0.099
0.003 0.037 0.101
0.011 0.049 0.087
-0.005 0.011 0.103
0.001 0.021 0.097
-0.001 0.015 0.103
-0.003 0.017 0.107
-0.005 0.029 0.105
-0.017 0.003 0.113
0.005 0.051 0.105
0.001 0.057 0.105
0.019 0.025 0.037
0.019 0.029 0.045
0.019 0.029 0.045
0.021 0.031 0.045
0.015 0.037 0.043
0.007 0.039 0.061
0.011 0.049 0.087
0.007 0.059 0.093
0.003 0.043 0.101
