-0.009 -0.035 0.041
-0.005 -0.047 0.059
-0.021 -0.029 0.039
-0.009 -0.037 0.039
-0.021 -0.023 0.063
-0.021 -0.021 0.053
-0.021 -0.025 0.061
-0.021 -0.027 0.071
-0.021 -0.027 0.075
-0.019 -0.025 0.085
-0.013 -0.011 0.093
-0.001 -0.043 0.033
0.005 -0.049 0.051
-0.015 -0.031 0.043
-0.003 -0.033 0.043
-0.013 -0.027 0.051
-0.015 -0.029 0.055
-0.009 -0.045 0.067
-0.011 -0.045 0.071
-0.015 0.013 0.035
-0.023 0.013 0.039
-0.021 0.011 0.041
-0.013 0.007 0.037
-0.015 0.007 0.039
-0.023 0.017 0.043
-0.015 0.009 0.039
-0.019 0.035 0.053
-0.017 0.037 0.055
-0.021 0.003 0.069
-0.021 -0.001 0.073
-0.021 -0.011 0.077
-0.017 0.023 0.075
-0.025 0.015 0.087
-0.023 0.019 0.091
-0.015 0.011 0.089
-0.003 0.057 0.087
-0.017 0.011 0.107
-0.005 0.007 0.103
-0.025 0.021 0.099
-0.015 0.021 0.103
-0.003 0.017 0.107
-0.015 0.005 0.111
-0.023 0.025 0.107
-0.017 0.007 0.043
-0.019 -0.027 0.051
-0.019 -0.025 0.053
-0.019 -0.025 0.055
-0.019 -0.025 0.053
-0.021 -0.023 0.055
-0.013 -0.001 0.049
-0.021 -0.019 0.059
-0.021 -0.025 0.061
-0.017 -0.005 0.063
-0.017 -0.009 0.069
-0.021 -0.005 0.075
-0.013 0.029 0.063
-0.021 -0.005 0.079
-0.007 0.011 0.093
-0.011 0.013 0.091
-0.025 0.013 0.097
-0.025 0.019 0.097
-0.025 0.019 0.099
-0.017 0.015 0.109
0.001 0.037 0.075
-0.001 -0.023 0.059
-0.003 -0.017 0.059
0.003 0.007 0.059
0.003 -0.021 0.073
0.013 0.055 0.085
-0.001 -0.021 0.075
0.001 0.005 0.069
-0.001 -0.003 0.077
0.005 0.049 0.097
-0.001 -0.021 0.085
0.001 0.041 0.095
0.013 -0.005 0.039
0.015 -0.043 0.041
0.015 -0.035 0.043
0.013 -0.005 0.039
0.015 -0.005 0.037
0.003 -0.011 0.049
0.015 -0.003 0.035
0.013 -0.019 0.059
0.011 -0.019 0.057
-0.009 0.047 0.037
0.009 0.045 0.045
-0.015 0.047 0.041
0.001 0.003 0.071
0.005 0.061 0.087
-0.003 0.041 0.073
-0.005 0.057 0.097
0.001 0.055 0.099
-0.001 0.059 0.087
-0.001 0.059 0.101
-0.005 0.055 0.095
-0.003 0.053 0.095
-0.011 0.027 0.109
0.013 0.039 0.043
0.019 0.035 0.043
0.017 0.039 0.041
0.021 0.033 0.045
0.001 0.001 0.065
0.009 0.057 0.089
0.007 0.061 0.091
0.009 0.051 0.099
0.017 -0.021 0.047
-0.001 -0.037 0.059
0.001 -0.011 0.049
-0.003 -0.013 0.051
0.013 -0.015 0.039
-0.005 -0.009 0.039
-0.007 -0.007 0.047
0.013 -0.019 0.057
0.007 -0.021 0.063
0.001 0.005 0.063
0.001 -0.001 0.063
0.003 -0.043 0.065
-0.005 -0.041 0.075
-0.005 -0.045 0.075
-0.001 -0.013 0.083
-0.009 -0.017 0.093
-0.001 -0.003 0.083
-0.007 -0.001 0.087
-0.009 0.001 0.087
-0.007 -0.009 0.091
-0.009 -0.001 0.089
0.019 -0.025 0.051
0.011 -0.045 0.053
0.011 -0.041 0.053
0.017 -0.027 0.051
0.009 -0.043 0.059
0.013 -0.027 0.035
0.011 -0.027 0.033
0.009 -0.015 0.049
0.015 -0.007 0.037
0.011 -0.015 0.047
0.003 0.043 0.033
-0.007 0.017 0.063
0.007 0.043 0.037
-0.009 0.007 0.081
0.001 0.023 0.073
0.003 0.031 0.069
-0.001 0.023 0.081
-0.001 0.019 0.089
-0.001 0.045 0.069
0.009 0.049 0.097
0.009 0.049 0.097
0.007 0.059 0.085
-0.013 0.011 0.109
-0.003 0.011 0.099
0.001 0.027 0.101
0.001 0.023 0.103
-0.001 0.019 0.109
0.019 0.023 0.035
0.013 0.007 0.039
0.021 0.031 0.039
0.009 0.043 0.053
0.005 0.031 0.067
0.009 0.043 0.085
0.011 0.051 0.087
0.011 -0.023 0.033
0.015 -0.043 0.041
0.009 -0.043 0.035
0.011 -0.043 0.037
0.013 -0.027 0.039
0.015 -0.025 0.045
0.013 -0.015 0.039
-0.005 -0.033 0.057
0.013 -0.023 0.063
-0.005 -0.049 0.077
-0.005 -0.051 0.079
-0.001 -0.045 0.067
-0.001 -0.045 0.069
-0.003 -0.033 0.065
0.005 -0.023 0.071
-0.003 -0.007 0.071
-0.003 -0.031 0.083
-0.001 -0.023 0.085
-0.003 -0.005 0.087
0.007 -0.049 0.047
0.015 -0.035 0.041
0.009 -0.049 0.051
0.009 -0.043 0.057
0.013 -0.031 0.033
0.011 -0.025 0.037
0.015 -0.027 0.047
0.015 -0.023 0.043
0.015 -0.009 0.035
0.013 -0.007 0.039
0.015 -0.009 0.033
0.015 -0.007 0.033
0.009 -0.013 0.047
0.019 -0.023 0.053
0.017 -0.023 0.059
-0.005 0.001 0.043
0.011 0.007 0.043
-0.001 -0.001 0.053
0.001 0.007 0.063
0.013 0.021 0.047
0.019 0.025 0.037
0.021 0.029 0.039
0.023 0.033 0.043
0.011 0.025 0.053
-0.001 -0.001 0.077
-0.007 0.021 0.067
-0.003 0.023 0.067
-0.011 0.013 0.083
-0.003 0.009 0.089
-0.001 0.021 0.091
0.003 0.027 0.067
0.001 0.035 0.075
0.005 0.033 0.087
0.007 0.039 0.083
0.009 0.043 0.095
-0.017 0.003 0.111
-0.007 0.005 0.101
-0.003 0.011 0.097
-0.001 0.019 0.109
0.003 0.005 0.045
0.003 0.003 0.053
0.007 0.009 0.051
0.009 0.023 0.053
0.023 0.035 0.041
0.007 0.047 0.047
0.007 0.039 0.083
0.007 0.047 0.089
0.007 0.047 0.095
0.013 0.055 0.087
0.009 0.051 0.089
-0.015 -0.035 0.033
-0.019 -0.031 0.037
-0.025 -0.021 0.041
-0.015 -0.011 0.037
-0.017 -0.009 0.043
-0.021 -0.019 0.053
-0.015 -0.001 0.053
-0.015 -0.035 0.065
-0.011 -0.041 0.075
-0.013 -0.037 0.077
-0.019 -0.029 0.077
-0.019 -0.021 0.071
-0.017 -0.017 0.065
-0.017 -0.011 0.073
-0.017 -0.005 0.089
-0.017 -0.033 0.037
0.001 -0.039 0.047
-0.003 -0.047 0.055
-0.005 -0.047 0.063
-0.027 -0.015 0.041
-0.013 -0.007 0.041
0.003 -0.005 0.037
-0.021 -0.021 0.057
-0.023 0.017 0.043
-0.023 0.021 0.041
-0.021 0.027 0.045
-0.011 0.047 0.043
-0.011 0.043 0.063
-0.005 0.051 0.055
-0.009 0.049 0.059
-0.017 0.005 0.079
-0.015 0.015 0.081
-0.015 0.013 0.081
-0.025 0.017 0.095
-0.025 0.019 0.093
-0.019 0.029 0.089
-0.025 0.017 0.095
-0.023 0.019 0.095
-0.007 0.043 0.071
-0.015 0.033 0.085
-0.003 0.057 0.085
-0.017 0.009 0.111
-0.015 0.021 0.103
-0.013 0.041 0.103
-0.007 0.053 0.099
-0.007 0.055 0.097
-0.015 0.009 0.039
-0.021 0.013 0.043
-0.019 0.017 0.049
-0.017 0.013 0.057
-0.019 0.041 0.041
-0.007 0.049 0.061
-0.013 0.035 0.069
-0.015 0.035 0.091
-0.013 0.043 0.101
-0.003 -0.049 0.057
-0.027 -0.019 0.041
-0.009 -0.039 0.037
-0.027 -0.017 0.041
-0.015 -0.027 0.051
-0.005 -0.031 0.053
-0.007 -0.031 0.055
-0.021 -0.021 0.053
-0.019 -0.029 0.061
-0.007 -0.031 0.055
-0.013 -0.035 0.065
-0.009 -0.051 0.083
-0.021 -0.027 0.069
-0.007 -0.045 0.069
-0.011 -0.049 0.079
-0.011 -0.045 0.079
-0.005 -0.025 0.089
-0.005 -0.025 0.089
-0.019 -0.023 0.089
-0.015 -0.025 0.091
-0.001 -0.043 0.039
0.003 -0.045 0.039
-0.001 -0.045 0.043
-0.005 -0.041 0.041
0.001 -0.047 0.065
0.011 -0.025 0.063
-0.025 -0.017 0.045
-0.021 -0.023 0.057
-0.021 0.011 0.041
-0.021 -0.027 0.071
-0.021 -0.003 0.069
-0.021 -0.011 0.077
-0.019 -0.031 0.081
-0.021 -0.025 0.081
-0.019 -0.027 0.077
-0.015 -0.029 0.089
-0.021 0.015 0.087
-0.023 0.017 0.091
-0.013 0.013 0.097
-0.017 0.009 0.107
-0.013 0.009 0.109
-0.011 -0.033 0.043
-0.003 -0.041 0.043
-0.003 -0.041 0.043
-0.007 -0.029 0.045
-0.007 -0.031 0.055
-0.009 -0.043 0.063
-0.011 -0.043 0.069
-0.007 -0.029 0.051
-0.003 -0.047 0.053
-0.013 -0.037 0.073
-0.013 -0.033 0.089
-0.011 -0.031 0.091
-0.011 -0.027 0.093
-0.015 -0.035 0.075
-0.013 -0.037 0.073
0.001 0.021 0.101
0.003 -0.041 0.033
-0.013 -0.033 0.041
-0.013 -0.033 0.059
-0.021 -0.027 0.043
-0.019 -0.027 0.043
-0.017 -0.029 0.043
-0.013 -0.037 0.035
-0.007 -0.043 0.033
0.001 -0.045 0.041
-0.017 -0.027 0.053
0.003 -0.049 0.049
0.003 -0.047 0.063
-0.013 -0.029 0.055
-0.003 -0.047 0.053
-0.019 -0.033 0.067
-0.011 -0.045 0.071
-0.007 -0.045 0.067
-0.011 -0.047 0.077
-0.001 -0.029 0.073
-0.005 -0.047 0.065
-0.007 -0.055 0.075
0.003 -0.021 0.073
-0.005 -0.025 0.089
0.005 -0.049 0.051
0.015 -0.041 0.039
0.007 -0.043 0.035
0.015 -0.035 0.035
0.011 -0.047 0.049
0.017 -0.027 0.053
0.005 -0.025 0.067
0.013 -0.043 0.039
-0.001 -0.045 0.043
0.003 -0.049 0.051
0.005 -0.045 0.039
0.003 -0.049 0.057
0.009 -0.045 0.039
0.015 -0.041 0.039
-0.011 -0.031 0.091
-0.001 -0.011 0.083
-0.003 -0.005 0.067
0.003 -0.021 0.073
0.001 0.021 0.087
-0.003 0.009 0.089
-0.007 0.005 0.101
-0.005 0.007 0.103
-0.007 0.005 0.095
0.001 0.021 0.099
0.015 -0.029 0.051
0.013 -0.027 0.051
0.011 -0.029 0.059
0.021 0.029 0.039
0.003 0.049 0.107
0.015 -0.027 0.049
0.009 -0.049 0.049
0.011 -0.047 0.053
0.001 -0.047 0.065
0.009 -0.045 0.057
0.017 -0.023 0.059
0.007 -0.025 0.067
-0.007 -0.007 0.065
-0.007 -0.005 0.059
0.007 -0.023 0.071
-0.005 -0.041 0.079
-0.003 -0.041 0.071
-0.007 -0.041 0.081
-0.003 -0.033 0.079
-0.001 -0.027 0.071
-0.007 -0.015 0.073
-0.011 -0.025 0.093
-0.005 -0.015 0.091
0.007 -0.039 0.057
0.015 -0.037 0.043
0.013 -0.027 0.037
0.005 -0.027 0.045
0.015 -0.029 0.057
0.007 -0.023 0.069
0.001 0.003 0.043
0.003 0.013 0.057
0.001 0.021 0.055
0.001 0.021 0.055
0.009 0.027 0.055
0.011 0.035 0.055
-0.001 0.003 0.077
-0.003 0.019 0.073
-0.011 0.013 0.081
-0.003 0.009 0.089
0.001 0.023 0.077
0.003 0.037 0.071
0.001 0.041 0.071
0.003 0.027 0.091
0.001 0.023 0.093
0.005 0.031 0.095
0.005 0.035 0.089
-0.003 0.009 0.101
-0.001 0.015 0.101
-0.005 0.015 0.103
-0.003 0.017 0.105
-0.001 0.015 0.103
-0.007 0.023 0.107
0.015 0.013 0.033
0.025 0.035 0.041
0.007 0.043 0.061
0.003 0.029 0.085
0.005 0.039 0.065
0.007 0.039 0.099
0.009 0.049 0.099
-0.015 -0.011 0.035
-0.019 -0.025 0.055
-0.017 -0.029 0.057
-0.021 -0.023 0.059
-0.021 -0.025 0.045
-0.019 -0.013 0.051
-0.025 -0.015 0.043
-0.021 0.001 0.065
-0.019 0.009 0.065
-0.019 -0.031 0.073
-0.019 -0.029 0.081
-0.011 -0.047 0.081
-0.007 -0.045 0.087
-0.021 -0.025 0.073
-0.019 -0.023 0.075
-0.015 -0.017 0.067
-0.021 -0.013 0.079
-0.021 -0.005 0.075
-0.021 -0.015 0.083
-0.009 -0.009 0.035
-0.021 -0.017 0.051
-0.019 -0.013 0.051
-0.021 -0.025 0.061
-0.019 -0.013 0.055
-0.017 -0.009 0.049
-0.019 0.007 0.051
-0.021 0.011 0.043
-0.021 0.011 0.045
-0.019 0.003 0.059
-0.021 0.011 0.045
-0.021 0.015 0.043
-0.023 0.023 0.037
-0.021 0.021 0.041
-0.019 0.007 0.051
-0.019 0.005 0.071
-0.013 0.013 0.065
-0.017 0.021 0.079
-0.015 0.027 0.071
-0.025 0.017 0.093
-0.019 0.025 0.083
-0.021 0.027 0.093
-0.019 0.025 0.083
-0.023 0.023 0.095
-0.017 0.029 0.083
-0.015 0.039 0.095
-0.007 0.045 0.069
-0.011 0.037 0.075
-0.011 0.035 0.079
-0.009 0.037 0.077
-0.015 0.037 0.085
-0.015 0.039 0.097
-0.009 0.041 0.089
-0.023 0.025 0.101
-0.021 0.027 0.101
-0.017 0.035 0.099
-0.009 0.039 0.105
-0.019 0.039 0.041
-0.017 0.047 0.041
-0.017 0.047 0.041
-0.013 0.045 0.043
-0.011 0.019 0.057
-0.017 0.013 0.061
-0.017 0.051 0.039
-0.017 0.051 0.037
-0.007 0.037 0.105
