0.037 0.015 0.085
0.035 0.015 0.083
0.033 0.015 0.075
0.029 0.015 0.073
0.041 0.015 0.093
0.031 0.019 0.097
0.031 0.017 0.083
0.033 0.019 0.101
0.039 0.015 0.097
0.029 0.021 0.099
0.027 0.021 0.093
0.027 0.019 0.091
0.027 0.021 0.103
0.029 0.017 0.105
0.029 0.017 0.105
0.027 0.021 0.099
0.029 0.021 0.099
0.033 0.017 0.103
0.029 0.017 0.105
0.031 0.021 0.103
0.027 0.019 0.105
0.039 0.013 0.085
0.041 0.013 0.095
0.045 0.009 0.085
0.039 0.013 0.087
0.041 0.013 0.085
0.031 0.015 0.079
0.027 0.017 0.077
0.035 0.015 0.087
0.035 0.013 0.077
0.029 0.015 0.073
0.039 0.015 0.095
0.039 0.015 0.095
0.045 0.013 0.093
0.037 0.015 0.089
0.039 0.013 0.085
0.039 0.015 0.095
0.045 0.009 0.083
0.037 0.011 0.075
0.041 0.007 0.073
0.041 0.005 0.073
0.041 0.009 0.073
0.043 0.011 0.081
0.035 0.013 0.075
0.035 0.013 0.077
0.037 0.013 0.081
0.035 0.013 0.075
0.033 0.015 0.075
0.033 0.015 0.075
0.041 0.011 0.071
0.041 0.013 0.085
0.037 0.013 0.081
0.043 0.013 0.101
0.043 0.011 0.103
0.037 0.017 0.095
0.039 0.015 0.097
0.037 0.011 0.105
0.043 0.011 0.103
0.039 0.015 0.101
0.035 0.015 0.103
0.037 0.015 0.103
0.035 0.015 0.103
0.033 0.015 0.085
-0.003 0.013 0.093
0.025 0.015 0.103
0.039 0.015 0.097
0.047 0.007 0.063
0.049 0.009 0.059
0.039 -0.013 0.035
0.051 -0.003 0.049
0.051 0.005 0.049
0.035 -0.015 0.045
0.045 -0.007 0.059
0.031 -0.015 0.047
0.045 0.007 0.069
0.043 0.005 0.071
0.045 -0.001 0.067
0.045 0.009 0.067
0.045 0.011 0.065
0.045 0.011 0.063
0.043 0.011 0.067
0.041 0.009 0.073
0.041 0.009 0.073
0.041 0.007 0.073
0.049 0.001 0.063
0.049 0.005 0.063
0.049 0.003 0.063
0.051 -0.001 0.055
0.049 -0.003 0.055
0.049 0.003 0.059
0.049 0.001 0.061
0.049 0.001 0.063
0.051 0.005 0.055
0.051 0.003 0.055
0.045 -0.005 0.063
0.045 0.003 0.069
0.045 0.009 0.081
0.043 0.011 0.081
0.039 0.007 0.075
0.039 0.013 0.087
0.041 0.013 0.085
0.041 0.015 0.093
0.041 0.013 0.091
0.043 0.011 0.087
0.045 -0.001 0.067
0.045 -0.003 0.067
0.061 0.003 0.083
0.043 0.003 0.071
0.045 0.003 0.069
0.045 0.005 0.069
0.045 0.005 0.069
0.039 0.009 0.075
0.043 0.007 0.071
0.047 0.007 0.081
0.039 -0.017 0.033
0.037 -0.021 0.039
0.037 -0.021 0.041
0.035 -0.015 0.045
0.051 -0.003 0.049
0.051 -0.001 0.051
0.051 -0.003 0.049
0.049 -0.003 0.039
0.051 0.001 0.043
0.039 -0.013 0.045
0.047 -0.007 0.055
0.035 -0.015 0.045
0.045 -0.009 0.051
0.049 -0.003 0.055
0.049 -0.005 0.053
0.045 -0.007 0.057
0.049 -0.005 0.055
0.057 0.005 0.081
0.057 0.005 0.081
0.045 -0.005 0.063
0.045 -0.003 0.065
0.047 -0.001 0.063
0.051 0.005 0.087
0.053 0.009 0.097
0.049 0.007 0.099
0.051 0.007 0.099
0.049 0.007 0.099
0.043 0.005 0.103
0.043 0.005 0.103
0.053 0.005 0.087
0.057 0.005 0.081
0.061 -0.005 0.093
0.059 0.003 0.101
0.053 0.003 0.103
0.057 0.005 0.101
0.059 0.003 0.101
0.059 0.005 0.101
0.059 0.005 0.101
0.057 0.005 0.101
0.055 0.001 0.105
0.057 0.001 0.105
0.051 0.003 0.103
0.063 -0.005 0.093
0.057 0.001 0.089
0.061 0.001 0.085
0.061 -0.003 0.087
0.053 -0.005 0.091
0.055 0.001 0.089
0.057 -0.003 0.091
0.027 0.001 0.105
0.037 0.003 0.105
0.035 -0.001 0.105
0.021 -0.001 0.107
0.051 -0.005 0.105
0.055 0.001 0.105
0.057 0.001 0.105
0.051 0.003 0.105
0.055 0.001 0.105
0.051 0.001 0.107
0.055 -0.005 0.105
0.055 -0.007 0.105
0.057 -0.001 0.105
0.055 -0.005 0.103
0.055 -0.005 0.105
0.009 0.019 0.065
-0.011 0.019 0.049
0.017 0.013 0.059
0.013 0.019 0.055
0.009 0.019 0.053
0.005 0.019 0.073
-0.015 0.021 0.049
-0.015 0.021 0.051
-0.013 0.019 0.055
0.023 0.023 0.099
0.019 0.025 0.101
0.019 0.023 0.103
0.025 0.023 0.101
0.013 0.015 0.065
0.015 0.015 0.059
0.011 0.017 0.063
0.003 0.019 0.061
-0.011 0.019 0.049
-0.009 0.017 0.045
-0.011 0.019 0.045
-0.011 0.019 0.041
-0.013 0.019 0.055
0.003 0.021 0.071
0.017 0.013 0.059
0.017 0.013 0.059
0.013 0.019 0.055
-0.009 0.017 0.041
0.031 0.015 0.077
0.031 0.015 0.079
0.013 0.015 0.063
0.013 0.015 0.063
0.015 0.013 0.061
0.011 0.019 0.061
-0.015 0.021 0.047
-0.017 0.025 0.045
-0.011 0.019 0.045
-0.011 0.023 0.043
-0.015 0.027 0.041
-0.019 0.029 0.037
-0.015 0.021 0.053
-0.019 0.021 0.049
-0.017 0.021 0.047
-0.017 0.023 0.045
-0.013 0.027 0.039
-0.011 0.019 0.041
-0.011 0.019 0.049
0.023 0.023 0.091
0.031 0.017 0.085
0.031 0.017 0.089
0.027 0.021 0.103
0.031 0.019 0.097
-0.019 0.019 0.065
0.017 0.025 0.089
0.027 0.019 0.083
0.037 0.015 0.085
0.011 0.017 0.067
0.005 0.019 0.067
0.027 0.019 0.085
0.003 0.021 0.069
0.005 0.019 0.075
0.017 0.025 0.087
0.009 0.017 0.069
0.027 0.019 0.085
0.007 0.019 0.071
-0.017 0.021 0.055
-0.019 0.021 0.059
-0.017 0.021 0.057
-0.023 0.021 0.063
-0.011 0.019 0.049
-0.015 0.021 0.049
0.003 0.021 0.067
0.001 0.019 0.061
-0.007 0.015 0.091
-0.009 0.019 0.087
-0.003 0.013 0.093
-0.009 0.013 0.093
-0.023 0.017 0.091
-0.017 0.021 0.081
-0.047 0.009 0.085
-0.045 0.009 0.085
-0.047 0.007 0.087
-0.047 0.011 0.081
0.005 0.019 0.113
-0.023 0.013 0.095
-0.045 0.003 0.087
-0.045 0.011 0.083
-0.021 0.015 0.093
0.027 0.023 0.107
0.029 0.021 0.105
0.015 0.025 0.093
-0.003 0.011 0.091
0.025 0.019 0.107
0.015 0.017 0.107
0.019 0.015 0.107
0.025 0.019 0.107
0.031 0.019 0.095
0.027 0.021 0.095
0.029 0.021 0.097
0.027 0.021 0.093
0.035 0.015 0.103
0.033 0.015 0.103
0.019 0.025 0.097
0.021 0.025 0.097
0.013 0.027 0.095
-0.015 0.021 0.079
-0.021 0.021 0.085
-0.009 0.021 0.081
-0.013 0.021 0.083
-0.013 0.021 0.085
0.017 0.025 0.095
-0.001 0.021 0.077
0.017 0.025 0.095
-0.005 0.021 0.079
0.015 0.017 0.109
0.017 0.015 0.109
0.011 0.017 0.111
0.019 0.015 0.109
0.017 0.015 0.109
0.013 0.015 0.111
-0.021 0.017 0.091
0.011 0.017 0.111
0.007 0.019 0.111
0.007 0.019 0.109
-0.019 0.015 0.093
0.007 0.019 0.111
0.015 0.015 0.109
0.019 0.015 0.109
0.023 0.015 0.107
0.019 0.015 0.107
0.009 0.017 0.107
0.009 0.017 0.109
0.011 0.017 0.109
0.005 0.019 0.109
-0.007 0.013 0.093
-0.001 0.011 0.091
0.025 0.021 0.109
-0.023 0.019 0.089
-0.019 0.021 0.087
-0.019 0.017 0.091
-0.017 0.017 0.091
-0.013 0.021 0.087
0.015 0.025 0.097
0.019 0.025 0.097
0.019 0.025 0.097
0.013 0.027 0.095
0.041 0.017 0.055
0.041 0.019 0.049
0.043 0.017 0.047
0.043 0.015 0.045
0.025 0.023 0.033
0.047 0.011 0.045
0.051 0.005 0.043
0.027 0.015 0.051
0.039 0.013 0.069
0.019 0.015 0.055
0.045 0.013 0.057
0.043 0.015 0.053
0.045 0.013 0.053
0.041 0.017 0.055
0.043 0.017 0.053
0.041 0.019 0.047
0.041 0.019 0.045
0.015 0.019 0.053
0.015 0.021 0.047
0.015 0.021 0.051
0.025 0.023 0.039
0.019 0.023 0.041
0.031 0.023 0.035
0.029 0.023 0.037
0.027 0.021 0.041
0.031 0.023 0.037
0.021 0.025 0.035
0.031 0.021 0.047
0.021 0.017 0.047
0.035 0.019 0.053
0.041 0.013 0.085
0.041 0.013 0.085
0.013 0.015 0.065
0.035 0.013 0.065
0.039 0.013 0.059
0.035 0.017 0.055
0.037 0.011 0.075
0.039 0.011 0.071
0.039 0.011 0.073
0.037 0.013 0.071
0.033 0.015 0.069
0.013 0.019 0.055
0.011 0.019 0.059
0.013 0.021 0.053
0.015 0.021 0.051
0.009 0.019 0.063
0.017 0.019 0.051
0.023 0.017 0.049
0.031 0.019 0.051
0.045 0.013 0.043
0.047 0.013 0.039
0.049 0.015 0.041
0.049 0.017 0.041
0.051 0.015 0.039
0.051 0.015 0.039
0.049 0.011 0.039
0.041 0.017 0.043
0.047 0.013 0.049
0.049 0.001 0.037
0.049 0.001 0.039
0.051 0.013 0.037
0.049 0.007 0.041
0.051 0.005 0.045
0.051 0.007 0.047
0.049 0.019 0.039
0.047 0.023 0.039
0.037 0.019 0.043
0.039 0.019 0.041
0.045 0.017 0.041
0.053 0.017 0.033
0.049 0.021 0.039
0.037 0.017 0.055
0.035 0.013 0.061
0.047 0.011 0.059
0.047 0.009 0.063
0.051 0.003 0.051
0.051 0.003 0.055
0.043 0.017 0.049
0.041 0.015 0.093
0.035 0.015 0.087
0.035 0.015 0.087
0.027 0.019 0.085
0.041 0.013 0.099
0.039 0.015 0.099
0.037 0.015 0.103
0.035 0.017 0.097
0.027 0.021 0.089
0.033 0.017 0.091
0.035 0.013 0.075
0.033 0.015 0.075
0.031 0.017 0.083
0.031 0.015 0.079
0.033 0.015 0.069
0.031 0.015 0.069
0.033 0.015 0.075
0.047 0.011 0.095
0.045 0.011 0.097
0.029 0.015 0.079
0.027 0.019 0.083
0.031 0.015 0.077
0.007 0.019 0.071
0.019 0.023 0.087
0.027 0.019 0.085
0.031 0.015 0.103
0.033 0.017 0.103
0.039 0.013 0.103
0.025 0.023 0.101
0.029 0.021 0.097
0.025 0.023 0.097
0.029 0.021 0.105
0.027 0.021 0.103
0.025 0.013 0.109
0.033 0.013 0.105
0.035 0.011 0.105
0.031 0.013 0.105
0.031 0.019 0.103
0.029 0.021 0.105
0.047 0.011 0.095
0.045 0.009 0.097
0.031 0.017 0.083
0.043 0.007 0.103
0.023 0.023 0.093
0.027 0.021 0.089
0.031 0.021 0.103
0.025 0.023 0.101
0.023 0.023 0.097
0.033 0.017 0.093
0.027 0.021 0.095
0.043 0.003 0.071
0.045 0.007 0.069
0.043 0.007 0.071
0.035 0.013 0.071
0.037 0.013 0.071
0.041 0.011 0.081
0.039 0.009 0.075
0.053 0.005 0.087
0.051 0.005 0.089
0.039 0.013 0.085
0.037 0.015 0.089
0.037 0.013 0.087
0.043 0.009 0.099
0.047 0.011 0.095
0.041 0.013 0.097
0.043 0.013 0.093
0.039 0.015 0.097
0.041 0.013 0.099
0.047 0.011 0.095
0.057 0.003 0.087
0.051 0.007 0.083
0.055 0.003 0.089
0.055 0.003 0.089
0.023 0.013 0.115
0.025 0.009 0.109
0.025 0.013 0.109
0.027 0.011 0.109
0.029 0.005 0.105
0.029 0.011 0.105
0.025 0.007 0.107
0.027 0.003 0.105
0.027 0.007 0.105
0.027 0.009 0.107
0.029 0.019 0.105
0.023 0.003 0.105
0.029 0.001 0.105
0.031 0.009 0.105
0.019 0.015 0.107
0.023 0.013 0.113
0.023 0.013 0.113
0.023 0.013 0.109
0.023 0.023 0.101
0.015 0.017 0.107
0.011 0.017 0.111
0.029 0.021 0.105
0.027 0.021 0.105
0.025 0.021 0.103
0.027 0.023 0.107
0.027 0.021 0.105
0.031 0.021 0.103
0.023 0.013 0.115
0.051 0.005 0.101
0.045 0.007 0.099
0.039 0.015 0.097
0.041 0.005 0.105
0.057 0.005 0.103
0.055 0.003 0.103
0.059 0.005 0.101
0.055 0.007 0.099
0.057 0.005 0.097
0.059 0.003 0.103
