-0.033 -0.013 0.033
-0.045 -0.013 0.041
-0.041 -0.011 0.055
-0.037 -0.011 0.051
-0.043 -0.013 0.051
-0.035 -0.009 0.051
-0.035 -0.011 0.049
-0.045 -0.009 0.057
-0.029 -0.013 0.033
-0.027 -0.011 0.033
-0.019 -0.015 0.035
-0.021 -0.015 0.035
-0.019 -0.013 0.037
-0.021 -0.011 0.037
-0.029 -0.013 0.033
-0.021 -0.017 0.033
-0.027 -0.011 0.043
-0.021 -0.015 0.041
-0.003 -0.015 0.033
-0.005 -0.013 0.039
-0.011 -0.013 0.033
-0.009 -0.015 0.037
-0.003 -0.007 0.039
-0.009 -0.003 0.047
-0.023 -0.019 0.051
-0.019 -0.013 0.053
-0.025 -0.017 0.059
-0.025 -0.015 0.061
-0.021 -0.011 0.063
-0.025 -0.011 0.065
0.013 -0.015 0.031
0.031 -0.019 0.031
0.023 -0.017 0.043
0.013 -0.015 0.033
0.009 -0.015 0.037
0.009 -0.013 0.039
0.009 -0.015 0.033
0.005 -0.009 0.041
0.013 -0.007 0.045
0.011 -0.005 0.053
0.023 -0.013 0.049
0.027 -0.009 0.055
0.037 -0.021 0.033
0.033 -0.021 0.039
0.039 -0.017 0.033
0.047 -0.007 0.043
0.049 -0.005 0.041
0.033 -0.005 0.063
0.051 -0.003 0.053
0.049 -0.003 0.059
0.031 -0.003 0.071
0.043 -0.003 0.067
0.047 -0.011 0.085
0.043 -0.007 0.087
0.037 -0.005 0.089
0.027 -0.003 0.097
0.031 -0.003 0.103
0.047 -0.009 0.099
0.033 -0.003 0.101
0.039 -0.003 0.101
0.039 -0.001 0.103
0.043 -0.009 0.097
0.037 -0.001 0.105
0.049 -0.009 0.099
-0.035 -0.011 0.031
-0.033 -0.013 0.033
-0.021 -0.017 0.033
-0.037 -0.015 0.037
-0.025 -0.013 0.043
-0.039 -0.009 0.055
-0.039 -0.007 0.059
-0.017 -0.015 0.035
-0.021 -0.017 0.047
-0.019 -0.017 0.045
-0.005 -0.015 0.037
-0.011 -0.007 0.043
-0.009 -0.001 0.043
-0.021 -0.017 0.049
-0.019 -0.015 0.049
-0.021 -0.017 0.053
-0.007 0.007 0.049
0.001 -0.001 0.049
-0.021 0.001 0.063
-0.019 0.003 0.063
-0.013 0.005 0.057
-0.037 0.005 0.065
-0.035 0.005 0.069
-0.033 0.003 0.067
-0.037 0.007 0.075
-0.033 0.003 0.073
-0.027 0.001 0.075
-0.041 0.007 0.081
-0.015 0.007 0.065
-0.017 0.005 0.073
-0.021 0.001 0.079
-0.005 0.001 0.069
-0.003 0.001 0.069
-0.011 0.007 0.071
-0.001 0.001 0.079
-0.011 0.003 0.077
-0.031 0.003 0.081
-0.015 0.005 0.091
-0.013 0.003 0.087
-0.001 0.001 0.079
-0.003 0.001 0.081
0.019 -0.005 0.031
0.007 -0.013 0.039
0.011 -0.011 0.043
0.015 -0.011 0.043
0.027 -0.021 0.035
0.021 -0.015 0.039
0.037 -0.025 0.041
0.037 -0.023 0.043
0.011 -0.001 0.063
0.015 0.003 0.061
0.025 -0.005 0.055
0.027 -0.001 0.059
0.019 0.003 0.057
0.015 -0.005 0.053
0.015 0.001 0.059
0.047 -0.003 0.037
0.039 -0.019 0.039
0.043 -0.007 0.035
0.045 -0.007 0.041
0.049 -0.005 0.043
0.039 -0.013 0.043
0.047 -0.003 0.061
0.049 -0.005 0.055
0.041 -0.009 0.051
0.011 0.005 0.069
0.013 0.011 0.077
0.023 0.001 0.071
0.025 0.001 0.065
0.025 -0.001 0.069
0.025 -0.001 0.069
0.021 0.001 0.073
0.029 -0.001 0.077
0.007 0.001 0.071
0.019 0.003 0.079
0.003 0.003 0.081
0.015 0.005 0.083
0.017 0.003 0.083
0.013 0.003 0.095
0.015 0.001 0.091
0.019 0.001 0.085
0.019 0.001 0.091
0.023 -0.001 0.085
0.025 -0.001 0.083
0.033 -0.003 0.091
0.031 -0.003 0.091
0.035 -0.005 0.093
0.041 -0.009 0.083
0.049 -0.011 0.081
0.047 -0.011 0.081
0.037 -0.005 0.089
0.037 -0.005 0.093
0.039 0.007 0.093
0.037 -0.005 0.089
0.041 0.007 0.093
0.041 0.001 0.095
0.059 -0.001 0.083
0.061 -0.001 0.083
0.035 -0.005 0.089
0.013 0.003 0.101
0.017 0.001 0.097
0.023 -0.001 0.103
0.023 -0.001 0.105
0.019 -0.001 0.107
0.021 -0.001 0.107
0.031 -0.005 0.095
0.027 -0.001 0.103
0.031 -0.003 0.103
0.049 -0.009 0.097
0.043 -0.009 0.095
0.045 -0.009 0.099
0.037 -0.003 0.103
-0.031 0.019 0.067
-0.047 0.005 0.061
-0.047 0.003 0.053
-0.047 0.003 0.053
-0.047 0.011 0.081
-0.041 0.011 0.081
-0.035 0.017 0.071
-0.027 0.019 0.077
-0.027 0.013 0.091
-0.025 0.017 0.089
-0.023 0.019 0.089
-0.019 0.021 0.083
0.005 0.019 0.067
0.013 0.015 0.081
0.001 0.019 0.077
0.003 0.021 0.065
0.001 0.021 0.069
-0.001 0.019 0.081
0.019 0.013 0.071
0.011 0.017 0.067
0.015 0.025 0.095
0.005 0.017 0.079
-0.005 0.019 0.085
-0.005 0.019 0.087
0.019 0.025 0.097
0.015 0.025 0.097
0.019 0.025 0.099
0.021 0.025 0.097
0.021 0.025 0.097
0.027 0.013 0.063
0.035 0.013 0.061
0.035 0.015 0.055
0.025 0.021 0.093
0.029 0.019 0.089
0.039 0.009 0.075
0.043 0.011 0.069
0.001 0.015 0.087
-0.003 0.015 0.089
0.021 0.023 0.101
0.019 0.023 0.103
0.023 0.015 0.107
0.017 0.013 0.109
0.021 0.013 0.109
0.019 0.015 0.109
0.033 0.017 0.093
0.023 0.021 0.103
0.039 0.011 0.103
0.033 0.013 0.105
0.043 0.009 0.103
0.049 0.011 0.095
0.039 -0.001 0.105
-0.021 0.021 0.055
-0.037 0.015 0.073
-0.037 0.013 0.075
-0.033 0.019 0.069
-0.027 0.019 0.051
-0.015 0.021 0.053
-0.017 0.027 0.041
-0.023 0.023 0.041
-0.021 0.025 0.041
-0.017 0.025 0.045
-0.015 0.025 0.045
-0.025 0.021 0.077
-0.021 0.019 0.075
-0.029 0.019 0.063
-0.031 0.019 0.063
-0.031 0.019 0.065
-0.005 0.021 0.071
-0.007 0.021 0.077
-0.017 0.021 0.079
-0.023 0.021 0.055
-0.025 0.021 0.063
-0.021 0.019 0.065
-0.051 0.009 0.077
-0.037 0.015 0.073
-0.043 0.007 0.087
-0.033 0.013 0.089
-0.023 0.019 0.087
-0.009 0.019 0.089
-0.031 0.019 0.077
-0.027 0.021 0.075
-0.007 0.019 0.071
-0.009 0.021 0.077
-0.009 0.021 0.079
-0.011 0.021 0.079
-0.031 0.013 0.091
-0.019 0.005 0.091
-0.015 0.013 0.095
-0.009 0.011 0.095
-0.007 0.007 0.091
-0.003 0.013 0.091
-0.021 0.021 0.085
-0.021 0.021 0.087
-0.003 0.019 0.085
-0.009 0.017 0.091
0.013 0.021 0.049
0.017 0.023 0.041
0.003 0.019 0.059
0.001 0.021 0.063
0.003 0.019 0.055
-0.003 0.021 0.075
0.001 0.019 0.057
0.017 0.019 0.049
0.025 0.023 0.039
0.027 0.021 0.045
-0.005 0.021 0.079
0.013 0.015 0.065
0.023 0.013 0.053
0.021 0.011 0.055
0.025 0.015 0.051
0.033 0.019 0.051
0.045 0.015 0.041
0.041 0.019 0.053
0.053 0.015 0.037
0.047 0.011 0.051
0.037 0.021 0.039
0.041 0.019 0.051
0.047 0.011 0.059
0.011 0.013 0.071
-0.003 0.013 0.093
0.013 0.015 0.089
0.025 0.015 0.071
0.013 0.025 0.097
0.001 0.019 0.079
-0.001 0.013 0.091
0.005 0.011 0.087
0.011 0.017 0.111
0.011 0.015 0.093
0.015 0.015 0.099
0.021 0.015 0.103
0.025 0.023 0.097
0.013 0.025 0.097
0.013 0.025 0.101
0.019 0.025 0.093
0.031 0.021 0.103
0.039 0.015 0.093
0.041 0.015 0.093
0.035 0.015 0.087
0.031 0.019 0.099
0.039 0.013 0.089
0.043 0.013 0.101
0.031 0.021 0.103
0.041 0.013 0.095
0.005 0.019 0.113
0.005 0.017 0.113
0.009 0.017 0.111
0.015 0.011 0.109
0.013 0.015 0.111
0.013 0.015 0.111
0.017 0.011 0.109
0.007 0.019 0.111
0.021 0.023 0.101
0.037 0.007 0.105
0.059 0.001 0.103
0.051 0.001 0.107
-0.045 -0.001 0.041
-0.037 -0.001 0.049
-0.047 -0.001 0.045
-0.047 0.003 0.053
-0.033 -0.003 0.049
-0.033 0.015 0.039
-0.035 0.015 0.037
-0.031 0.019 0.037
-0.029 0.005 0.049
-0.029 0.019 0.041
-0.021 0.025 0.041
-0.021 0.025 0.041
-0.025 0.021 0.045
-0.029 0.021 0.039
-0.025 0.023 0.041
-0.023 0.025 0.039
-0.019 0.023 0.045
-0.019 0.021 0.047
-0.029 -0.013 0.053
-0.027 -0.011 0.053
-0.029 0.013 0.055
-0.027 0.015 0.051
-0.035 0.007 0.059
-0.035 0.009 0.059
-0.033 0.019 0.071
-0.033 0.019 0.071
0.013 0.017 0.035
0.009 0.015 0.039
0.007 0.019 0.051
0.009 0.019 0.051
0.007 0.001 0.035
0.001 0.013 0.047
0.007 0.017 0.045
-0.005 0.013 0.059
-0.005 0.017 0.063
-0.003 0.019 0.061
0.011 0.019 0.057
0.011 0.019 0.057
0.015 0.017 0.057
0.011 0.019 0.059
0.009 0.019 0.057
0.011 0.021 0.047
0.015 0.021 0.047
0.021 0.023 0.041
0.027 0.021 0.041
0.021 0.017 0.047
0.021 0.017 0.047
0.031 0.021 0.049
0.027 0.011 0.053
0.031 0.013 0.055
0.037 0.013 0.065
0.039 0.015 0.057
-0.007 0.017 0.069
0.015 0.017 0.091
0.015 0.025 0.087
0.029 0.019 0.091
0.029 0.017 0.087
0.055 0.003 0.089
0.017 0.009 0.101
0.013 0.023 0.097
0.013 0.025 0.103
0.017 0.025 0.101
0.025 0.023 0.101
0.051 0.003 0.103
-0.031 0.017 0.033
-0.023 0.027 0.035
-0.035 0.015 0.037
-0.041 0.005 0.041
-0.049 0.001 0.053
-0.041 0.005 0.059
-0.033 0.009 0.057
-0.039 0.007 0.063
-0.031 0.015 0.045
-0.023 0.027 0.037
-0.023 0.025 0.039
-0.017 0.021 0.049
-0.015 0.025 0.043
-0.031 0.019 0.039
-0.027 0.023 0.037
-0.019 0.027 0.041
-0.013 0.027 0.037
-0.029 0.017 0.057
-0.035 0.015 0.065
-0.025 0.019 0.065
-0.011 0.019 0.053
-0.005 0.011 0.059
-0.017 0.019 0.061
-0.011 0.017 0.055
-0.049 0.009 0.075
-0.047 0.005 0.065
-0.045 0.007 0.071
-0.045 0.011 0.071
-0.037 0.011 0.065
-0.037 0.013 0.067
-0.035 0.015 0.065
-0.039 0.011 0.069
-0.035 0.017 0.075
-0.033 0.019 0.073
-0.049 0.009 0.085
-0.047 0.009 0.085
-0.037 0.011 0.083
-0.037 0.013 0.081
-0.031 0.019 0.067
-0.021 0.019 0.067
-0.035 0.017 0.077
-0.023 0.021 0.077
-0.011 0.013 0.069
-0.031 0.019 0.075
-0.021 0.019 0.075
-0.035 0.013 0.083
-0.027 0.017 0.089
-0.017 0.015 0.093
-0.021 0.021 0.087
-0.015 0.021 0.083
-0.005 0.021 0.081
-0.005 0.019 0.087
0.017 0.021 0.031
0.005 0.009 0.039
0.009 0.015 0.039
-0.001 0.007 0.049
0.001 0.011 0.045
0.017 0.023 0.037
0.015 0.021 0.033
0.031 0.023 0.035
0.023 0.025 0.033
0.023 0.019 0.043
0.007 0.019 0.065
0.023 0.015 0.051
0.027 0.017 0.049
0.019 0.011 0.057
0.023 0.009 0.063
0.027 0.009 0.057
0.023 0.009 0.063
0.013 0.017 0.061
0.013 0.017 0.059
0.015 0.017 0.057
0.037 0.021 0.045
0.039 0.021 0.047
0.035 0.021 0.045
0.041 0.017 0.055
0.041 0.013 0.065
0.043 0.013 0.061
0.035 0.021 0.049
-0.001 0.021 0.067
0.005 0.019 0.067
0.011 0.017 0.067
-0.003 0.021 0.079
0.023 0.015 0.069
0.017 0.017 0.079
-0.005 0.021 0.083
-0.005 0.019 0.087
0.005 0.007 0.095
0.011 0.015 0.091
0.011 0.015 0.093
0.013 0.015 0.093
0.027 0.019 0.083
0.027 0.019 0.087
0.039 0.013 0.069
0.027 0.017 0.077
0.025 0.017 0.081
0.031 0.015 0.079
0.035 0.013 0.077
0.027 0.017 0.081
0.023 0.021 0.087
0.035 0.015 0.083
0.035 0.015 0.083
0.045 0.009 0.083
0.041 0.013 0.085
0.033 0.017 0.089
0.039 0.015 0.093
0.035 0.017 0.095
0.055 0.005 0.081
0.051 0.007 0.083
0.011 0.007 0.101
0.013 0.005 0.103
0.015 0.015 0.105
0.017 0.025 0.103
0.017 0.025 0.103
0.015 0.025 0.103
0.017 0.025 0.103
0.031 0.021 0.103
