0.039 0.021 0.049
0.041 0.019 0.049
0.039 0.021 0.049
0.035 0.021 0.047
0.021 0.015 0.051
0.023 0.013 0.053
0.019 0.017 0.053
0.015 0.021 0.049
0.015 0.019 0.053
0.017 0.019 0.051
0.019 0.015 0.055
0.017 0.017 0.055
0.019 0.011 0.057
0.015 0.015 0.059
0.023 0.013 0.053
0.019 0.011 0.057
0.017 0.011 0.059
0.017 0.013 0.059
0.011 0.017 0.063
0.003 0.019 0.061
0.013 0.015 0.065
0.009 0.019 0.059
0.015 0.015 0.059
0.011 0.019 0.061
0.009 0.017 0.069
0.007 0.017 0.071
0.009 0.017 0.069
0.041 0.019 0.051
0.041 0.019 0.051
0.039 0.017 0.055
0.039 0.017 0.055
0.041 0.019 0.049
0.043 0.017 0.049
0.041 0.019 0.049
0.043 0.017 0.053
0.041 0.019 0.053
0.041 0.019 0.049
0.039 0.021 0.049
0.035 0.013 0.061
0.021 0.013 0.055
0.023 0.009 0.055
0.021 0.013 0.055
0.019 0.015 0.055
0.017 0.017 0.055
0.017 0.017 0.055
0.019 0.015 0.055
0.045 0.013 0.051
0.041 0.019 0.047
0.041 0.019 0.049
0.043 0.015 0.047
0.041 0.017 0.055
0.041 0.017 0.055
0.037 0.015 0.057
0.023 0.009 0.055
0.041 0.013 0.063
0.017 0.009 0.061
0.037 0.013 0.067
0.031 0.015 0.065
0.017 0.013 0.057
0.017 0.011 0.059
0.031 0.013 0.063
0.033 0.015 0.069
0.037 0.013 0.071
0.033 0.013 0.067
0.033 0.015 0.073
0.027 0.015 0.071
0.029 0.015 0.071
0.031 0.013 0.059
0.019 0.011 0.057
0.031 0.015 0.067
0.033 0.015 0.069
0.033 0.015 0.075
0.033 0.015 0.075
0.027 0.017 0.077
0.027 0.015 0.073
0.021 0.015 0.073
0.049 0.007 0.041
0.047 0.011 0.043
0.049 0.015 0.041
0.049 0.005 0.041
0.037 -0.017 0.031
0.039 -0.013 0.033
0.047 0.003 0.035
0.039 -0.017 0.035
0.049 -0.005 0.045
0.047 -0.007 0.045
0.051 0.005 0.043
0.045 0.013 0.045
0.047 0.011 0.041
0.049 0.009 0.051
0.049 0.009 0.051
0.049 0.009 0.053
0.043 0.015 0.053
0.047 0.011 0.055
0.049 0.011 0.053
0.047 0.011 0.055
0.051 0.005 0.043
0.051 0.001 0.043
0.051 0.003 0.047
0.049 0.007 0.043
0.047 0.007 0.039
0.051 0.003 0.049
0.051 0.007 0.053
0.049 -0.005 0.049
0.051 -0.003 0.053
0.051 -0.003 0.053
0.039 0.013 0.061
0.047 0.011 0.059
0.045 0.011 0.063
0.037 0.013 0.065
0.039 0.013 0.069
0.041 0.013 0.063
0.041 0.013 0.067
0.051 0.005 0.057
0.051 -0.001 0.055
0.049 0.007 0.057
0.049 0.009 0.059
0.049 0.007 0.061
0.045 0.009 0.065
0.039 -0.017 0.035
0.039 -0.017 0.039
0.039 -0.019 0.041
0.039 -0.013 0.033
0.049 -0.003 0.039
0.045 -0.007 0.039
0.049 -0.003 0.039
0.049 -0.003 0.039
0.049 -0.003 0.041
0.051 -0.003 0.049
0.049 -0.005 0.047
0.051 -0.003 0.045
0.051 -0.001 0.047
0.049 -0.001 0.059
0.049 -0.003 0.059
0.051 -0.001 0.049
0.037 0.013 0.073
0.035 0.013 0.077
0.045 0.009 0.081
0.045 0.009 0.087
0.045 0.009 0.087
0.053 0.009 0.095
0.049 0.009 0.093
0.049 0.009 0.093
0.053 0.009 0.097
0.043 0.001 0.071
0.043 0.003 0.071
0.043 0.001 0.071
0.047 0.001 0.065
0.061 0.001 0.085
0.049 -0.011 0.081
0.053 0.005 0.087
0.055 0.003 0.089
0.059 0.001 0.087
0.059 -0.001 0.089
0.055 0.003 0.089
0.043 -0.001 0.089
0.045 0.003 0.089
0.057 0.005 0.097
0.053 0.007 0.095
0.057 -0.001 0.091
0.053 0.003 0.089
0.055 0.003 0.097
0.059 -0.007 0.085
0.057 -0.011 0.085
0.059 -0.007 0.085
0.061 0.001 0.085
0.061 -0.001 0.085
0.061 -0.003 0.085
0.061 -0.001 0.087
0.059 -0.001 0.089
0.055 0.003 0.089
0.061 -0.003 0.091
0.047 0.007 0.099
0.045 0.007 0.099
0.057 0.005 0.099
0.057 0.005 0.101
0.045 0.003 0.103
0.059 0.003 0.099
0.057 0.005 0.097
0.053 0.001 0.105
0.055 -0.003 0.103
-0.009 0.015 0.039
-0.013 0.017 0.037
-0.015 0.017 0.035
0.019 0.023 0.041
0.015 0.023 0.041
-0.009 0.017 0.041
-0.011 0.019 0.041
-0.009 0.017 0.045
-0.011 0.019 0.043
-0.011 0.023 0.041
-0.011 0.023 0.043
0.003 0.019 0.051
-0.009 0.015 0.049
0.009 0.019 0.053
0.003 0.019 0.053
-0.009 0.017 0.047
0.005 0.019 0.063
0.001 0.021 0.063
-0.017 0.017 0.065
0.001 0.021 0.071
-0.017 0.017 0.065
-0.019 0.019 0.063
-0.019 0.019 0.063
0.027 0.021 0.045
-0.011 0.015 0.037
0.015 0.019 0.053
-0.011 0.019 0.049
-0.011 0.019 0.049
0.035 0.021 0.049
0.037 0.021 0.051
0.031 0.021 0.047
0.019 0.021 0.043
0.015 0.021 0.045
0.021 0.015 0.053
0.013 0.021 0.051
0.015 0.021 0.051
-0.017 0.023 0.037
-0.013 0.025 0.039
-0.011 0.021 0.041
-0.011 0.019 0.041
-0.013 0.025 0.039
-0.013 0.023 0.045
-0.025 0.023 0.041
-0.015 0.025 0.045
-0.015 0.027 0.041
-0.013 0.027 0.039
-0.011 0.019 0.047
0.011 0.019 0.059
0.013 0.015 0.061
-0.011 0.019 0.053
-0.013 0.017 0.059
0.009 0.019 0.065
0.011 0.017 0.065
0.011 0.017 0.067
0.009 0.017 0.069
-0.015 0.017 0.061
-0.019 0.019 0.063
0.017 0.017 0.055
0.015 0.017 0.057
0.013 0.017 0.059
0.013 0.017 0.061
0.013 0.015 0.061
0.013 0.017 0.059
0.019 0.015 0.055
0.015 0.017 0.055
0.011 0.017 0.063
0.015 0.011 0.061
0.015 0.011 0.061
0.011 0.019 0.061
-0.017 0.021 0.057
-0.019 0.021 0.049
-0.017 0.021 0.057
-0.015 0.019 0.057
-0.019 0.019 0.061
-0.019 0.021 0.083
-0.017 0.021 0.081
0.001 0.021 0.075
0.003 0.019 0.073
0.003 0.021 0.071
0.001 0.021 0.075
-0.001 0.021 0.077
-0.019 0.017 0.071
-0.019 0.017 0.069
-0.019 0.017 0.071
-0.021 0.019 0.071
-0.021 0.019 0.073
-0.003 0.021 0.081
-0.005 0.021 0.083
-0.005 0.021 0.083
0.003 0.017 0.081
-0.021 0.019 0.077
-0.019 0.019 0.077
-0.025 0.019 0.069
-0.025 0.019 0.069
-0.025 0.021 0.073
-0.019 0.021 0.081
-0.017 0.021 0.087
-0.009 0.019 0.089
-0.009 0.019 0.089
0.017 0.025 0.087
-0.017 0.021 0.085
-0.015 0.021 0.083
0.009 0.015 0.073
0.005 0.017 0.077
0.009 0.015 0.073
0.003 0.021 0.071
0.001 0.021 0.075
0.009 0.017 0.069
0.009 0.015 0.073
0.033 0.015 0.075
0.007 0.017 0.071
0.023 0.017 0.081
-0.025 0.021 0.071
-0.021 0.019 0.069
-0.023 0.019 0.073
-0.017 0.021 0.081
0.003 0.021 0.069
-0.001 0.021 0.071
-0.001 0.021 0.077
-0.005 0.021 0.075
0.001 0.021 0.075
0.001 0.021 0.073
0.017 0.025 0.087
0.023 0.023 0.093
0.019 0.025 0.093
0.025 0.021 0.087
0.015 0.025 0.093
-0.011 0.021 0.087
0.023 0.023 0.095
0.013 0.027 0.095
0.017 0.025 0.095
-0.011 0.019 0.089
0.015 0.025 0.097
-0.017 0.013 0.095
0.029 0.019 0.089
0.023 0.023 0.095
0.021 0.025 0.097
0.021 0.025 0.099
0.025 0.021 0.093
-0.017 0.021 0.081
-0.015 0.021 0.087
-0.017 0.019 0.089
-0.011 0.019 0.089
0.039 0.021 0.039
0.053 0.015 0.037
0.051 0.017 0.037
0.051 0.021 0.037
0.033 0.021 0.035
0.025 0.023 0.031
0.043 0.017 0.047
0.041 0.019 0.047
0.043 0.019 0.041
0.041 0.019 0.053
0.023 0.015 0.051
0.029 0.021 0.047
0.017 0.019 0.049
0.017 0.019 0.047
0.021 0.023 0.039
0.015 0.021 0.043
0.015 0.021 0.049
0.015 0.021 0.045
0.027 0.021 0.039
0.029 0.023 0.037
0.021 0.025 0.033
0.027 0.021 0.043
0.019 0.021 0.043
0.021 0.023 0.041
0.041 0.013 0.063
0.017 0.013 0.059
0.041 0.013 0.059
0.039 0.013 0.059
0.043 0.013 0.059
0.041 0.015 0.057
0.039 0.017 0.055
0.033 0.013 0.061
0.035 0.013 0.063
0.007 0.019 0.055
0.015 0.021 0.051
0.011 0.019 0.057
0.015 0.017 0.057
0.045 0.005 0.033
0.049 0.005 0.039
0.049 0.021 0.039
0.049 0.021 0.039
0.051 0.017 0.039
0.053 0.015 0.037
0.045 0.013 0.047
0.053 0.015 0.037
0.051 0.003 0.043
0.045 0.023 0.039
0.049 0.021 0.039
0.033 0.021 0.041
0.049 0.023 0.037
0.035 0.013 0.059
0.039 0.013 0.059
0.047 0.009 0.063
0.051 0.001 0.049
0.049 0.009 0.055
0.049 0.007 0.059
0.039 0.021 0.051
0.037 0.021 0.049
0.039 0.021 0.049
0.039 0.021 0.051
0.043 0.017 0.049
0.035 0.013 0.077
0.033 0.015 0.069
0.033 0.015 0.075
0.033 0.015 0.075
0.027 0.015 0.067
0.031 0.015 0.071
0.019 0.015 0.073
0.031 0.015 0.079
0.041 0.009 0.073
0.039 0.011 0.073
0.041 0.009 0.071
0.033 0.015 0.069
0.031 0.015 0.069
0.037 0.005 0.077
0.027 0.017 0.077
0.029 0.015 0.079
0.003 0.021 0.071
0.005 0.019 0.075
0.003 0.019 0.079
0.021 0.017 0.079
0.025 0.017 0.079
0.027 0.017 0.075
0.027 0.017 0.077
0.033 0.015 0.085
0.031 0.017 0.085
0.029 0.017 0.085
0.029 0.017 0.087
0.033 0.017 0.091
0.035 0.015 0.089
0.027 0.019 0.085
0.029 0.019 0.089
0.027 0.019 0.083
0.025 0.019 0.083
0.033 0.017 0.095
0.041 0.013 0.097
0.027 0.021 0.093
0.039 0.013 0.087
0.041 0.013 0.085
0.041 0.009 0.089
0.045 0.009 0.083
0.043 0.011 0.087
0.031 0.017 0.083
0.039 0.013 0.085
0.027 0.021 0.089
0.027 0.019 0.083
0.027 0.019 0.087
0.021 0.021 0.087
0.025 0.021 0.089
0.021 0.023 0.089
0.027 0.021 0.095
0.023 0.023 0.095
0.031 0.017 0.093
0.027 0.021 0.093
0.027 0.021 0.095
0.047 0.001 0.065
0.045 0.007 0.069
0.045 0.007 0.069
0.037 0.013 0.067
0.041 0.013 0.065
0.037 0.013 0.071
0.039 0.007 0.075
0.041 0.009 0.073
0.037 0.009 0.077
0.049 0.007 0.085
0.045 0.009 0.085
0.053 0.005 0.085
0.049 0.007 0.083
0.041 0.013 0.085
0.037 0.015 0.085
0.039 0.013 0.085
0.043 0.011 0.085
0.041 0.013 0.085
0.045 0.003 0.089
0.043 0.013 0.093
0.053 0.005 0.087
0.057 0.005 0.081
0.057 0.003 0.087
0.055 0.005 0.095
0.033 0.019 0.101
0.039 0.015 0.101
0.035 0.017 0.099
0.033 0.017 0.103
0.029 0.013 0.105
0.033 0.013 0.105
0.031 0.019 0.099
0.021 0.013 0.109
0.019 0.015 0.109
0.039 0.009 0.105
0.029 0.021 0.099
0.033 0.019 0.101
0.033 0.017 0.103
0.033 0.015 0.103
0.031 0.017 0.103
0.031 0.019 0.103
0.021 0.003 0.107
0.021 0.003 0.107
0.027 0.009 0.107
0.019 0.001 0.109
0.027 0.011 0.109
0.021 0.013 0.109
0.027 0.013 0.105
0.025 0.013 0.109
0.011 0.017 0.111
0.023 0.023 0.099
0.033 0.017 0.099
0.031 0.019 0.099
0.031 0.021 0.103
0.025 0.023 0.101
0.027 0.021 0.103
0.027 0.023 0.107
0.049 0.005 0.101
0.051 0.009 0.097
0.049 0.007 0.099
0.045 0.005 0.101
0.043 0.007 0.103
0.041 0.013 0.097
0.041 0.005 0.105
0.039 0.009 0.105
0.037 0.011 0.105
0.057 0.005 0.097
0.055 0.007 0.099
0.057 0.005 0.103
0.059 0.005 0.101
0.059 0.003 0.103
0.053 0.005 0.101
0.059 0.005 0.101
0.035 0.017 0.099
