-0.035 -0.013 0.047
-0.029 -0.013 0.035
-0.017 -0.015 0.035
-0.021 -0.017 0.049
-0.025 -0.009 0.047
-0.013 -0.009 0.045
-0.029 -0.015 0.057
-0.023 -0.007 0.069
0.015 -0.009 0.045
0.025 -0.019 0.037
0.011 -0.001 0.061
0.035 -0.011 0.053
0.043 -0.005 0.063
0.053 -0.013 0.085
0.049 -0.011 0.087
0.051 -0.011 0.087
-0.043 -0.015 0.041
-0.041 -0.003 0.063
-0.035 -0.011 0.049
-0.043 -0.009 0.057
-0.045 -0.011 0.053
-0.027 -0.013 0.061
-0.021 -0.013 0.061
-0.005 0.005 0.059
-0.041 0.005 0.077
-0.041 0.003 0.073
-0.043 0.005 0.079
-0.033 0.005 0.081
-0.023 0.001 0.069
-0.001 -0.001 0.067
-0.009 0.005 0.069
-0.007 0.007 0.091
0.005 -0.007 0.037
0.011 -0.011 0.039
0.017 -0.015 0.041
0.025 0.005 0.059
0.023 0.005 0.063
0.027 -0.001 0.061
0.005 0.001 0.075
0.017 0.003 0.079
-0.007 0.003 0.087
0.009 0.003 0.089
-0.001 0.009 0.089
0.039 -0.001 0.073
0.035 0.001 0.077
0.035 -0.003 0.091
0.029 -0.005 0.097
0.043 -0.009 0.099
0.011 0.003 0.099
0.023 0.009 0.109
0.023 0.009 0.111
-0.007 -0.015 0.033
-0.021 -0.017 0.053
-0.017 -0.011 0.049
-0.021 -0.007 0.067
0.037 -0.025 0.041
0.019 -0.015 0.041
0.011 -0.007 0.051
0.047 -0.007 0.041
0.047 -0.007 0.053
0.041 -0.007 0.059
0.037 -0.007 0.061
0.029 -0.003 0.083
0.049 -0.013 0.083
-0.041 -0.007 0.061
-0.023 -0.015 0.059
0.009 -0.015 0.035
0.015 -0.015 0.037
0.011 -0.009 0.047
0.013 -0.001 0.061
-0.041 -0.001 0.067
-0.021 0.001 0.075
-0.023 0.001 0.081
-0.019 0.007 0.071
-0.005 0.003 0.087
0.025 -0.019 0.039
0.035 -0.023 0.037
0.043 -0.009 0.055
0.031 -0.009 0.057
0.035 -0.007 0.063
0.051 0.003 0.047
0.051 0.003 0.043
0.011 0.001 0.067
0.033 -0.003 0.071
0.025 -0.001 0.093
0.049 -0.009 0.089
0.045 0.005 0.069
0.049 -0.009 0.101
0.043 -0.009 0.097
0.049 -0.009 0.097
0.055 0.001 0.097
-0.037 0.005 0.041
-0.027 0.019 0.061
-0.013 0.019 0.055
-0.005 -0.001 0.037
0.039 0.017 0.055
0.047 0.017 0.041
0.047 0.011 0.051
0.035 0.013 0.075
0.033 0.017 0.093
0.043 0.011 0.091
0.053 0.003 0.089
0.057 0.005 0.099
-0.011 0.015 0.035
-0.027 0.021 0.043
-0.017 0.021 0.053
-0.011 0.017 0.055
-0.041 0.011 0.069
-0.031 0.019 0.079
-0.009 0.021 0.083
-0.019 0.019 0.077
-0.001 0.013 0.089
0.013 0.021 0.041
0.019 0.021 0.043
0.027 0.017 0.075
0.027 0.017 0.077
0.019 0.023 0.095
0.023 0.021 0.085
0.015 0.025 0.087
0.019 0.023 0.095
0.041 0.009 0.073
0.047 0.007 0.085
0.041 0.013 0.085
0.045 0.003 0.089
0.045 0.013 0.093
0.013 0.025 0.103
0.031 0.021 0.103
0.017 0.025 0.103
0.021 0.025 0.099
0.027 0.021 0.045
0.017 0.019 0.051
0.021 0.013 0.055
0.007 0.019 0.069
0.011 0.019 0.059
0.041 0.019 0.053
0.045 0.015 0.051
0.041 0.013 0.065
0.019 0.011 0.057
0.051 0.001 0.051
0.049 -0.001 0.059
0.039 -0.017 0.037
0.047 -0.005 0.095
0.057 -0.001 0.091
0.051 0.007 0.099
0.053 -0.007 0.099
0.055 -0.007 0.105
0.001 0.021 0.069
0.001 0.021 0.065
0.019 0.021 0.043
-0.015 0.025 0.045
0.011 0.019 0.061
0.007 0.019 0.067
0.003 0.019 0.061
-0.019 0.021 0.083
-0.007 0.021 0.079
0.021 0.023 0.093
0.023 0.023 0.095
0.053 0.015 0.037
0.023 0.023 0.037
0.031 0.021 0.041
0.053 0.017 0.035
0.039 0.015 0.057
0.035 0.013 0.061
0.039 0.009 0.075
0.023 0.021 0.085
0.023 0.021 0.087
0.031 0.017 0.087
0.031 0.019 0.095
0.045 0.009 0.087
0.039 0.009 0.105
0.041 0.013 0.103
-0.047 -0.009 0.057
-0.037 -0.005 0.055
-0.031 -0.015 0.041
-0.023 -0.013 0.063
-0.029 -0.011 0.059
-0.027 -0.007 0.045
-0.021 -0.017 0.055
-0.005 -0.005 0.039
-0.029 -0.013 0.059
0.011 -0.007 0.049
0.017 -0.009 0.047
0.023 -0.017 0.045
0.021 -0.013 0.047
0.005 -0.003 0.053
0.027 -0.009 0.055
0.033 -0.015 0.045
0.025 -0.001 0.073
0.027 -0.003 0.099
-0.039 0.001 0.069
-0.033 -0.003 0.049
-0.037 0.009 0.083
-0.025 0.001 0.047
-0.021 0.005 0.091
-0.025 0.013 0.093
-0.001 -0.001 0.065
-0.031 0.013 0.091
-0.045 0.003 0.071
-0.047 0.003 0.087
-0.019 0.007 0.091
-0.015 0.011 0.093
0.021 -0.001 0.055
0.017 0.003 0.059
0.005 0.009 0.083
0.007 0.011 0.085
0.011 0.003 0.069
0.005 0.011 0.085
0.015 0.001 0.097
0.021 -0.001 0.083
0.019 -0.001 0.095
0.015 0.005 0.103
0.021 0.003 0.107
0.023 0.007 0.107
0.015 0.015 0.109
0.023 -0.001 0.105
0.041 0.003 0.105
0.015 0.023 0.101
0.047 0.001 0.105
0.041 0.011 0.103
-0.003 -0.015 0.035
-0.029 -0.013 0.033
-0.035 -0.015 0.045
-0.021 -0.019 0.051
-0.017 -0.015 0.035
-0.001 -0.015 0.033
-0.019 -0.011 0.053
-0.019 -0.009 0.055
-0.017 -0.009 0.053
-0.019 -0.005 0.065
0.037 -0.021 0.035
0.033 -0.021 0.045
0.029 -0.015 0.047
0.011 -0.001 0.063
0.049 -0.001 0.039
0.041 -0.005 0.063
0.053 -0.007 0.099
0.051 -0.003 0.107
0.051 -0.003 0.107
-0.003 -0.015 0.035
0.035 -0.015 0.045
0.039 -0.019 0.041
0.045 -0.007 0.047
-0.015 0.001 0.051
0.035 -0.007 0.059
0.003 -0.001 0.059
0.007 0.003 0.073
0.029 -0.001 0.075
-0.023 0.001 0.081
-0.019 0.003 0.089
-0.005 0.003 0.087
0.037 -0.007 0.087
0.047 0.011 0.035
0.041 -0.005 0.063
0.049 0.003 0.063
0.045 0.005 0.033
0.045 0.007 0.035
0.051 0.003 0.043
0.053 0.015 0.037
0.049 0.009 0.055
0.007 0.003 0.077
0.045 -0.003 0.067
0.041 0.001 0.073
0.039 -0.001 0.073
0.061 -0.005 0.087
0.039 0.013 0.089
0.045 0.009 0.091
0.061 -0.003 0.085
0.047 -0.009 0.101
0.047 -0.001 0.097
0.059 0.003 0.101
0.027 0.021 0.107
0.055 -0.001 0.099
-0.055 0.003 0.087
-0.049 -0.003 0.053
-0.049 0.011 0.081
-0.053 0.003 0.087
-0.029 0.005 0.087
-0.031 0.013 0.089
-0.023 -0.007 0.071
-0.001 0.013 0.089
0.025 -0.017 0.045
0.033 -0.017 0.045
0.011 0.017 0.111
-0.011 0.007 0.091
0.025 -0.001 0.105
0.047 0.001 0.105
-0.039 0.007 0.039
-0.037 0.013 0.035
-0.033 0.007 0.041
-0.041 0.007 0.037
-0.041 0.011 0.079
-0.031 0.015 0.045
-0.035 0.015 0.081
-0.019 0.015 0.093
-0.039 0.009 0.081
-0.027 0.015 0.089
-0.027 0.021 0.075
-0.031 0.013 0.091
-0.023 0.015 0.091
-0.009 0.013 0.095
-0.021 0.021 0.087
0.023 0.017 0.045
0.025 0.011 0.053
0.011 0.019 0.055
-0.005 0.021 0.073
0.015 0.025 0.087
0.013 0.025 0.103
0.021 0.019 0.101
0.015 0.025 0.087
0.013 0.013 0.083
0.021 0.021 0.101
0.027 0.019 0.105
0.019 0.011 0.109
0.023 0.013 0.115
-0.049 -0.009 0.047
-0.043 -0.015 0.045
-0.047 -0.011 0.043
-0.027 -0.017 0.049
-0.033 -0.013 0.047
-0.021 -0.015 0.035
-0.027 -0.011 0.053
-0.029 -0.015 0.053
-0.029 -0.013 0.059
-0.025 -0.011 0.063
-0.025 -0.019 0.055
0.007 -0.007 0.049
0.019 -0.007 0.051
0.033 -0.023 0.043
0.021 -0.015 0.043
0.035 -0.007 0.059
-0.001 -0.001 0.071
0.033 -0.007 0.085
0.035 -0.007 0.095
-0.049 -0.001 0.057
-0.047 0.005 0.067
-0.049 0.001 0.059
-0.031 0.015 0.041
-0.031 0.019 0.039
-0.031 0.015 0.045
-0.027 0.021 0.043
-0.023 0.001 0.063
-0.029 0.001 0.063
-0.033 0.015 0.061
-0.035 0.015 0.063
-0.057 0.005 0.079
-0.055 0.005 0.085
-0.053 0.005 0.083
-0.055 0.005 0.087
-0.053 0.003 0.087
-0.057 0.005 0.081
-0.029 0.003 0.085
-0.027 0.009 0.091
-0.043 -0.005 0.063
-0.047 -0.001 0.065
-0.031 0.001 0.065
-0.031 0.001 0.067
0.001 -0.001 0.071
0.009 -0.009 0.047
-0.023 -0.007 0.071
-0.023 -0.003 0.065
-0.011 0.001 0.079
0.009 0.003 0.089
0.017 0.001 0.089
0.017 0.003 0.081
0.011 0.003 0.101
0.009 0.013 0.109
0.017 0.011 0.103
0.019 0.001 0.109
-0.041 -0.013 0.051
-0.041 -0.009 0.057
-0.043 -0.007 0.061
-0.021 -0.017 0.033
-0.007 -0.015 0.037
-0.019 -0.013 0.059
-0.023 -0.007 0.069
0.011 -0.015 0.037
0.017 -0.013 0.043
0.037 -0.021 0.035
0.043 -0.007 0.035
0.039 -0.009 0.051
0.043 -0.007 0.059
0.023 -0.001 0.095
0.043 -0.009 0.085
0.045 -0.009 0.087
0.045 -0.009 0.087
0.033 -0.003 0.091
0.051 -0.011 0.087
0.047 -0.003 0.105
-0.009 -0.015 0.033
-0.013 -0.003 0.051
-0.001 0.001 0.053
-0.019 -0.015 0.051
-0.021 -0.005 0.071
-0.007 0.005 0.067
-0.021 0.001 0.077
-0.013 0.003 0.085
-0.003 0.003 0.085
0.017 -0.015 0.037
0.007 -0.011 0.043
0.035 -0.021 0.035
0.017 -0.001 0.057
0.049 -0.005 0.041
0.049 0.011 0.035
0.049 0.011 0.035
0.041 -0.009 0.051
0.013 0.005 0.067
0.005 0.003 0.077
0.031 -0.003 0.069
0.003 0.005 0.083
0.009 0.003 0.093
0.029 0.001 0.081
0.021 -0.001 0.085
0.037 -0.005 0.067
0.039 -0.007 0.083
0.033 -0.005 0.095
0.007 0.005 0.097
0.021 -0.001 0.101
0.025 -0.001 0.103
0.031 -0.001 0.105
0.053 -0.009 0.101
0.053 -0.007 0.099
-0.033 -0.015 0.035
-0.017 -0.011 0.051
-0.011 -0.005 0.049
0.017 -0.013 0.043
0.019 -0.009 0.049
0.051 -0.003 0.045
0.025 -0.003 0.091
0.053 -0.011 0.087
0.049 -0.005 0.105
-0.017 -0.011 0.051
-0.021 -0.009 0.065
-0.031 0.001 0.065
-0.017 -0.007 0.053
0.005 -0.001 0.063
-0.015 0.007 0.065
-0.019 -0.005 0.065
-0.021 0.001 0.067
-0.019 0.003 0.069
0.005 -0.001 0.065
0.003 0.001 0.077
-0.027 0.001 0.079
-0.041 0.005 0.087
-0.045 0.003 0.085
-0.011 0.001 0.081
-0.005 0.001 0.081
-0.007 0.007 0.091
-0.027 0.003 0.087
0.025 -0.001 0.073
0.027 -0.001 0.077
0.053 0.017 0.033
0.015 0.007 0.065
0.045 -0.009 0.101
0.023 -0.001 0.091
0.023 -0.001 0.103
0.047 -0.003 0.105
0.045 -0.005 0.101
0.057 -0.005 0.093
0.051 -0.003 0.107
-0.037 0.013 0.035
-0.045 0.001 0.047
-0.029 0.003 0.047
-0.029 0.013 0.047
-0.017 0.025 0.043
-0.027 0.017 0.051
-0.033 0.009 0.057
-0.031 0.011 0.055
-0.031 0.019 0.061
0.007 -0.005 0.035
0.007 0.011 0.037
-0.001 0.015 0.051
0.009 0.017 0.041
-0.003 0.015 0.057
0.011 0.021 0.043
0.009 0.019 0.049
0.013 0.021 0.051
0.025 0.013 0.065
0.029 0.013 0.063
0.027 0.021 0.089
0.021 0.025 0.097
-0.041 0.009 0.031
-0.037 0.013 0.031
-0.019 0.029 0.033
-0.029 0.019 0.041
-0.027 0.023 0.041
-0.029 0.017 0.055
-0.027 0.019 0.063
-0.045 0.007 0.067
-0.037 0.015 0.071
-0.019 0.021 0.079
-0.009 0.017 0.069
-0.017 0.021 0.083
-0.003 0.017 0.087
-0.023 0.019 0.087
-0.017 0.021 0.087
-0.011 0.021 0.087
0.017 0.025 0.035
0.017 0.025 0.033
0.025 0.023 0.035
0.027 0.019 0.047
0.023 0.009 0.063
0.045 0.023 0.037
0.045 0.023 0.035
0.037 0.021 0.047
0.019 0.019 0.085
0.025 0.017 0.079
0.041 0.013 0.095
0.039 0.015 0.093
0.043 0.011 0.091
0.039 0.015 0.093
0.023 0.021 0.103
0.039 0.015 0.101
