-0.039 -0.013 0.035
-0.037 -0.013 0.033
-0.023 -0.011 0.037
-0.047 -0.009 0.041
-0.043 -0.015 0.045
-0.047 -0.011 0.045
-0.049 -0.009 0.047
-0.045 -0.013 0.049
-0.049 -0.005 0.055
-0.045 -0.011 0.053
-0.039 -0.011 0.053
-0.023 -0.017 0.045
-0.019 -0.013 0.037
-0.023 -0.011 0.037
-0.019 -0.013 0.037
-0.037 -0.015 0.037
-0.031 -0.015 0.039
-0.029 -0.011 0.045
-0.037 -0.013 0.049
-0.029 -0.015 0.053
-0.017 -0.015 0.035
-0.007 -0.013 0.039
-0.017 -0.013 0.039
-0.021 -0.017 0.043
-0.013 -0.009 0.045
-0.021 -0.019 0.051
-0.023 -0.019 0.051
-0.021 -0.017 0.053
-0.027 -0.013 0.061
-0.023 -0.015 0.061
-0.027 -0.009 0.063
-0.025 -0.011 0.063
-0.023 -0.019 0.055
-0.023 -0.009 0.067
-0.023 -0.007 0.071
0.029 -0.021 0.033
0.027 -0.021 0.037
0.025 -0.019 0.039
0.031 -0.021 0.033
0.017 -0.015 0.037
0.015 -0.015 0.037
0.019 -0.015 0.039
0.017 -0.015 0.039
0.023 -0.017 0.045
0.017 -0.011 0.047
0.011 -0.001 0.063
0.029 -0.003 0.071
0.035 -0.003 0.071
0.043 -0.003 0.067
0.039 -0.007 0.087
0.039 -0.007 0.095
0.051 -0.013 0.085
0.057 -0.009 0.089
0.039 -0.003 0.101
-0.033 -0.015 0.041
-0.047 -0.005 0.041
-0.045 -0.001 0.039
-0.047 -0.009 0.043
-0.049 -0.001 0.055
-0.043 -0.001 0.067
-0.041 -0.003 0.065
-0.033 0.003 0.063
-0.033 -0.015 0.043
-0.043 -0.013 0.047
-0.043 -0.013 0.051
-0.041 -0.011 0.055
-0.043 -0.013 0.051
-0.027 0.003 0.049
-0.001 0.003 0.051
-0.025 -0.007 0.067
-0.021 -0.009 0.065
-0.041 -0.003 0.065
-0.047 0.003 0.067
-0.045 0.005 0.073
-0.035 0.005 0.079
-0.055 0.003 0.087
-0.045 0.003 0.085
-0.031 0.001 0.069
-0.025 -0.007 0.067
-0.025 -0.005 0.069
-0.025 -0.005 0.069
-0.023 -0.005 0.071
-0.023 0.001 0.073
-0.021 0.001 0.075
-0.023 0.001 0.077
-0.021 0.001 0.077
-0.003 0.001 0.079
-0.019 0.003 0.075
-0.035 0.003 0.073
-0.035 0.003 0.073
-0.033 0.007 0.083
-0.029 0.003 0.085
-0.027 0.011 0.093
-0.021 0.009 0.093
-0.037 0.009 0.083
-0.015 0.009 0.093
0.013 -0.013 0.039
0.013 -0.011 0.041
0.007 -0.011 0.043
0.007 -0.013 0.039
0.001 0.001 0.047
-0.001 0.003 0.049
-0.001 0.001 0.051
-0.001 0.001 0.053
0.001 0.001 0.047
0.005 -0.003 0.049
0.005 -0.003 0.055
0.007 -0.005 0.053
0.011 -0.003 0.055
0.011 -0.001 0.063
0.013 0.001 0.063
0.001 -0.001 0.067
0.017 -0.001 0.057
-0.003 0.001 0.061
0.023 -0.017 0.045
0.019 -0.011 0.047
0.027 -0.017 0.047
0.011 -0.009 0.047
0.021 -0.005 0.053
0.025 0.001 0.067
0.035 -0.007 0.059
0.023 0.003 0.055
0.003 -0.001 0.071
0.003 -0.001 0.069
0.003 0.001 0.075
0.003 0.001 0.077
-0.005 0.001 0.081
0.015 0.009 0.079
0.019 0.003 0.075
0.021 0.001 0.075
0.017 0.003 0.079
0.015 0.011 0.073
0.015 0.007 0.077
0.017 0.007 0.075
0.007 0.009 0.081
0.009 0.003 0.089
0.013 0.003 0.091
0.009 0.005 0.091
0.023 -0.001 0.083
0.009 0.003 0.097
0.023 -0.001 0.073
0.039 -0.005 0.089
0.029 -0.005 0.097
0.049 -0.001 0.089
0.041 -0.009 0.099
0.013 0.011 0.109
0.013 0.011 0.109
0.023 -0.001 0.105
0.019 -0.001 0.107
0.025 0.007 0.107
0.007 0.015 0.107
0.019 0.001 0.105
0.031 -0.003 0.103
0.019 -0.001 0.107
0.039 -0.001 0.105
0.045 -0.005 0.101
0.045 -0.001 0.103
0.021 -0.001 0.105
-0.019 -0.013 0.037
-0.035 -0.015 0.035
-0.033 -0.015 0.035
-0.043 -0.015 0.043
-0.041 -0.015 0.045
-0.047 -0.009 0.057
-0.043 -0.013 0.051
-0.035 -0.013 0.049
-0.041 -0.011 0.055
-0.017 -0.015 0.035
-0.019 -0.015 0.035
-0.015 -0.013 0.039
-0.021 -0.019 0.051
-0.019 -0.013 0.053
-0.005 -0.013 0.039
-0.013 -0.009 0.045
-0.013 -0.007 0.047
-0.011 -0.005 0.049
-0.023 -0.019 0.055
-0.023 -0.019 0.055
-0.023 -0.009 0.065
-0.023 -0.009 0.067
-0.021 -0.007 0.069
-0.021 -0.005 0.071
0.015 -0.015 0.035
0.035 -0.023 0.043
0.037 -0.023 0.043
0.041 -0.005 0.033
0.033 -0.023 0.043
0.013 -0.015 0.033
0.015 -0.011 0.043
0.017 -0.015 0.041
0.009 -0.011 0.043
0.007 -0.007 0.047
0.011 -0.009 0.047
0.009 -0.009 0.047
0.015 -0.007 0.047
0.037 -0.023 0.043
0.023 -0.017 0.041
0.009 -0.003 0.057
0.029 -0.005 0.059
0.039 -0.021 0.037
0.039 -0.011 0.037
0.041 -0.009 0.037
0.045 -0.009 0.045
0.039 -0.009 0.051
0.033 -0.003 0.073
0.025 -0.001 0.079
0.031 -0.005 0.087
0.033 -0.005 0.093
0.033 -0.003 0.071
0.041 -0.009 0.085
0.043 -0.005 0.087
0.043 -0.009 0.097
0.051 -0.013 0.085
0.053 -0.013 0.085
0.057 -0.011 0.087
0.061 -0.005 0.087
0.053 -0.009 0.091
0.063 -0.007 0.093
0.029 -0.005 0.097
0.025 -0.001 0.103
0.035 -0.003 0.103
0.051 -0.009 0.101
0.047 -0.005 0.103
-0.017 -0.011 0.041
-0.039 -0.007 0.059
-0.021 -0.005 0.071
-0.017 -0.013 0.041
-0.009 0.003 0.039
-0.007 0.007 0.039
-0.009 0.003 0.041
0.003 -0.003 0.051
-0.009 0.003 0.047
-0.007 0.007 0.049
-0.017 -0.007 0.053
-0.013 0.003 0.051
-0.007 0.007 0.045
-0.021 -0.013 0.061
-0.017 0.001 0.051
-0.019 -0.005 0.065
-0.009 0.005 0.051
0.007 -0.003 0.059
-0.013 0.005 0.059
-0.001 -0.001 0.067
0.007 -0.001 0.065
-0.001 -0.001 0.067
-0.017 0.003 0.063
-0.021 0.001 0.065
-0.045 -0.001 0.065
-0.035 0.003 0.071
-0.031 0.001 0.073
-0.029 0.001 0.069
-0.029 0.001 0.079
-0.025 0.001 0.079
-0.015 0.009 0.065
-0.017 0.009 0.067
-0.017 0.005 0.075
-0.019 0.001 0.079
-0.007 0.001 0.073
-0.007 0.001 0.077
-0.013 0.005 0.075
-0.015 0.003 0.077
-0.005 0.001 0.073
-0.013 0.003 0.077
-0.003 0.001 0.083
-0.015 0.005 0.091
-0.013 0.001 0.081
-0.011 0.001 0.081
-0.009 0.001 0.081
-0.011 0.009 0.091
0.003 0.011 0.089
0.023 -0.017 0.045
0.029 -0.019 0.045
0.013 -0.005 0.049
0.029 -0.013 0.049
0.035 -0.019 0.043
0.033 -0.013 0.047
0.029 -0.011 0.053
0.027 -0.009 0.055
0.017 -0.003 0.055
0.021 0.003 0.055
0.037 -0.011 0.051
0.035 -0.011 0.055
0.039 -0.009 0.049
0.043 -0.009 0.053
0.003 -0.001 0.059
0.037 -0.007 0.063
0.025 0.001 0.057
0.049 -0.005 0.043
0.049 0.001 0.041
0.051 0.013 0.037
0.049 0.019 0.039
0.047 -0.001 0.065
0.051 0.001 0.057
0.051 0.003 0.057
0.049 0.001 0.061
0.009 0.003 0.071
0.015 0.007 0.065
0.009 0.005 0.073
0.007 0.007 0.079
0.011 0.009 0.075
0.029 -0.001 0.077
0.021 0.001 0.079
0.021 0.001 0.079
0.027 -0.001 0.079
0.037 -0.007 0.085
0.019 0.001 0.089
0.019 0.001 0.093
0.023 -0.001 0.091
0.027 -0.001 0.103
0.031 -0.005 0.097
0.037 -0.007 0.097
0.029 -0.001 0.103
0.039 -0.007 0.099
0.039 -0.007 0.099
0.037 -0.003 0.103
0.047 -0.001 0.065
0.039 -0.001 0.073
0.043 0.003 0.071
0.045 -0.009 0.087
0.047 -0.007 0.089
0.045 -0.005 0.089
0.045 -0.003 0.089
0.043 -0.001 0.089
0.047 0.001 0.089
0.047 -0.007 0.101
0.055 -0.011 0.089
0.057 0.001 0.099
0.009 0.003 0.101
0.029 0.003 0.105
0.027 0.021 0.107
0.057 0.001 0.099
-0.043 0.005 0.037
-0.047 0.001 0.047
-0.047 0.001 0.047
-0.037 0.003 0.043
-0.049 -0.003 0.049
-0.047 0.003 0.055
-0.043 0.003 0.055
-0.045 0.007 0.059
-0.047 0.005 0.061
-0.035 0.015 0.037
-0.035 0.011 0.039
-0.031 0.017 0.041
-0.031 -0.001 0.047
-0.025 -0.009 0.047
-0.029 0.005 0.049
-0.027 0.007 0.049
-0.027 0.013 0.049
-0.027 0.021 0.043
-0.025 0.021 0.043
-0.023 0.021 0.043
-0.021 0.025 0.041
-0.017 0.027 0.039
-0.019 0.023 0.045
-0.025 0.019 0.051
-0.025 0.019 0.053
-0.033 0.013 0.061
-0.031 0.019 0.069
0.013 0.015 0.035
0.013 0.017 0.035
0.013 0.023 0.039
0.007 0.017 0.043
0.007 0.019 0.047
0.005 0.017 0.045
0.009 0.019 0.051
0.007 -0.005 0.033
0.001 0.007 0.045
0.001 0.013 0.047
0.001 0.005 0.045
0.007 0.017 0.043
0.011 0.015 0.037
0.013 0.023 0.039
0.009 0.019 0.051
0.011 0.019 0.053
-0.001 0.015 0.051
-0.003 0.017 0.057
0.001 0.019 0.055
0.009 0.019 0.057
0.023 0.009 0.063
0.009 0.019 0.045
0.031 0.021 0.041
0.031 0.021 0.043
0.013 0.021 0.051
0.015 0.017 0.057
0.033 0.013 0.065
0.039 0.013 0.061
0.019 0.011 0.067
0.015 0.015 0.093
0.025 0.021 0.087
0.023 0.023 0.091
0.047 0.007 0.087
0.039 0.013 0.091
0.015 0.015 0.099
0.029 0.021 0.103
0.043 0.013 0.101
-0.023 0.013 0.033
-0.043 0.005 0.037
-0.033 0.017 0.037
-0.033 0.015 0.061
-0.031 0.019 0.039
-0.027 0.023 0.039
-0.031 0.017 0.041
-0.029 0.015 0.047
-0.023 0.025 0.039
-0.021 0.027 0.039
-0.023 0.029 0.037
-0.017 0.027 0.041
-0.019 0.021 0.049
-0.011 0.019 0.047
-0.025 0.025 0.039
-0.027 0.019 0.045
-0.019 0.021 0.047
-0.017 0.025 0.045
-0.027 0.011 0.051
-0.029 0.017 0.057
-0.023 0.021 0.059
-0.003 0.011 0.051
-0.011 0.019 0.053
-0.019 0.019 0.063
-0.003 0.017 0.057
-0.025 0.021 0.061
-0.015 0.021 0.053
-0.049 0.011 0.079
-0.037 0.011 0.065
-0.043 0.011 0.077
-0.037 0.013 0.077
-0.033 0.019 0.073
-0.053 0.009 0.081
-0.049 0.009 0.085
-0.013 0.015 0.071
-0.009 0.015 0.067
-0.017 0.021 0.081
-0.019 0.019 0.065
-0.027 0.021 0.073
-0.011 0.017 0.071
-0.009 0.021 0.075
-0.011 0.021 0.079
-0.007 0.021 0.075
-0.033 0.015 0.083
-0.033 0.015 0.085
-0.029 0.017 0.085
-0.031 0.015 0.087
-0.019 0.013 0.095
-0.013 0.017 0.091
-0.007 0.013 0.093
-0.023 0.019 0.089
-0.003 0.021 0.081
0.001 0.009 0.043
0.001 0.013 0.045
0.013 0.023 0.037
0.015 0.023 0.033
0.011 0.021 0.039
0.007 0.019 0.047
0.019 0.023 0.041
0.019 0.011 0.057
0.025 0.007 0.057
0.031 0.013 0.063
0.001 0.017 0.051
0.029 0.023 0.037
0.035 0.021 0.039
0.027 0.023 0.037
0.033 0.021 0.045
0.037 0.019 0.041
0.035 0.021 0.045
0.043 0.013 0.061
0.033 0.017 0.053
0.011 0.015 0.069
0.009 0.017 0.069
0.007 0.015 0.077
0.013 0.013 0.077
0.017 0.011 0.071
0.015 0.013 0.075
0.025 0.015 0.073
0.025 0.017 0.079
0.003 0.021 0.065
0.001 0.021 0.071
0.001 0.021 0.073
0.017 0.017 0.079
0.003 0.015 0.085
0.001 0.013 0.089
0.011 0.015 0.091
0.017 0.017 0.083
0.017 0.017 0.083
0.027 0.017 0.081
0.015 0.023 0.087
0.023 0.019 0.083
0.027 0.019 0.085
0.015 0.025 0.089
0.021 0.023 0.093
0.029 0.015 0.075
0.035 0.015 0.089
0.031 0.019 0.095
0.027 0.021 0.095
0.033 0.017 0.093
0.053 0.005 0.085
0.059 0.003 0.083
0.009 0.017 0.111
0.013 0.013 0.097
0.013 0.013 0.105
0.013 0.017 0.107
0.019 0.015 0.105
0.023 0.015 0.105
0.015 0.015 0.105
0.013 0.025 0.103
0.015 0.025 0.097
0.019 0.025 0.101
0.021 0.013 0.113
0.001 0.019 0.113
0.005 0.019 0.113
0.037 0.015 0.103
0.043 0.013 0.101
0.055 0.003 0.103
