-0.045 0.001 0.041
-0.029 0.017 0.047
-0.049 -0.003 0.049
-0.045 -0.001 0.041
-0.049 -0.003 0.049
-0.043 0.001 0.047
-0.043 0.001 0.049
-0.047 0.001 0.047
-0.047 0.001 0.049
-0.047 0.003 0.055
-0.047 0.003 0.053
-0.045 -0.001 0.039
-0.047 0.001 0.047
-0.041 0.001 0.051
-0.049 -0.005 0.057
-0.049 -0.003 0.059
-0.049 -0.003 0.057
-0.047 -0.003 0.063
-0.047 0.003 0.065
-0.047 0.005 0.065
-0.049 0.001 0.053
-0.049 0.001 0.053
-0.043 0.007 0.059
-0.043 0.009 0.063
-0.045 0.009 0.067
-0.049 0.007 0.073
-0.037 0.011 0.065
-0.035 -0.001 0.045
-0.043 0.003 0.053
-0.027 0.007 0.047
-0.029 0.005 0.049
-0.029 0.003 0.047
-0.031 0.007 0.053
-0.033 0.009 0.057
-0.035 0.007 0.041
-0.033 0.009 0.043
-0.029 0.003 0.047
-0.029 0.007 0.045
-0.037 0.013 0.067
-0.033 0.011 0.059
-0.035 0.011 0.061
-0.035 0.015 0.065
-0.033 0.013 0.059
-0.031 0.015 0.057
-0.029 0.017 0.057
-0.031 0.015 0.057
-0.029 0.019 0.063
-0.025 0.021 0.061
-0.027 0.019 0.065
-0.029 0.015 0.055
-0.023 0.021 0.055
-0.029 0.019 0.063
-0.029 0.019 0.065
-0.045 0.011 0.073
-0.043 0.013 0.075
-0.045 0.011 0.073
-0.041 0.011 0.073
-0.037 0.015 0.073
-0.037 0.015 0.073
-0.037 0.013 0.075
-0.035 0.017 0.073
-0.043 0.011 0.077
-0.039 0.011 0.081
-0.039 0.011 0.075
-0.037 0.013 0.079
-0.031 0.019 0.067
-0.049 0.009 0.075
-0.035 0.013 0.083
-0.015 0.019 0.059
-0.003 0.011 0.051
-0.001 0.019 0.061
-0.001 0.021 0.067
0.001 0.021 0.067
-0.007 0.021 0.075
-0.009 0.021 0.075
-0.009 0.021 0.075
-0.007 0.019 0.073
-0.015 0.015 0.063
-0.003 0.011 0.051
0.001 0.011 0.045
-0.001 0.013 0.049
-0.007 0.011 0.061
-0.007 0.013 0.063
-0.003 0.011 0.053
-0.005 0.015 0.063
-0.005 0.013 0.057
-0.003 0.019 0.061
-0.005 0.019 0.067
0.001 0.019 0.055
-0.007 0.019 0.071
0.001 0.021 0.075
-0.011 0.017 0.071
-0.011 0.017 0.071
-0.009 0.019 0.071
-0.007 0.019 0.071
-0.015 0.019 0.075
-0.001 0.021 0.077
0.003 0.019 0.079
-0.005 0.021 0.075
-0.005 0.021 0.075
-0.003 0.021 0.071
0.023 0.015 0.051
0.025 0.017 0.049
0.025 0.011 0.053
0.029 0.011 0.055
0.029 0.013 0.061
0.027 0.013 0.065
0.033 0.013 0.055
0.035 0.013 0.057
0.005 0.019 0.075
0.015 0.013 0.073
0.015 0.013 0.073
0.023 0.015 0.069
0.027 0.015 0.069
0.027 0.015 0.071
0.017 0.015 0.077
0.015 0.013 0.075
0.015 0.015 0.081
0.019 0.017 0.079
0.037 0.013 0.067
-0.015 0.021 0.085
0.013 0.015 0.083
0.013 0.015 0.085
0.011 0.015 0.087
0.015 0.017 0.087
0.011 0.015 0.091
0.015 0.013 0.099
0.015 0.013 0.099
0.015 0.025 0.087
0.015 0.025 0.089
0.025 0.019 0.083
0.019 0.015 0.101
0.021 0.015 0.105
0.013 0.025 0.103
0.019 0.015 0.101
0.023 0.021 0.105
0.011 0.017 0.111
0.015 0.017 0.109
0.023 0.015 0.103
0.023 0.015 0.105
0.023 0.015 0.107
0.029 0.021 0.099
0.027 0.021 0.105
0.039 0.015 0.099
0.045 0.011 0.097
0.023 0.021 0.107
0.025 0.021 0.109
0.035 0.013 0.105
0.049 0.007 0.099
0.009 0.017 0.111
0.007 0.019 0.111
0.023 0.013 0.113
0.021 0.013 0.113
0.033 0.007 0.105
0.027 0.013 0.107
0.033 0.009 0.105
0.039 0.005 0.105
0.045 -0.003 0.103
0.021 0.013 0.115
0.023 0.013 0.115
0.047 -0.001 0.105
0.037 0.005 0.105
0.047 -0.001 0.105
0.047 0.003 0.103
0.051 0.001 0.107
0.051 -0.003 0.107
-0.043 0.005 0.037
-0.039 0.011 0.033
-0.035 0.011 0.039
-0.035 0.011 0.039
-0.031 0.017 0.041
-0.041 0.005 0.041
-0.035 0.015 0.037
-0.037 0.011 0.037
-0.035 0.011 0.039
-0.047 0.001 0.049
-0.041 0.001 0.045
-0.033 0.003 0.043
-0.047 0.001 0.051
-0.047 0.003 0.055
-0.047 0.005 0.059
-0.045 0.007 0.059
-0.043 0.007 0.059
-0.043 0.009 0.063
-0.047 0.005 0.059
-0.035 0.015 0.065
-0.031 0.013 0.045
-0.029 0.017 0.047
-0.029 0.015 0.047
-0.025 0.023 0.041
-0.031 0.007 0.043
-0.029 0.005 0.047
-0.031 0.011 0.045
-0.027 0.019 0.051
-0.025 0.019 0.055
-0.019 0.023 0.043
-0.019 0.021 0.047
-0.015 0.021 0.049
-0.025 0.021 0.063
-0.021 0.021 0.059
-0.017 0.021 0.053
-0.015 0.021 0.053
-0.025 0.023 0.041
-0.025 0.021 0.043
-0.031 0.017 0.041
-0.029 0.017 0.043
-0.027 0.019 0.045
-0.025 0.021 0.045
-0.025 0.021 0.047
-0.019 0.023 0.045
-0.019 0.023 0.045
-0.021 0.025 0.041
-0.017 0.025 0.045
-0.017 0.025 0.045
-0.015 0.027 0.041
-0.013 0.027 0.039
-0.017 0.021 0.047
-0.015 0.025 0.045
-0.013 0.021 0.045
-0.013 0.023 0.045
-0.033 0.015 0.061
-0.031 0.011 0.055
-0.033 0.013 0.059
-0.035 0.015 0.069
-0.031 0.019 0.075
-0.021 0.019 0.067
-0.029 0.019 0.067
-0.005 0.009 0.057
-0.027 0.021 0.073
-0.015 0.019 0.075
-0.017 0.017 0.065
-0.005 0.015 0.059
-0.007 0.013 0.063
-0.009 0.015 0.067
-0.025 0.019 0.055
-0.023 0.019 0.053
-0.023 0.021 0.051
-0.025 0.021 0.063
-0.019 0.021 0.059
-0.021 0.021 0.061
-0.013 0.019 0.055
-0.011 0.019 0.053
-0.057 0.005 0.081
-0.053 0.009 0.081
-0.047 0.003 0.067
-0.047 0.011 0.077
-0.039 0.011 0.075
-0.037 0.013 0.073
-0.039 0.011 0.071
-0.041 0.011 0.079
-0.043 0.011 0.077
-0.043 0.013 0.075
-0.045 0.011 0.071
-0.039 0.011 0.071
-0.037 0.013 0.071
-0.041 0.011 0.079
-0.043 0.011 0.081
-0.037 0.013 0.075
-0.039 0.011 0.079
-0.033 0.017 0.081
-0.033 0.019 0.075
-0.051 0.009 0.083
-0.055 0.005 0.087
-0.051 0.007 0.085
-0.049 0.007 0.087
-0.047 0.005 0.089
-0.043 0.005 0.087
-0.047 0.009 0.083
-0.047 0.009 0.085
-0.037 0.011 0.083
-0.037 0.013 0.077
-0.035 0.017 0.079
-0.033 0.019 0.077
-0.025 0.021 0.077
-0.027 0.021 0.075
-0.037 0.011 0.083
-0.035 0.011 0.087
-0.035 0.013 0.087
-0.033 0.013 0.089
-0.023 0.021 0.079
-0.021 0.021 0.081
-0.013 0.017 0.073
-0.019 0.021 0.081
-0.021 0.021 0.087
-0.021 0.019 0.089
-0.025 0.019 0.087
-0.021 0.017 0.091
-0.027 0.021 0.073
-0.025 0.021 0.075
-0.025 0.021 0.075
-0.005 0.019 0.069
-0.011 0.021 0.079
-0.003 0.021 0.081
-0.003 0.021 0.079
-0.003 0.021 0.081
-0.029 0.013 0.091
-0.027 0.013 0.091
-0.027 0.009 0.091
-0.029 0.013 0.091
-0.023 0.013 0.095
-0.031 0.017 0.085
-0.025 0.015 0.091
-0.017 0.015 0.093
-0.019 0.013 0.095
-0.017 0.015 0.093
-0.023 0.013 0.093
-0.021 0.013 0.095
-0.015 0.015 0.093
-0.021 0.011 0.095
-0.019 0.013 0.095
-0.017 0.013 0.095
-0.011 0.005 0.091
-0.015 0.013 0.095
-0.011 0.013 0.095
-0.005 0.013 0.093
-0.021 0.021 0.087
-0.017 0.021 0.087
-0.017 0.021 0.087
-0.023 0.019 0.089
-0.019 0.019 0.089
-0.015 0.021 0.085
-0.011 0.021 0.085
-0.015 0.021 0.087
-0.011 0.021 0.087
0.007 0.013 0.037
0.013 0.023 0.039
0.019 0.023 0.037
0.021 0.017 0.047
0.003 0.011 0.041
0.001 0.011 0.045
0.005 0.013 0.041
0.011 0.019 0.041
-0.003 0.011 0.051
-0.003 0.009 0.053
-0.003 0.013 0.053
0.005 0.017 0.047
0.003 0.019 0.051
0.009 0.019 0.047
0.011 0.021 0.041
0.023 0.019 0.043
0.011 0.021 0.043
0.011 0.021 0.041
0.013 0.021 0.049
0.013 0.021 0.051
0.013 0.021 0.041
0.017 0.023 0.037
0.019 0.023 0.037
0.021 0.023 0.039
0.023 0.023 0.039
0.021 0.023 0.041
0.027 0.023 0.037
0.025 0.021 0.041
0.023 0.019 0.043
0.019 0.023 0.041
0.017 0.023 0.043
0.029 0.021 0.043
-0.007 0.021 0.081
-0.001 0.021 0.075
0.007 0.019 0.067
0.019 0.017 0.053
0.017 0.015 0.057
0.027 0.009 0.055
0.025 0.011 0.053
0.029 0.013 0.053
0.007 0.019 0.071
0.009 0.019 0.067
0.015 0.013 0.073
0.021 0.011 0.067
0.023 0.011 0.065
0.005 0.019 0.055
0.013 0.021 0.053
0.013 0.021 0.053
0.003 0.019 0.059
0.007 0.019 0.061
0.001 0.021 0.065
0.015 0.017 0.057
0.011 0.019 0.061
0.027 0.017 0.049
0.031 0.021 0.049
0.013 0.021 0.053
0.035 0.021 0.051
0.035 0.021 0.051
0.049 0.017 0.041
0.041 0.019 0.041
0.045 0.023 0.039
0.045 0.023 0.039
0.037 0.015 0.057
0.041 0.015 0.057
0.043 0.013 0.061
0.041 0.013 0.065
0.045 0.011 0.065
0.043 0.015 0.055
0.049 0.011 0.053
0.037 0.019 0.053
-0.003 0.021 0.081
0.001 0.019 0.077
0.003 0.019 0.079
0.007 0.017 0.075
-0.007 0.021 0.085
-0.005 0.017 0.089
0.005 0.017 0.079
0.015 0.013 0.075
0.003 0.015 0.085
0.013 0.015 0.081
0.015 0.015 0.081
0.015 0.013 0.077
0.021 0.015 0.073
0.013 0.013 0.083
0.013 0.011 0.083
0.011 0.015 0.087
0.011 0.013 0.081
0.011 0.013 0.081
0.013 0.013 0.077
0.023 0.017 0.075
0.027 0.019 0.083
0.001 0.021 0.069
0.003 0.021 0.071
0.017 0.017 0.081
-0.011 0.017 0.091
0.013 0.009 0.085
0.005 0.013 0.085
0.011 0.015 0.087
0.007 0.007 0.097
0.009 0.007 0.095
0.009 0.005 0.091
0.009 0.007 0.097
0.009 0.007 0.095
0.011 0.007 0.095
0.007 0.007 0.097
0.013 0.015 0.095
0.011 0.015 0.093
0.013 0.009 0.085
0.013 0.011 0.093
0.013 0.015 0.095
0.017 0.025 0.093
0.013 0.007 0.097
0.019 0.015 0.101
0.001 0.019 0.081
0.013 0.025 0.097
0.015 0.025 0.087
0.015 0.021 0.089
0.015 0.025 0.089
0.019 0.025 0.093
0.013 0.025 0.097
0.015 0.025 0.095
0.019 0.025 0.099
0.041 0.011 0.071
0.017 0.025 0.089
0.035 0.013 0.077
0.033 0.015 0.069
0.039 0.013 0.069
0.031 0.015 0.073
0.041 0.013 0.067
0.025 0.021 0.087
0.017 0.025 0.101
0.019 0.025 0.099
0.021 0.025 0.099
0.025 0.023 0.097
0.033 0.017 0.091
0.019 0.025 0.099
0.021 0.025 0.099
0.027 0.021 0.093
0.037 0.017 0.095
0.023 0.019 0.103
0.017 0.023 0.103
0.037 0.017 0.095
0.041 0.015 0.093
0.045 0.013 0.093
0.027 0.021 0.105
0.051 0.009 0.097
0.005 0.019 0.109
0.015 0.015 0.099
0.011 0.017 0.109
0.007 0.017 0.113
0.005 0.019 0.109
0.003 0.019 0.113
0.007 0.019 0.111
0.007 0.019 0.109
0.013 0.017 0.107
0.011 0.017 0.111
0.013 0.017 0.109
0.019 0.015 0.109
0.019 0.015 0.109
0.023 0.013 0.113
0.023 0.015 0.107
0.027 0.013 0.107
0.015 0.025 0.097
0.011 0.017 0.109
0.015 0.017 0.109
0.013 0.025 0.101
0.019 0.023 0.103
0.023 0.021 0.103
0.029 0.021 0.099
0.025 0.023 0.101
0.023 0.021 0.105
0.027 0.023 0.107
0.023 0.021 0.107
0.025 0.023 0.109
0.025 0.023 0.109
0.025 0.021 0.109
0.023 0.013 0.115
0.033 0.007 0.105
0.037 0.015 0.103
0.039 0.015 0.101
0.037 0.015 0.103
0.039 0.005 0.105
0.041 0.005 0.105
0.035 0.011 0.105
0.041 0.011 0.103
0.043 0.007 0.103
0.049 0.003 0.103
0.029 0.021 0.103
