-0.009 0.013 0.055
-0.009 0.013 0.051
-0.023 0.019 0.067
-0.025 0.021 0.061
-0.025 0.019 0.085
-0.025 0.021 0.083
-0.013 0.021 0.083
-0.027 0.021 0.075
-0.029 0.019 0.079
-0.041 0.011 0.075
-0.009 0.021 0.077
-0.003 0.021 0.077
-0.001 0.021 0.077
-0.005 0.019 0.087
-0.007 0.021 0.085
-0.001 0.021 0.077
-0.001 0.019 0.079
0.001 0.021 0.067
-0.007 0.013 0.049
-0.001 0.019 0.059
-0.007 0.017 0.089
-0.007 0.015 0.091
-0.003 0.017 0.087
-0.005 0.021 0.083
-0.005 0.021 0.079
-0.003 0.021 0.081
-0.009 0.017 0.091
-0.011 0.019 0.089
0.047 0.009 0.063
0.041 0.009 0.073
0.021 0.015 0.071
0.015 0.015 0.059
0.025 0.015 0.071
0.015 0.013 0.063
0.015 0.011 0.065
0.033 0.013 0.057
0.035 0.013 0.057
0.017 0.025 0.087
0.019 0.017 0.079
0.037 0.011 0.075
0.035 0.013 0.077
0.045 0.001 0.069
0.045 0.011 0.059
0.045 0.013 0.057
0.047 0.007 0.065
0.041 0.009 0.073
0.049 0.005 0.063
0.049 0.009 0.059
0.049 0.001 0.063
0.041 0.011 0.081
0.049 0.001 0.063
0.045 -0.001 0.067
0.051 -0.001 0.055
0.019 0.025 0.093
0.033 0.015 0.087
0.033 0.015 0.103
0.031 0.013 0.105
0.045 -0.003 0.065
0.041 0.011 0.103
0.049 0.009 0.097
0.039 0.011 0.103
0.039 0.009 0.105
0.053 0.005 0.101
0.057 0.005 0.101
0.053 0.007 0.099
0.057 0.005 0.097
0.059 0.005 0.101
0.061 -0.003 0.091
0.043 -0.007 0.099
0.039 0.001 0.105
0.049 0.003 0.105
0.039 0.001 0.105
0.049 0.001 0.107
0.053 -0.005 0.105
0.053 0.001 0.105
-0.009 0.017 0.047
-0.011 0.015 0.035
-0.027 0.019 0.051
-0.025 0.021 0.073
-0.025 0.021 0.083
-0.015 0.019 0.057
-0.021 0.021 0.047
-0.019 0.023 0.045
-0.021 0.021 0.061
-0.019 0.021 0.059
-0.023 0.021 0.057
-0.027 0.023 0.041
-0.015 0.023 0.045
-0.017 0.027 0.037
-0.025 0.021 0.049
-0.017 0.025 0.045
-0.011 0.023 0.043
-0.011 0.019 0.041
-0.011 0.023 0.043
-0.011 0.023 0.043
-0.017 0.017 0.065
-0.021 0.021 0.059
-0.021 0.021 0.061
-0.023 0.021 0.063
-0.015 0.021 0.087
-0.013 0.021 0.087
-0.021 0.021 0.081
-0.011 0.021 0.087
-0.007 0.021 0.081
-0.023 0.019 0.065
-0.001 0.021 0.073
-0.001 0.021 0.073
-0.005 0.021 0.077
-0.007 0.021 0.079
0.005 0.019 0.075
0.005 0.017 0.079
0.005 0.017 0.079
-0.013 0.015 0.061
-0.023 0.021 0.061
-0.021 0.021 0.059
-0.011 0.019 0.049
0.001 0.021 0.063
0.003 0.021 0.067
-0.035 0.015 0.081
-0.037 0.015 0.073
-0.041 0.011 0.071
-0.041 0.011 0.079
-0.031 0.019 0.075
-0.041 0.009 0.085
-0.041 0.009 0.085
-0.031 0.017 0.085
-0.031 0.013 0.091
-0.013 0.019 0.089
-0.013 0.019 0.089
-0.011 0.017 0.091
-0.015 0.021 0.081
-0.001 0.017 0.087
-0.027 0.021 0.069
-0.019 0.019 0.065
-0.027 0.021 0.075
-0.015 0.021 0.081
-0.003 0.021 0.077
-0.003 0.021 0.075
-0.001 0.019 0.079
-0.021 0.015 0.093
-0.019 0.013 0.095
-0.019 0.013 0.095
-0.013 0.013 0.095
-0.021 0.015 0.093
-0.017 0.015 0.093
-0.009 0.013 0.093
-0.007 0.015 0.091
-0.011 0.021 0.087
-0.001 0.019 0.083
-0.001 0.019 0.083
-0.003 0.019 0.085
-0.001 0.019 0.085
0.031 0.021 0.047
0.033 0.021 0.045
0.041 0.019 0.053
0.041 0.019 0.053
0.043 0.017 0.053
0.039 0.021 0.051
0.013 0.017 0.057
0.017 0.019 0.049
0.013 0.021 0.051
0.015 0.021 0.051
0.009 0.019 0.061
0.009 0.019 0.063
0.009 0.019 0.065
0.033 0.021 0.049
0.021 0.023 0.041
0.033 0.021 0.045
0.017 0.023 0.039
0.015 0.023 0.041
0.013 0.021 0.045
0.013 0.021 0.047
0.021 0.025 0.035
0.033 0.021 0.041
0.033 0.015 0.075
0.031 0.015 0.069
0.029 0.015 0.067
0.013 0.021 0.051
0.015 0.021 0.051
0.003 0.019 0.059
0.011 0.017 0.063
0.047 0.009 0.041
0.043 0.017 0.041
0.037 0.021 0.047
0.049 0.011 0.039
0.051 0.017 0.039
0.051 0.007 0.051
0.049 0.007 0.045
0.037 0.019 0.041
0.051 0.017 0.037
0.049 0.023 0.035
0.037 0.017 0.055
0.039 0.013 0.059
0.049 0.011 0.049
0.021 0.023 0.091
0.021 0.023 0.091
0.013 0.011 0.067
0.017 0.025 0.101
0.019 0.025 0.093
0.019 0.023 0.087
0.021 0.023 0.089
0.025 0.019 0.083
0.027 0.021 0.099
0.023 0.023 0.093
0.023 0.023 0.093
0.017 0.015 0.099
0.023 0.023 0.101
0.003 0.013 0.089
0.003 0.013 0.089
0.021 0.025 0.099
0.019 0.025 0.101
0.019 0.025 0.101
0.037 0.015 0.097
0.021 0.023 0.095
0.037 0.015 0.103
0.035 0.013 0.105
0.001 0.017 0.083
0.031 0.017 0.083
0.023 0.023 0.093
0.043 0.001 0.071
0.039 0.013 0.069
0.041 0.013 0.085
0.039 0.011 0.073
0.037 0.017 0.095
0.035 0.015 0.085
0.041 0.013 0.103
0.043 0.011 0.095
0.039 0.013 0.103
0.045 0.011 0.095
0.045 0.007 0.099
0.043 0.011 0.097
0.039 0.015 0.095
0.035 0.015 0.089
0.037 0.015 0.089
0.035 0.017 0.093
0.043 0.013 0.093
0.051 0.007 0.083
0.053 0.005 0.087
0.059 0.003 0.081
0.059 0.003 0.083
0.057 0.005 0.081
0.011 0.017 0.111
0.015 0.013 0.109
0.023 0.013 0.111
0.023 0.013 0.109
0.031 0.005 0.105
0.021 0.015 0.107
0.005 0.019 0.113
0.007 0.019 0.109
0.021 0.023 0.101
0.023 0.021 0.103
0.049 0.003 0.105
0.043 0.013 0.101
0.039 0.005 0.105
0.051 0.007 0.099
0.049 0.009 0.097
-0.023 -0.007 0.031
-0.019 -0.005 0.031
-0.015 -0.003 0.031
-0.043 -0.013 0.039
-0.039 -0.015 0.039
-0.041 -0.015 0.045
-0.041 -0.015 0.045
-0.041 -0.015 0.043
-0.033 -0.011 0.047
-0.049 -0.005 0.059
-0.047 -0.011 0.049
-0.037 -0.011 0.051
-0.041 -0.009 0.057
-0.021 -0.017 0.047
-0.029 -0.013 0.035
-0.017 -0.015 0.035
-0.023 -0.011 0.039
-0.019 -0.013 0.037
-0.029 -0.013 0.033
-0.023 -0.011 0.039
-0.015 -0.013 0.035
-0.029 -0.013 0.041
-0.021 -0.017 0.045
-0.017 -0.011 0.047
-0.023 -0.017 0.045
-0.007 -0.015 0.033
-0.011 -0.013 0.037
-0.011 -0.013 0.033
-0.003 -0.013 0.037
-0.011 -0.005 0.047
-0.021 -0.017 0.055
-0.019 -0.011 0.055
-0.015 -0.009 0.049
0.015 -0.013 0.031
0.029 -0.019 0.031
0.031 -0.021 0.033
0.031 -0.021 0.043
0.025 -0.019 0.041
0.005 -0.011 0.039
0.015 -0.015 0.033
0.011 -0.015 0.033
0.015 -0.015 0.035
0.019 -0.015 0.035
0.023 -0.015 0.039
0.029 -0.021 0.033
0.031 -0.021 0.035
0.019 -0.011 0.047
0.007 -0.005 0.055
0.027 -0.011 0.053
0.019 -0.011 0.049
0.027 -0.009 0.055
0.037 -0.023 0.039
0.039 -0.019 0.035
0.039 -0.021 0.037
0.039 -0.017 0.033
0.039 -0.019 0.035
0.051 -0.001 0.043
0.047 -0.007 0.053
0.039 -0.005 0.063
0.047 -0.005 0.057
0.045 -0.007 0.059
0.047 -0.005 0.059
0.051 -0.003 0.051
0.001 -0.001 0.071
0.025 -0.001 0.077
0.033 -0.001 0.075
0.047 -0.009 0.087
0.039 -0.007 0.083
0.047 -0.007 0.095
0.061 -0.001 0.083
0.059 -0.007 0.085
0.057 -0.009 0.089
0.037 -0.007 0.097
0.051 -0.009 0.099
0.055 -0.007 0.105
-0.035 -0.011 0.031
-0.031 -0.013 0.033
-0.031 -0.013 0.033
-0.019 -0.015 0.033
-0.029 -0.013 0.035
-0.027 -0.013 0.039
-0.033 -0.015 0.041
-0.035 -0.015 0.043
-0.027 -0.013 0.041
-0.045 -0.003 0.063
-0.041 -0.007 0.061
-0.023 -0.011 0.039
-0.017 -0.015 0.035
-0.017 -0.015 0.035
-0.021 -0.015 0.035
-0.021 -0.011 0.037
-0.023 -0.017 0.047
-0.003 -0.007 0.039
-0.009 -0.001 0.047
-0.017 -0.015 0.041
-0.011 -0.007 0.039
-0.007 -0.015 0.037
-0.009 -0.005 0.041
-0.019 -0.015 0.047
-0.017 -0.011 0.047
-0.009 -0.005 0.041
-0.007 0.005 0.041
-0.021 -0.017 0.053
-0.023 -0.019 0.055
-0.019 -0.013 0.053
-0.025 -0.015 0.061
-0.009 0.005 0.051
-0.011 0.005 0.055
-0.009 0.009 0.053
0.003 -0.003 0.051
-0.001 0.001 0.055
-0.003 0.001 0.059
-0.005 0.003 0.063
-0.011 0.007 0.057
-0.001 -0.001 0.063
-0.013 -0.007 0.049
-0.019 -0.011 0.061
-0.019 0.003 0.063
-0.009 0.007 0.053
-0.049 0.005 0.077
-0.041 -0.001 0.067
-0.039 0.001 0.069
-0.041 0.005 0.077
-0.041 0.005 0.077
-0.035 0.005 0.077
-0.049 0.003 0.085
-0.019 0.003 0.065
-0.017 0.005 0.065
-0.017 0.005 0.067
-0.031 0.003 0.079
-0.007 0.005 0.065
-0.005 0.003 0.065
-0.009 0.001 0.075
-0.003 0.001 0.077
-0.023 -0.007 0.071
-0.021 0.001 0.069
0.001 -0.001 0.065
0.001 0.001 0.075
-0.031 0.003 0.083
-0.023 0.007 0.091
-0.019 0.005 0.091
-0.029 0.011 0.091
-0.011 0.003 0.089
-0.011 0.005 0.091
-0.015 0.013 0.095
0.001 0.003 0.083
-0.009 0.003 0.087
-0.007 0.005 0.089
0.019 -0.013 0.033
0.035 -0.021 0.033
0.041 0.001 0.031
0.011 -0.015 0.035
0.019 -0.015 0.037
0.015 -0.011 0.043
0.015 -0.009 0.045
0.021 -0.013 0.047
0.037 -0.021 0.037
0.033 -0.023 0.043
0.019 -0.003 0.055
0.013 -0.001 0.061
0.033 -0.011 0.055
0.033 -0.011 0.053
0.035 -0.011 0.053
0.023 0.007 0.059
0.019 -0.011 0.049
0.015 -0.001 0.057
0.015 0.003 0.061
0.023 -0.011 0.051
0.033 -0.011 0.049
0.035 -0.011 0.051
0.039 -0.013 0.039
0.049 -0.003 0.039
0.051 0.011 0.035
0.049 0.001 0.037
0.049 -0.005 0.041
0.039 -0.021 0.037
0.039 -0.017 0.037
0.049 0.001 0.037
0.047 -0.005 0.039
0.039 -0.013 0.045
0.043 -0.009 0.045
0.049 -0.005 0.041
0.045 -0.009 0.049
0.047 -0.003 0.061
0.049 -0.005 0.051
0.009 0.001 0.067
0.015 0.009 0.069
0.011 0.005 0.071
0.005 0.005 0.079
0.009 0.005 0.075
0.009 0.005 0.075
0.009 0.007 0.077
0.021 0.007 0.065
0.021 0.003 0.069
0.027 -0.003 0.071
0.017 0.007 0.075
0.019 0.003 0.073
0.029 -0.003 0.073
0.029 -0.001 0.077
0.033 -0.001 0.075
0.005 -0.001 0.067
0.007 0.001 0.069
0.007 0.003 0.073
0.007 0.003 0.075
0.027 -0.001 0.077
0.015 0.003 0.087
0.001 0.007 0.085
0.009 0.011 0.081
0.013 0.009 0.083
0.007 0.005 0.093
0.013 0.003 0.091
0.013 0.003 0.089
0.029 -0.003 0.083
0.033 -0.005 0.083
0.033 -0.005 0.083
0.033 0.003 0.079
0.005 0.005 0.079
0.017 0.001 0.087
0.017 0.001 0.089
0.017 0.001 0.093
0.025 -0.001 0.079
0.019 0.003 0.083
0.027 -0.003 0.087
0.045 -0.003 0.065
0.033 0.001 0.077
0.039 -0.007 0.083
0.041 -0.009 0.085
0.043 -0.009 0.083
0.047 0.001 0.081
0.047 -0.011 0.081
0.045 -0.009 0.085
0.039 -0.007 0.085
0.035 -0.005 0.089
0.047 0.007 0.093
0.043 -0.003 0.089
0.011 0.003 0.099
0.013 0.003 0.099
0.015 0.001 0.101
0.017 0.001 0.097
0.013 0.011 0.107
0.013 0.011 0.107
0.017 0.003 0.107
0.021 -0.001 0.107
0.021 -0.001 0.107
0.031 -0.003 0.103
0.019 -0.001 0.095
0.025 -0.001 0.095
0.033 -0.005 0.097
0.029 -0.003 0.101
0.021 -0.001 0.099
0.001 0.017 0.113
0.033 -0.003 0.101
0.041 -0.001 0.101
0.049 0.001 0.097
0.057 0.001 0.101
0.037 -0.007 0.097
