-0.037 -0.009 0.031
-0.017 -0.005 0.031
-0.019 -0.005 0.031
-0.039 -0.015 0.039
-0.043 -0.015 0.041
-0.047 -0.011 0.047
-0.033 -0.015 0.041
-0.035 -0.015 0.043
-0.035 -0.015 0.045
-0.043 -0.013 0.051
-0.035 -0.013 0.049
-0.035 -0.009 0.051
-0.035 -0.009 0.051
-0.039 -0.007 0.059
-0.029 -0.013 0.035
-0.029 -0.013 0.037
-0.029 -0.013 0.039
-0.021 -0.015 0.035
-0.017 -0.013 0.041
-0.013 -0.013 0.037
-0.007 -0.015 0.035
-0.003 -0.015 0.033
-0.005 -0.013 0.039
-0.025 -0.019 0.055
-0.023 -0.017 0.049
-0.021 -0.017 0.049
-0.019 -0.015 0.049
-0.021 -0.019 0.051
-0.021 -0.017 0.053
-0.019 -0.013 0.053
-0.025 -0.011 0.063
-0.021 -0.013 0.059
-0.023 -0.013 0.063
-0.047 -0.001 0.065
-0.019 -0.005 0.065
0.023 -0.005 0.031
0.033 -0.019 0.031
0.037 -0.019 0.031
0.035 -0.021 0.033
0.023 -0.019 0.035
0.025 -0.021 0.035
0.007 -0.013 0.037
0.013 -0.013 0.039
0.009 -0.015 0.035
0.013 -0.011 0.043
0.011 -0.009 0.047
0.023 -0.019 0.033
0.021 -0.013 0.047
0.031 -0.015 0.047
0.021 -0.011 0.049
0.023 -0.011 0.051
0.023 -0.009 0.053
0.021 -0.005 0.053
0.037 -0.023 0.043
0.041 -0.005 0.033
0.037 -0.023 0.043
0.041 -0.011 0.041
0.043 -0.009 0.047
0.047 -0.007 0.051
0.047 -0.007 0.055
0.047 -0.007 0.055
0.031 -0.005 0.065
0.031 -0.001 0.075
0.025 -0.003 0.089
0.033 -0.005 0.067
0.037 -0.007 0.095
0.039 -0.007 0.095
0.047 -0.007 0.089
0.045 -0.007 0.089
0.057 -0.011 0.087
0.053 -0.007 0.083
0.061 -0.005 0.087
0.051 -0.009 0.089
0.053 -0.011 0.089
0.049 -0.009 0.089
0.035 -0.003 0.103
0.047 -0.009 0.099
0.049 -0.005 0.105
-0.033 -0.011 0.031
-0.013 0.001 0.031
-0.023 -0.015 0.041
-0.025 -0.011 0.037
-0.045 -0.007 0.059
-0.041 -0.011 0.053
-0.037 -0.001 0.057
-0.027 -0.013 0.061
-0.017 -0.015 0.035
-0.013 -0.013 0.033
-0.019 -0.015 0.039
-0.019 -0.013 0.037
-0.023 -0.015 0.041
-0.005 -0.015 0.037
-0.003 -0.007 0.039
-0.005 -0.015 0.037
-0.005 -0.015 0.037
-0.005 -0.009 0.039
-0.007 0.007 0.047
-0.013 -0.007 0.041
-0.009 -0.015 0.035
-0.011 -0.007 0.039
-0.019 -0.017 0.043
-0.017 -0.011 0.047
-0.009 -0.001 0.043
-0.007 0.007 0.047
-0.009 -0.003 0.043
-0.021 -0.015 0.053
-0.021 -0.017 0.055
-0.019 -0.015 0.049
-0.021 -0.019 0.051
-0.017 0.003 0.059
-0.011 -0.001 0.049
-0.009 0.005 0.051
-0.005 0.003 0.061
-0.003 0.001 0.059
-0.017 -0.011 0.049
-0.013 0.003 0.055
-0.013 0.005 0.059
-0.055 0.005 0.077
-0.049 0.005 0.079
-0.047 0.005 0.079
-0.045 -0.003 0.065
-0.045 0.001 0.069
-0.035 0.005 0.065
-0.039 0.001 0.069
-0.029 0.001 0.073
-0.049 0.003 0.081
-0.053 0.003 0.085
-0.047 0.003 0.087
-0.033 0.003 0.079
-0.031 0.003 0.081
-0.031 0.001 0.073
-0.029 0.001 0.077
-0.029 0.001 0.079
-0.021 0.001 0.075
-0.019 0.003 0.065
-0.017 0.005 0.067
-0.017 0.005 0.075
-0.015 0.001 0.079
-0.015 0.001 0.079
-0.013 0.003 0.077
-0.003 0.001 0.067
-0.009 0.001 0.077
0.003 0.001 0.077
-0.027 0.001 0.081
-0.025 0.001 0.083
-0.025 0.005 0.089
-0.023 0.007 0.091
-0.011 0.001 0.083
0.001 0.007 0.085
-0.009 0.007 0.091
-0.003 0.005 0.087
-0.021 0.001 0.079
-0.021 0.001 0.081
-0.015 0.001 0.085
-0.011 0.001 0.085
-0.005 0.001 0.083
-0.009 0.001 0.083
-0.005 0.003 0.085
-0.005 0.003 0.087
0.023 -0.019 0.033
0.033 -0.021 0.033
0.009 -0.015 0.037
0.009 -0.013 0.041
0.011 -0.011 0.039
0.005 -0.009 0.043
0.019 -0.015 0.035
0.019 -0.015 0.037
0.011 -0.009 0.045
0.017 -0.013 0.043
0.015 -0.007 0.047
0.029 -0.021 0.039
0.025 -0.013 0.047
0.027 -0.017 0.047
0.033 -0.021 0.045
0.001 -0.001 0.051
0.029 -0.011 0.055
0.019 0.007 0.059
0.005 -0.003 0.051
0.011 -0.007 0.051
0.007 -0.005 0.055
0.019 -0.005 0.053
0.015 0.001 0.059
0.037 -0.021 0.035
0.043 -0.009 0.043
0.049 -0.005 0.041
0.049 0.011 0.035
0.051 -0.001 0.043
0.039 -0.019 0.035
0.039 -0.017 0.041
0.045 -0.007 0.037
0.047 -0.007 0.041
0.049 0.011 0.039
0.049 -0.003 0.059
0.011 0.001 0.065
0.011 0.005 0.071
0.007 0.007 0.079
0.007 0.003 0.077
0.017 0.009 0.071
0.021 0.001 0.075
0.009 0.005 0.075
0.019 0.003 0.079
0.023 0.001 0.079
0.009 0.005 0.087
0.009 0.011 0.081
0.013 0.003 0.089
0.015 0.001 0.091
0.019 0.003 0.081
0.031 0.003 0.083
0.033 -0.005 0.083
0.021 0.001 0.089
0.031 0.001 0.081
0.029 -0.003 0.085
0.019 0.001 0.087
0.041 -0.001 0.071
0.039 -0.003 0.071
0.041 -0.001 0.071
0.043 -0.005 0.065
0.037 0.005 0.077
0.039 -0.001 0.073
0.035 -0.003 0.073
0.033 -0.005 0.083
0.041 -0.009 0.083
0.047 -0.011 0.085
0.039 -0.007 0.083
0.033 0.013 0.083
0.037 -0.007 0.087
0.039 0.005 0.091
0.043 -0.007 0.087
0.043 -0.003 0.089
0.049 0.001 0.081
0.053 0.003 0.081
0.053 -0.011 0.087
0.011 0.003 0.099
0.015 0.003 0.099
0.015 0.001 0.103
0.015 0.001 0.101
0.015 0.001 0.103
0.019 0.001 0.101
0.023 -0.001 0.105
0.021 0.001 0.103
0.023 0.001 0.107
0.025 0.009 0.111
0.019 -0.001 0.095
0.003 0.017 0.111
0.017 0.003 0.105
0.009 0.013 0.109
0.033 -0.003 0.101
0.047 -0.009 0.099
0.047 -0.009 0.101
0.037 -0.007 0.097
0.041 -0.007 0.095
0.047 -0.007 0.095
0.055 0.001 0.097
0.051 -0.007 0.097
0.053 -0.009 0.101
0.057 -0.001 0.103
0.055 -0.005 0.103
-0.039 0.001 0.053
-0.039 0.009 0.065
-0.037 -0.001 0.047
-0.047 0.011 0.077
-0.043 0.013 0.075
-0.039 0.011 0.077
-0.047 0.003 0.053
-0.035 0.017 0.071
-0.049 0.003 0.059
-0.049 0.009 0.075
-0.045 0.011 0.081
-0.037 0.015 0.071
-0.037 0.015 0.073
-0.041 0.011 0.075
-0.041 0.011 0.079
-0.033 0.019 0.075
-0.029 0.019 0.073
-0.025 0.021 0.077
-0.023 0.021 0.083
-0.025 0.019 0.087
-0.025 0.021 0.083
-0.027 0.019 0.077
-0.023 0.021 0.079
-0.021 0.019 0.075
-0.017 0.021 0.079
-0.015 0.019 0.075
-0.017 0.017 0.065
-0.009 0.011 0.055
-0.009 0.013 0.055
-0.033 0.013 0.089
-0.023 0.019 0.087
-0.027 0.013 0.093
-0.019 0.021 0.085
0.005 0.019 0.067
0.009 0.019 0.061
0.017 0.025 0.087
0.027 0.011 0.061
0.029 0.013 0.053
0.029 0.015 0.051
0.005 0.017 0.077
0.013 0.011 0.069
0.015 0.011 0.069
0.019 0.015 0.073
0.025 0.009 0.055
0.019 0.009 0.061
0.013 0.017 0.061
-0.001 0.019 0.079
-0.005 0.021 0.083
0.009 0.013 0.077
0.017 0.025 0.097
0.019 0.025 0.099
0.023 0.021 0.087
0.033 0.015 0.075
0.043 0.013 0.061
0.041 0.013 0.067
0.039 0.011 0.073
0.003 0.015 0.085
0.003 0.015 0.085
0.019 0.025 0.101
0.025 0.013 0.105
0.031 0.019 0.095
0.023 0.023 0.101
0.039 0.009 0.105
0.027 0.011 0.109
0.041 0.011 0.103
0.039 0.007 0.105
0.049 0.005 0.101
0.061 -0.001 0.087
0.043 0.005 0.103
0.043 0.007 0.103
0.029 0.001 0.105
0.025 0.011 0.113
0.031 -0.001 0.105
0.045 0.001 0.103
0.047 0.001 0.105
0.053 -0.009 0.105
-0.035 0.013 0.037
-0.021 0.023 0.043
-0.017 0.021 0.047
-0.043 0.007 0.035
-0.043 0.003 0.041
-0.041 0.003 0.043
-0.049 0.003 0.059
-0.047 0.005 0.059
-0.041 0.011 0.069
-0.035 0.017 0.071
-0.037 0.015 0.073
-0.031 0.017 0.041
-0.021 0.021 0.045
-0.015 0.019 0.059
-0.013 0.017 0.059
-0.011 0.017 0.055
-0.015 0.021 0.047
-0.011 0.019 0.053
-0.025 0.025 0.039
-0.021 0.023 0.043
-0.017 0.025 0.043
-0.023 0.027 0.037
-0.025 0.021 0.043
-0.011 0.019 0.045
-0.013 0.019 0.049
-0.011 0.019 0.047
-0.015 0.021 0.047
-0.027 0.019 0.085
-0.033 0.019 0.077
-0.025 0.021 0.083
-0.019 0.021 0.079
-0.005 0.021 0.071
-0.007 0.021 0.079
-0.007 0.009 0.051
-0.003 0.015 0.057
-0.007 0.021 0.079
-0.017 0.021 0.079
-0.009 0.021 0.075
-0.009 0.021 0.075
-0.023 0.021 0.055
-0.031 0.019 0.063
-0.025 0.021 0.061
-0.009 0.017 0.049
-0.015 0.021 0.051
-0.013 0.019 0.055
-0.049 0.011 0.079
-0.051 0.009 0.077
-0.043 0.011 0.071
-0.035 0.015 0.081
-0.035 0.017 0.071
-0.045 0.011 0.081
-0.035 0.013 0.085
-0.055 0.005 0.087
-0.053 0.005 0.087
-0.047 0.007 0.087
-0.033 0.015 0.083
-0.027 0.017 0.089
-0.023 0.015 0.091
-0.019 0.021 0.085
-0.013 0.021 0.087
-0.011 0.021 0.085
-0.005 0.017 0.089
-0.017 0.013 0.095
-0.015 0.017 0.091
-0.011 0.015 0.091
-0.007 0.013 0.093
-0.025 0.021 0.071
-0.029 0.019 0.073
-0.025 0.021 0.073
-0.021 0.019 0.069
-0.005 0.021 0.077
-0.025 0.013 0.093
-0.025 0.011 0.093
-0.019 0.005 0.091
-0.019 0.005 0.091
-0.025 0.013 0.093
-0.025 0.013 0.093
-0.021 0.015 0.093
-0.019 0.015 0.093
-0.023 0.013 0.095
-0.019 0.013 0.095
-0.017 0.013 0.095
-0.011 0.011 0.095
-0.005 0.017 0.089
-0.003 0.015 0.089
-0.027 0.017 0.087
-0.027 0.019 0.085
-0.019 0.021 0.083
-0.019 0.017 0.091
-0.015 0.021 0.087
-0.001 0.019 0.083
0.017 0.023 0.043
0.027 0.019 0.047
0.003 0.019 0.059
0.001 0.021 0.065
0.007 0.019 0.053
0.007 0.019 0.047
0.009 0.019 0.045
-0.001 0.019 0.063
-0.001 0.019 0.059
0.007 0.019 0.049
0.013 0.021 0.053
0.027 0.023 0.037
0.031 0.021 0.039
0.021 0.025 0.035
0.019 0.017 0.047
0.023 0.017 0.047
0.029 0.021 0.045
-0.001 0.019 0.059
0.013 0.015 0.063
0.031 0.013 0.059
0.015 0.011 0.069
0.019 0.007 0.061
0.021 0.009 0.057
0.027 0.011 0.061
0.027 0.015 0.067
0.023 0.015 0.069
0.029 0.015 0.065
0.013 0.021 0.051
0.001 0.019 0.057
0.021 0.017 0.049
0.029 0.021 0.047
0.043 0.017 0.051
0.047 0.011 0.059
0.045 0.017 0.041
0.039 0.015 0.057
0.041 0.015 0.057
0.039 0.013 0.059
0.039 0.021 0.051
0.013 0.011 0.069
0.003 0.013 0.089
0.017 0.025 0.095
0.023 0.015 0.071
0.013 0.015 0.091
0.019 0.023 0.103
0.021 0.023 0.101
0.015 0.025 0.089
0.001 0.021 0.073
0.003 0.015 0.085
0.001 0.013 0.091
0.003 0.013 0.087
0.013 0.025 0.095
0.005 0.019 0.109
0.011 0.007 0.091
0.015 0.023 0.103
0.025 0.021 0.103
0.025 0.023 0.097
0.029 0.019 0.091
0.013 0.015 0.111
0.015 0.017 0.109
0.039 0.013 0.081
0.047 0.007 0.065
0.033 0.015 0.073
0.039 0.013 0.069
0.031 0.021 0.103
0.037 0.015 0.099
0.033 0.015 0.085
0.033 0.017 0.089
0.039 0.015 0.101
0.035 0.017 0.093
0.047 0.011 0.095
0.003 0.019 0.113
0.007 0.017 0.113
0.005 0.019 0.113
0.011 0.017 0.111
0.007 0.017 0.113
0.013 0.011 0.109
0.013 0.015 0.111
0.021 0.013 0.115
0.017 0.015 0.109
0.025 0.013 0.107
0.029 0.021 0.099
0.017 0.025 0.103
0.041 0.013 0.103
0.041 0.013 0.099
0.037 0.007 0.105
0.035 0.011 0.105
0.053 0.001 0.105
0.057 0.005 0.103
