-0.035 -0.023 0.035
-0.033 -0.007 0.047
-0.035 -0.007 0.039
-0.027 0.003 0.051
-0.035 -0.031 0.057
-0.037 -0.029 0.065
-0.031 -0.023 0.041
-0.031 -0.025 0.043
-0.031 -0.023 0.041
-0.033 -0.027 0.055
-0.033 -0.031 0.051
-0.035 -0.011 0.063
-0.035 -0.013 0.067
-0.037 -0.023 0.065
-0.037 -0.013 0.071
-0.035 -0.017 0.067
-0.037 -0.013 0.071
-0.037 -0.013 0.071
-0.035 -0.017 0.073
-0.033 -0.023 0.037
-0.035 -0.007 0.039
-0.033 -0.007 0.047
-0.035 -0.031 0.055
-0.037 -0.027 0.061
-0.037 -0.025 0.063
-0.035 -0.009 0.063
-0.035 -0.011 0.063
-0.031 -0.021 0.039
-0.025 -0.019 0.043
-0.033 -0.007 0.047
-0.031 -0.007 0.051
-0.033 -0.005 0.049
-0.031 -0.001 0.049
-0.029 0.001 0.053
-0.027 -0.025 0.043
-0.025 -0.025 0.045
-0.031 -0.001 0.055
-0.031 -0.001 0.055
-0.029 0.001 0.055
-0.029 0.001 0.059
-0.027 0.001 0.059
-0.027 0.003 0.055
-0.027 0.003 0.055
-0.031 -0.001 0.063
-0.029 -0.001 0.061
-0.021 0.001 0.061
-0.021 -0.001 0.063
-0.033 -0.001 0.043
-0.033 -0.001 0.041
-0.033 -0.001 0.041
-0.033 -0.001 0.043
-0.031 0.001 0.043
-0.027 0.007 0.043
-0.031 -0.003 0.055
-0.033 -0.005 0.047
-0.033 -0.005 0.049
-0.029 0.001 0.047
-0.019 0.005 0.053
-0.023 0.009 0.043
-0.019 0.005 0.049
-0.019 0.005 0.051
-0.017 0.005 0.045
-0.013 0.003 0.047
-0.017 0.003 0.055
-0.015 0.003 0.055
-0.015 0.001 0.057
-0.031 -0.029 0.051
-0.029 -0.027 0.055
-0.035 -0.013 0.065
-0.037 -0.011 0.069
-0.033 -0.005 0.061
-0.033 -0.003 0.067
-0.035 -0.015 0.067
-0.037 -0.011 0.069
-0.033 -0.003 0.073
-0.029 -0.003 0.071
-0.031 -0.003 0.073
-0.027 -0.003 0.071
-0.031 -0.001 0.079
-0.029 0.001 0.083
-0.031 -0.001 0.081
-0.029 0.001 0.081
-0.027 0.003 0.081
-0.029 0.001 0.081
-0.025 0.003 0.077
-0.033 -0.005 0.063
-0.033 -0.005 0.059
-0.031 -0.003 0.065
-0.029 -0.003 0.067
-0.031 -0.005 0.051
-0.033 -0.005 0.061
-0.027 -0.001 0.067
-0.023 -0.001 0.063
-0.027 0.001 0.061
-0.021 -0.001 0.063
-0.021 0.003 0.059
-0.015 0.001 0.057
-0.017 0.001 0.059
-0.015 0.001 0.057
-0.021 -0.003 0.067
-0.017 -0.003 0.063
-0.019 -0.003 0.067
-0.043 -0.033 0.077
-0.043 -0.029 0.081
-0.043 -0.037 0.081
-0.039 -0.023 0.073
-0.039 -0.021 0.075
-0.037 -0.013 0.071
-0.037 -0.021 0.071
-0.037 -0.013 0.075
-0.041 -0.023 0.079
-0.039 -0.023 0.075
-0.035 -0.015 0.081
-0.037 -0.011 0.069
-0.035 -0.009 0.067
-0.041 -0.031 0.085
-0.041 -0.029 0.085
-0.039 -0.025 0.085
-0.037 -0.023 0.085
-0.035 -0.023 0.085
-0.035 -0.023 0.085
-0.037 -0.027 0.087
-0.037 -0.021 0.081
-0.033 -0.021 0.081
-0.033 -0.017 0.085
-0.035 -0.013 0.083
-0.033 -0.007 0.083
-0.033 -0.005 0.085
-0.037 -0.021 0.073
-0.037 -0.011 0.073
-0.037 -0.011 0.075
-0.033 -0.005 0.079
-0.029 0.001 0.083
-0.035 -0.013 0.083
-0.031 -0.007 0.089
-0.031 -0.003 0.087
-0.031 -0.001 0.083
-0.027 0.003 0.079
-0.027 0.003 0.079
-0.027 0.003 0.081
-0.029 -0.003 0.069
-0.029 -0.001 0.087
-0.027 0.003 0.081
-0.025 0.005 0.085
-0.025 0.005 0.079
-0.023 0.007 0.081
-0.019 0.011 0.081
-0.019 0.009 0.087
-0.031 -0.009 0.089
-0.029 -0.011 0.091
-0.029 -0.011 0.093
-0.027 -0.003 0.091
-0.027 -0.003 0.091
-0.031 -0.001 0.083
-0.031 -0.003 0.087
-0.029 -0.001 0.087
-0.031 -0.011 0.089
-0.029 -0.011 0.093
-0.027 -0.011 0.093
-0.023 -0.003 0.095
-0.021 -0.001 0.095
-0.019 0.001 0.095
-0.023 -0.007 0.095
-0.021 -0.001 0.095
-0.021 -0.001 0.095
-0.019 0.001 0.095
-0.017 0.003 0.093
-0.017 0.005 0.091
-0.015 0.003 0.095
-0.003 0.023 0.055
-0.011 0.009 0.051
-0.015 0.013 0.061
-0.009 0.019 0.059
-0.009 0.019 0.059
-0.009 0.019 0.063
-0.007 0.021 0.057
-0.005 0.021 0.057
-0.005 0.021 0.059
-0.037 0.005 0.037
-0.035 0.007 0.035
-0.037 0.005 0.037
-0.035 0.005 0.037
-0.033 0.005 0.041
-0.031 0.005 0.041
-0.027 0.007 0.043
-0.027 0.005 0.045
-0.025 0.007 0.045
-0.025 0.007 0.045
-0.025 0.005 0.047
-0.023 0.005 0.047
-0.023 0.009 0.043
-0.017 0.005 0.041
-0.019 0.005 0.043
-0.017 0.005 0.041
-0.017 0.005 0.043
-0.011 0.015 0.055
-0.011 0.015 0.051
-0.011 0.017 0.053
-0.011 0.011 0.051
-0.009 0.017 0.049
-0.009 0.017 0.047
-0.009 0.017 0.049
-0.007 0.023 0.041
-0.005 0.025 0.043
-0.007 0.027 0.037
-0.003 0.031 0.035
-0.001 0.031 0.041
-0.003 0.027 0.043
-0.027 0.003 0.055
-0.023 0.005 0.051
-0.023 0.005 0.053
-0.021 0.005 0.051
-0.029 0.001 0.059
-0.025 0.001 0.063
-0.021 0.001 0.061
-0.021 0.001 0.061
-0.017 0.003 0.053
-0.015 0.003 0.053
-0.015 0.011 0.065
-0.013 0.015 0.057
-0.013 0.015 0.057
-0.017 0.013 0.071
-0.013 0.017 0.063
-0.007 0.021 0.059
-0.021 0.009 0.075
-0.021 0.009 0.077
-0.019 0.009 0.073
-0.023 0.005 0.077
-0.025 0.005 0.081
-0.021 0.009 0.075
-0.021 0.009 0.077
-0.019 0.009 0.071
-0.019 0.009 0.073
-0.019 0.011 0.077
-0.017 0.011 0.071
-0.013 0.013 0.083
-0.009 0.011 0.085
-0.007 0.011 0.085
-0.003 0.015 0.081
-0.009 0.019 0.067
-0.007 0.017 0.069
-0.009 0.017 0.071
-0.009 0.017 0.073
-0.027 0.003 0.083
-0.025 0.005 0.083
-0.019 0.009 0.087
-0.023 0.003 0.091
-0.017 0.001 0.095
-0.015 0.011 0.085
-0.007 0.013 0.083
-0.005 0.013 0.085
-0.013 0.007 0.093
-0.013 0.007 0.091
-0.013 0.007 0.093
-0.011 0.009 0.091
-0.007 0.011 0.089
-0.007 0.029 0.093
-0.003 0.029 0.091
-0.009 0.027 0.101
-0.007 0.029 0.095
-0.007 0.029 0.089
-0.005 0.029 0.089
-0.009 0.027 0.097
-0.013 0.015 0.113
-0.011 0.017 0.113
-0.005 0.031 0.097
-0.007 0.029 0.103
-0.003 0.025 0.047
-0.001 0.031 0.041
0.005 0.035 0.041
0.005 0.033 0.045
0.009 0.039 0.043
0.013 0.035 0.055
0.013 0.037 0.055
0.011 0.039 0.053
-0.011 0.017 0.053
-0.009 0.019 0.051
-0.007 0.021 0.053
-0.005 0.025 0.053
-0.003 0.025 0.051
-0.007 0.019 0.043
-0.003 0.025 0.049
-0.009 0.019 0.059
-0.001 0.021 0.061
0.001 0.025 0.053
0.003 0.021 0.059
0.003 0.025 0.051
0.007 0.029 0.051
0.007 0.027 0.051
0.009 0.033 0.051
-0.003 0.021 0.061
0.007 0.021 0.057
0.011 0.025 0.061
0.009 0.029 0.065
0.011 0.031 0.065
0.003 0.029 0.043
0.003 0.035 0.039
0.001 0.027 0.045
-0.001 0.025 0.047
0.007 0.035 0.047
0.009 0.039 0.043
0.003 0.019 0.063
0.005 0.019 0.063
-0.013 0.017 0.071
0.001 0.019 0.065
0.003 0.017 0.065
0.009 0.031 0.069
0.009 0.031 0.071
0.011 0.033 0.073
0.003 0.021 0.057
0.011 0.021 0.057
0.007 0.021 0.057
0.005 0.027 0.051
0.007 0.027 0.051
0.011 0.027 0.053
0.001 0.021 0.061
0.001 0.019 0.065
0.005 0.019 0.063
0.009 0.025 0.065
0.009 0.029 0.067
0.009 0.031 0.069
0.009 0.029 0.067
0.015 0.035 0.061
0.009 0.031 0.067
0.017 0.037 0.061
0.017 0.037 0.063
0.013 0.033 0.065
0.017 0.037 0.067
0.013 0.037 0.055
0.015 0.039 0.055
0.015 0.039 0.055
0.015 0.041 0.053
0.015 0.043 0.051
0.017 0.037 0.061
0.023 0.039 0.059
0.023 0.035 0.071
0.005 0.037 0.037
0.003 0.035 0.039
0.007 0.037 0.041
0.009 0.039 0.037
0.015 0.045 0.039
0.007 0.035 0.049
0.009 0.039 0.045
0.009 0.039 0.047
0.007 0.037 0.049
0.011 0.041 0.047
0.013 0.041 0.041
0.013 0.041 0.043
0.019 0.041 0.041
0.015 0.049 0.037
0.021 0.045 0.041
0.011 0.041 0.049
0.019 0.041 0.045
0.015 0.043 0.049
0.015 0.049 0.037
0.019 0.051 0.037
0.015 0.041 0.055
0.027 0.041 0.059
0.017 0.041 0.055
0.027 0.041 0.053
0.017 0.037 0.061
0.017 0.037 0.065
0.021 0.039 0.063
0.027 0.039 0.065
0.025 0.041 0.047
0.025 0.041 0.053
0.027 0.041 0.051
0.029 0.039 0.061
0.031 0.039 0.059
0.031 0.039 0.059
0.029 0.037 0.067
0.031 0.037 0.065
-0.009 0.015 0.077
-0.001 0.017 0.071
-0.003 0.017 0.073
-0.001 0.017 0.071
-0.009 0.011 0.087
-0.003 0.015 0.079
-0.003 0.015 0.077
-0.005 0.027 0.091
-0.003 0.031 0.089
-0.001 0.019 0.067
-0.001 0.017 0.069
0.003 0.027 0.075
0.005 0.029 0.073
0.003 0.027 0.079
0.003 0.027 0.075
0.001 0.025 0.079
-0.007 0.029 0.087
0.009 0.033 0.083
0.007 0.031 0.079
0.009 0.033 0.083
0.015 0.033 0.077
0.001 0.033 0.093
0.007 0.033 0.091
0.013 0.035 0.085
0.015 0.035 0.083
0.017 0.037 0.081
-0.005 0.029 0.095
0.001 0.011 0.093
-0.009 0.027 0.101
-0.009 0.027 0.103
-0.009 0.027 0.101
-0.009 0.027 0.101
0.003 0.013 0.097
0.003 0.021 0.101
0.001 0.033 0.101
0.001 0.031 0.105
0.001 0.031 0.085
-0.003 0.031 0.091
-0.001 0.031 0.089
-0.007 0.029 0.103
-0.007 0.029 0.103
-0.001 0.031 0.091
0.001 0.033 0.093
0.003 0.033 0.097
0.001 0.033 0.099
0.005 0.035 0.099
0.011 0.035 0.099
0.013 0.037 0.097
0.011 0.035 0.089
0.007 0.035 0.095
0.011 0.037 0.095
0.003 0.033 0.103
0.003 0.033 0.105
0.011 0.035 0.099
0.011 0.037 0.095
0.015 0.037 0.097
0.019 0.037 0.103
0.017 0.037 0.103
0.025 0.033 0.073
0.023 0.039 0.097
0.025 0.039 0.097
0.029 0.041 0.099
0.019 0.037 0.069
0.023 0.037 0.069
0.029 0.033 0.071
0.017 0.033 0.077
0.011 0.035 0.087
0.001 0.033 0.097
0.015 0.035 0.087
0.017 0.037 0.087
0.013 0.037 0.093
0.015 0.037 0.093
0.015 0.037 0.093
0.021 0.039 0.093
0.017 0.037 0.097
0.029 0.043 0.097
0.029 0.037 0.087
0.031 0.039 0.087
0.031 0.041 0.083
0.033 0.039 0.089
0.037 0.039 0.089
0.033 0.043 0.095
0.041 0.039 0.091
0.039 0.043 0.087
0.041 0.043 0.087
0.045 0.043 0.085
0.029 0.043 0.097
0.037 0.045 0.099
0.041 0.039 0.091
0.037 0.045 0.099
0.029 0.043 0.097
0.001 0.011 0.101
-0.007 0.019 0.111
0.001 0.023 0.109
0.001 0.023 0.105
0.001 0.023 0.109
0.003 0.021 0.109
0.003 0.023 0.109
0.003 0.021 0.101
0.001 0.023 0.105
0.001 0.023 0.109
0.001 0.029 0.103
0.001 0.023 0.107
0.003 0.023 0.109
0.005 0.023 0.109
0.007 0.027 0.111
0.005 0.025 0.111
0.007 0.027 0.111
0.007 0.027 0.109
0.007 0.027 0.111
0.019 0.027 0.105
0.025 0.027 0.105
0.007 0.027 0.111
0.021 0.021 0.105
0.019 0.029 0.105
0.021 0.029 0.105
0.025 0.031 0.105
0.025 0.033 0.105
0.027 0.033 0.105
0.029 0.037 0.101
0.033 0.031 0.103
0.033 0.033 0.105
0.033 0.035 0.105
0.003 0.033 0.101
0.005 0.035 0.099
0.003 0.035 0.105
0.005 0.035 0.103
0.009 0.035 0.099
0.007 0.035 0.103
0.015 0.035 0.105
0.003 0.035 0.107
0.023 0.039 0.097
0.023 0.039 0.101
0.029 0.039 0.099
0.027 0.041 0.097
0.029 0.037 0.101
0.031 0.039 0.101
0.033 0.033 0.105
0.035 0.035 0.107
0.035 0.037 0.107
