-0.035 -0.033 0.053
-0.029 -0.019 0.041
-0.027 -0.041 0.053
-0.045 -0.035 0.081
-0.043 -0.033 0.079
-0.033 -0.015 0.039
-0.027 -0.019 0.041
-0.035 -0.029 0.057
-0.039 -0.021 0.077
-0.041 -0.031 0.085
-0.029 -0.015 0.055
-0.037 -0.013 0.075
-0.035 -0.009 0.069
-0.035 -0.009 0.077
-0.035 -0.009 0.077
-0.035 -0.019 0.069
-0.041 -0.025 0.075
-0.043 -0.031 0.083
-0.035 -0.019 0.071
-0.035 -0.019 0.069
-0.037 -0.029 0.089
-0.039 -0.025 0.085
-0.035 -0.009 0.061
-0.035 -0.013 0.063
-0.035 -0.015 0.065
-0.033 -0.003 0.065
-0.033 -0.017 0.083
-0.029 -0.005 0.089
-0.043 -0.031 0.081
-0.043 -0.029 0.081
-0.039 -0.023 0.083
-0.037 -0.011 0.073
-0.035 -0.013 0.079
-0.035 -0.021 0.081
-0.035 -0.019 0.081
-0.041 -0.025 0.081
-0.031 -0.019 0.083
-0.031 -0.019 0.083
-0.025 -0.019 0.083
-0.023 -0.021 0.079
-0.023 -0.019 0.083
-0.023 -0.017 0.085
-0.033 -0.005 0.083
-0.029 -0.011 0.093
-0.029 -0.011 0.093
-0.031 -0.009 0.089
-0.023 -0.013 0.089
-0.019 -0.009 0.091
-0.025 -0.007 0.095
-0.023 -0.005 0.095
-0.021 -0.011 0.091
-0.011 -0.003 0.091
-0.035 -0.021 0.081
-0.007 0.027 0.037
-0.007 0.027 0.041
-0.007 0.021 0.045
-0.005 0.025 0.049
-0.025 0.005 0.049
-0.027 0.003 0.055
-0.025 0.003 0.057
-0.015 0.013 0.061
-0.007 0.021 0.061
-0.009 0.019 0.065
-0.015 0.015 0.075
-0.031 -0.003 0.087
-0.015 0.013 0.083
-0.013 0.013 0.083
-0.019 0.009 0.087
-0.013 0.007 0.093
-0.013 0.007 0.093
-0.009 0.027 0.097
-0.011 0.013 0.113
-0.031 -0.005 0.087
-0.031 -0.003 0.087
-0.023 -0.003 0.093
-0.025 0.003 0.089
-0.027 -0.005 0.091
-0.023 -0.001 0.093
-0.017 0.013 0.071
-0.005 0.025 0.051
-0.005 0.023 0.053
-0.019 0.007 0.089
-0.019 0.007 0.089
-0.021 0.003 0.091
0.027 0.017 0.059
-0.019 0.005 0.091
-0.001 0.017 0.083
-0.001 0.019 0.097
-0.001 0.031 0.041
0.003 0.035 0.039
0.007 0.031 0.049
0.019 0.045 0.039
0.011 0.039 0.053
0.015 0.043 0.051
0.017 0.037 0.059
0.011 0.037 0.053
0.015 0.041 0.055
-0.019 0.003 0.091
-0.007 0.013 0.083
-0.001 0.021 0.081
0.003 0.015 0.091
0.001 0.021 0.099
0.003 0.013 0.089
0.001 0.011 0.099
-0.001 0.009 0.097
0.007 0.011 0.103
0.003 0.013 0.101
0.003 0.023 0.109
0.005 0.025 0.111
0.017 0.021 0.105
0.011 0.023 0.111
0.003 0.021 0.109
0.007 0.023 0.111
0.023 0.025 0.105
0.005 0.023 0.115
-0.009 0.027 0.095
-0.007 0.029 0.097
-0.009 0.027 0.103
-0.007 0.027 0.101
-0.007 0.029 0.097
-0.009 0.027 0.103
-0.007 0.027 0.101
-0.007 0.029 0.097
-0.007 0.029 0.103
-0.001 0.031 0.101
-0.005 0.029 0.103
0.005 0.029 0.103
0.025 0.029 0.105
0.007 0.011 0.103
0.007 0.011 0.103
-0.007 0.015 0.113
0.001 0.027 0.101
-0.003 0.021 0.109
0.009 0.015 0.109
0.007 0.027 0.107
0.019 0.021 0.105
0.001 0.033 0.107
0.021 0.031 0.105
0.031 0.037 0.103
0.033 0.033 0.105
0.033 0.037 0.105
0.035 0.031 0.105
-0.027 -0.037 0.061
-0.025 -0.041 0.049
-0.015 -0.037 0.037
-0.015 -0.037 0.041
-0.021 -0.035 0.055
-0.005 -0.031 0.055
-0.005 -0.031 0.055
-0.025 -0.035 0.061
-0.029 -0.023 0.065
-0.003 -0.025 0.043
-0.017 -0.031 0.049
-0.007 -0.031 0.053
-0.003 -0.027 0.055
-0.009 -0.027 0.039
-0.009 -0.027 0.039
-0.003 -0.023 0.043
-0.003 -0.029 0.051
-0.003 -0.027 0.051
-0.003 -0.025 0.051
-0.015 -0.013 0.055
-0.003 -0.009 0.039
-0.003 -0.011 0.045
-0.021 -0.037 0.055
-0.003 -0.027 0.055
-0.003 -0.025 0.055
-0.015 -0.011 0.059
-0.011 -0.009 0.051
-0.039 -0.035 0.087
-0.029 -0.025 0.069
-0.037 -0.031 0.079
-0.023 -0.021 0.075
-0.021 -0.019 0.077
-0.019 -0.019 0.079
-0.023 -0.021 0.079
-0.035 -0.029 0.083
-0.033 -0.027 0.083
-0.029 -0.031 0.067
-0.029 -0.025 0.069
-0.027 -0.021 0.069
-0.029 -0.021 0.079
-0.017 -0.007 0.069
-0.007 -0.003 0.069
-0.003 -0.001 0.065
-0.007 -0.005 0.075
-0.027 -0.015 0.089
-0.017 -0.015 0.083
-0.019 -0.007 0.093
-0.015 -0.009 0.091
0.005 -0.017 0.037
0.005 -0.017 0.033
-0.011 -0.007 0.053
-0.011 -0.005 0.053
0.013 0.001 0.049
-0.009 -0.001 0.043
-0.001 0.001 0.051
0.013 0.005 0.051
0.013 0.007 0.053
0.009 0.005 0.059
-0.017 -0.001 0.061
-0.017 -0.003 0.063
0.001 -0.001 0.059
0.003 0.001 0.063
0.005 0.007 0.069
0.007 0.009 0.067
0.001 0.003 0.079
0.001 0.005 0.079
0.001 0.011 0.077
-0.009 -0.003 0.089
-0.007 0.001 0.089
-0.013 0.003 0.093
-0.005 0.007 0.085
-0.007 0.001 0.089
-0.009 0.007 0.091
0.009 0.011 0.089
0.013 0.013 0.099
0.017 0.015 0.101
0.015 0.017 0.107
0.021 -0.001 0.035
0.023 0.001 0.039
0.029 0.005 0.041
0.031 0.005 0.039
0.039 0.013 0.043
0.039 0.011 0.031
0.041 0.013 0.035
0.011 -0.001 0.047
0.015 0.005 0.047
0.025 0.003 0.039
0.025 0.005 0.035
0.023 0.005 0.045
0.025 0.003 0.041
0.019 0.005 0.045
0.003 0.001 0.053
0.009 0.005 0.059
0.005 0.003 0.063
0.019 0.009 0.051
0.025 0.013 0.055
0.015 0.017 0.055
0.021 0.019 0.063
0.043 0.011 0.039
0.041 0.007 0.041
0.037 0.021 0.045
0.037 0.021 0.045
0.037 0.023 0.047
0.035 0.021 0.053
0.033 0.021 0.059
0.033 0.021 0.059
0.035 0.025 0.061
0.035 0.019 0.047
0.039 0.029 0.049
0.037 0.035 0.047
0.037 0.031 0.053
0.029 0.019 0.061
0.033 0.027 0.063
0.035 0.035 0.061
0.005 0.003 0.067
0.007 0.007 0.065
0.017 0.017 0.071
0.025 0.019 0.071
0.029 0.027 0.073
0.019 0.019 0.079
0.029 0.019 0.083
0.025 0.025 0.075
0.011 0.015 0.081
0.007 0.011 0.089
0.011 0.011 0.091
0.009 0.011 0.093
0.017 0.015 0.093
0.029 0.021 0.087
0.019 0.015 0.085
0.029 0.019 0.085
0.027 0.019 0.089
0.017 0.015 0.089
0.027 0.021 0.093
0.027 0.021 0.093
0.041 0.025 0.081
0.041 0.027 0.087
0.047 0.029 0.087
0.039 0.025 0.097
0.027 0.027 0.073
0.031 0.031 0.069
0.025 0.031 0.075
0.023 0.021 0.103
0.027 0.021 0.099
0.033 0.029 0.089
0.035 0.023 0.099
0.041 0.027 0.101
0.039 0.029 0.101
0.049 0.033 0.087
0.047 0.031 0.089
0.045 0.041 0.085
0.049 0.033 0.085
0.003 0.009 0.097
0.003 0.009 0.101
0.009 0.011 0.101
0.013 0.013 0.097
0.013 0.015 0.107
0.013 0.015 0.107
0.007 0.021 0.109
0.011 0.023 0.109
0.011 0.023 0.111
0.025 0.019 0.099
0.037 0.023 0.099
0.027 0.029 0.105
0.043 0.029 0.101
0.041 0.027 0.101
0.015 0.029 0.105
0.027 0.027 0.105
0.033 0.031 0.103
0.029 0.031 0.105
0.043 0.029 0.103
0.041 0.029 0.103
0.041 0.041 0.103
-0.035 -0.011 0.033
-0.017 0.001 0.033
-0.029 -0.029 0.045
-0.031 -0.025 0.043
-0.027 -0.029 0.049
-0.035 -0.029 0.055
-0.029 -0.027 0.055
-0.035 -0.007 0.063
-0.035 -0.013 0.037
-0.033 -0.005 0.057
-0.033 -0.005 0.061
-0.035 -0.011 0.037
-0.033 -0.025 0.039
-0.035 0.003 0.039
-0.033 0.007 0.039
-0.033 -0.005 0.043
-0.031 0.009 0.041
-0.025 -0.027 0.047
-0.031 -0.003 0.051
-0.033 -0.005 0.047
-0.031 -0.001 0.047
-0.025 0.007 0.045
-0.015 0.003 0.039
-0.023 0.005 0.049
-0.023 0.005 0.051
-0.019 0.005 0.053
-0.017 0.005 0.049
-0.037 0.005 0.037
-0.033 0.005 0.037
-0.037 0.005 0.037
-0.035 0.005 0.037
-0.033 -0.005 0.043
-0.033 -0.005 0.047
-0.017 0.005 0.039
-0.017 0.005 0.041
-0.013 0.003 0.041
-0.017 0.005 0.041
-0.011 0.001 0.039
-0.015 0.003 0.037
-0.005 -0.007 0.035
-0.029 0.001 0.059
-0.025 0.003 0.057
-0.021 0.003 0.059
-0.025 -0.001 0.065
-0.021 -0.001 0.063
-0.031 -0.001 0.055
-0.031 -0.001 0.055
-0.027 0.003 0.055
-0.031 -0.003 0.053
-0.011 0.017 0.063
-0.011 0.017 0.065
-0.037 -0.023 0.065
-0.039 -0.025 0.073
-0.039 -0.023 0.075
-0.039 -0.021 0.073
-0.033 -0.003 0.067
-0.033 -0.003 0.067
-0.039 -0.023 0.083
-0.037 -0.023 0.083
-0.033 -0.005 0.085
-0.033 -0.007 0.087
-0.035 -0.011 0.067
-0.037 -0.011 0.073
-0.027 -0.003 0.071
-0.021 0.005 0.073
-0.021 -0.003 0.067
-0.021 -0.003 0.069
-0.025 0.001 0.075
-0.027 0.003 0.081
-0.019 0.009 0.073
-0.011 0.017 0.069
-0.023 0.007 0.079
-0.013 0.015 0.075
-0.033 -0.007 0.087
-0.023 0.003 0.091
-0.019 0.009 0.085
-0.003 0.031 0.037
-0.001 -0.003 0.035
-0.005 0.029 0.041
-0.003 0.025 0.047
-0.035 0.003 0.039
-0.035 0.005 0.037
-0.033 0.005 0.041
-0.019 0.005 0.041
-0.023 0.003 0.059
-0.015 0.003 0.053
-0.011 0.017 0.053
-0.015 0.011 0.063
-0.015 0.013 0.061
-0.013 0.015 0.057
-0.005 0.021 0.055
-0.003 0.021 0.057
-0.007 0.021 0.061
-0.021 0.009 0.079
-0.009 0.015 0.077
-0.009 0.015 0.079
-0.011 0.015 0.077
-0.001 0.019 0.079
-0.017 0.009 0.087
-0.021 0.005 0.089
-0.009 0.011 0.087
-0.005 0.013 0.085
-0.007 0.011 0.087
-0.005 0.029 0.089
-0.005 0.019 0.107
-0.005 0.029 0.037
-0.003 0.033 0.035
-0.003 0.033 0.035
0.003 0.035 0.033
0.013 0.043 0.039
-0.007 0.027 0.037
-0.007 0.027 0.037
-0.007 0.021 0.051
0.001 0.027 0.047
0.005 0.035 0.041
0.007 0.037 0.045
0.003 0.027 0.047
0.009 0.031 0.051
0.005 0.037 0.037
0.007 0.039 0.037
0.005 0.029 0.047
0.015 0.049 0.037
0.001 0.023 0.055
-0.007 0.019 0.065
-0.001 0.021 0.059
0.009 0.027 0.053
0.011 0.039 0.053
0.001 0.025 0.053
0.009 0.027 0.053
0.009 0.019 0.059
0.013 0.025 0.057
0.013 0.025 0.057
0.013 0.033 0.063
0.013 0.029 0.057
0.011 0.041 0.045
0.021 0.041 0.049
0.017 0.051 0.037
0.027 0.041 0.041
0.021 0.041 0.047
0.015 0.043 0.051
0.025 0.041 0.051
0.017 0.041 0.055
0.015 0.049 0.035
0.009 0.039 0.041
0.009 0.039 0.043
0.009 0.039 0.047
0.015 0.049 0.037
0.017 0.051 0.035
0.021 0.045 0.041
0.029 0.041 0.047
0.009 0.039 0.051
0.013 0.037 0.055
0.023 0.041 0.055
0.025 0.041 0.049
0.033 0.039 0.043
0.029 0.039 0.061
-0.001 0.017 0.071
0.001 0.017 0.073
0.005 0.029 0.079
0.005 0.027 0.073
0.005 0.029 0.073
0.007 0.031 0.081
0.015 0.033 0.077
0.017 0.033 0.075
0.021 0.035 0.073
0.003 0.029 0.083
0.001 0.031 0.085
-0.005 0.029 0.089
0.025 0.039 0.083
0.015 0.037 0.095
0.039 0.041 0.089
0.017 0.037 0.065
0.027 0.037 0.067
0.023 0.037 0.069
0.013 0.035 0.087
0.005 0.033 0.091
0.013 0.035 0.091
0.017 0.037 0.081
0.025 0.039 0.085
0.019 0.037 0.089
0.021 0.039 0.093
0.037 0.043 0.083
0.035 0.041 0.083
0.037 0.043 0.083
0.033 0.039 0.089
0.043 0.041 0.089
-0.005 0.031 0.097
0.005 0.035 0.097
0.001 0.023 0.109
0.011 0.035 0.099
0.015 0.033 0.105
0.015 0.035 0.105
0.029 0.039 0.099
0.009 0.035 0.103
0.023 0.039 0.097
0.027 0.037 0.099
0.021 0.033 0.105
0.031 0.043 0.099
