-0.033 -0.029 0.039
-0.033 -0.023 0.039
-0.031 -0.025 0.041
-0.033 -0.017 0.039
-0.027 -0.021 0.041
-0.033 -0.011 0.041
-0.033 -0.003 0.043
-0.033 -0.001 0.043
-0.033 -0.007 0.045
-0.033 -0.037 0.051
-0.031 -0.031 0.041
-0.033 -0.033 0.047
-0.033 -0.033 0.043
-0.033 -0.033 0.045
-0.033 -0.037 0.051
-0.033 -0.037 0.051
-0.037 -0.031 0.059
-0.037 -0.029 0.061
-0.037 -0.031 0.061
-0.031 -0.029 0.049
-0.035 -0.027 0.057
-0.035 -0.027 0.057
-0.029 -0.041 0.049
-0.035 -0.035 0.059
-0.037 -0.031 0.061
-0.037 -0.031 0.063
-0.037 -0.027 0.065
-0.041 -0.029 0.073
-0.035 -0.031 0.067
-0.035 -0.027 0.033
-0.033 -0.025 0.037
-0.033 -0.025 0.037
-0.035 -0.015 0.035
-0.033 -0.015 0.041
-0.035 -0.007 0.039
-0.035 -0.001 0.039
-0.037 -0.027 0.061
-0.037 -0.023 0.065
-0.039 -0.023 0.069
-0.033 -0.011 0.057
-0.035 -0.009 0.061
-0.033 -0.029 0.039
-0.033 -0.025 0.039
-0.033 -0.025 0.039
-0.031 -0.025 0.043
-0.033 -0.021 0.039
-0.031 -0.021 0.039
-0.033 -0.031 0.045
-0.029 -0.029 0.045
-0.021 -0.023 0.047
-0.025 -0.017 0.051
-0.025 -0.021 0.043
-0.023 -0.017 0.047
-0.027 -0.013 0.047
-0.031 -0.011 0.047
-0.033 -0.007 0.059
-0.019 -0.023 0.047
-0.035 -0.011 0.065
-0.035 -0.015 0.067
-0.035 -0.017 0.067
-0.035 -0.009 0.065
-0.033 -0.005 0.067
-0.033 -0.009 0.041
-0.031 -0.009 0.047
-0.031 -0.009 0.049
-0.035 -0.005 0.039
-0.033 -0.003 0.043
-0.035 -0.003 0.041
-0.033 -0.001 0.043
-0.031 0.001 0.043
-0.031 0.001 0.043
-0.031 -0.015 0.043
-0.027 -0.015 0.045
-0.033 -0.007 0.047
-0.031 -0.001 0.045
-0.031 -0.009 0.047
-0.031 -0.005 0.053
-0.031 -0.001 0.057
-0.029 0.001 0.057
-0.031 -0.001 0.057
-0.031 -0.001 0.059
-0.029 0.003 0.045
-0.029 0.001 0.053
-0.031 -0.001 0.063
-0.029 0.001 0.059
-0.027 0.003 0.055
-0.027 0.001 0.061
-0.033 -0.031 0.051
-0.027 -0.027 0.051
-0.035 -0.027 0.057
-0.033 -0.025 0.059
-0.035 -0.023 0.063
-0.037 -0.023 0.065
-0.039 -0.025 0.071
-0.035 -0.017 0.071
-0.035 -0.017 0.073
-0.035 -0.019 0.069
-0.035 -0.017 0.069
-0.037 -0.011 0.075
-0.035 -0.011 0.067
-0.035 -0.009 0.067
-0.035 -0.009 0.069
-0.035 -0.009 0.073
-0.035 -0.015 0.079
-0.035 -0.015 0.081
-0.035 -0.017 0.077
-0.031 -0.009 0.049
-0.033 -0.011 0.057
-0.035 -0.011 0.065
-0.035 -0.007 0.073
-0.031 -0.001 0.063
-0.033 -0.005 0.063
-0.033 -0.005 0.065
-0.033 -0.005 0.067
-0.033 -0.003 0.069
-0.035 -0.005 0.073
-0.019 0.001 0.061
-0.029 -0.001 0.073
-0.041 -0.029 0.073
-0.043 -0.033 0.077
-0.045 -0.035 0.081
-0.043 -0.035 0.087
-0.039 -0.031 0.087
-0.035 -0.031 0.067
-0.035 -0.017 0.071
-0.043 -0.031 0.075
-0.043 -0.029 0.077
-0.041 -0.023 0.079
-0.041 -0.025 0.079
-0.041 -0.023 0.079
-0.043 -0.029 0.081
-0.039 -0.021 0.073
-0.039 -0.021 0.075
-0.035 -0.015 0.067
-0.035 -0.013 0.067
-0.033 -0.005 0.067
-0.035 -0.005 0.071
-0.035 -0.013 0.079
-0.033 -0.005 0.075
-0.035 -0.007 0.079
-0.041 -0.025 0.081
-0.039 -0.025 0.085
-0.035 -0.025 0.087
-0.039 -0.023 0.083
-0.037 -0.021 0.081
-0.035 -0.021 0.081
-0.033 -0.011 0.085
-0.039 -0.023 0.073
-0.035 -0.011 0.077
-0.035 -0.013 0.081
-0.033 -0.019 0.083
-0.033 -0.015 0.085
-0.035 -0.011 0.081
-0.035 -0.009 0.081
-0.035 -0.009 0.083
-0.027 -0.001 0.067
-0.033 -0.003 0.077
-0.031 -0.001 0.085
-0.027 0.003 0.081
-0.027 0.003 0.083
-0.025 0.005 0.081
-0.027 0.001 0.087
-0.027 -0.001 0.089
-0.025 0.003 0.089
-0.031 -0.015 0.089
-0.031 -0.015 0.089
-0.033 -0.005 0.085
-0.031 -0.003 0.083
-0.029 -0.001 0.087
-0.031 -0.011 0.089
-0.025 -0.007 0.095
-0.027 -0.007 0.093
-0.023 -0.003 0.093
-0.023 -0.001 0.093
-0.025 -0.001 0.091
-0.021 -0.001 0.095
-0.021 -0.001 0.093
-0.023 -0.003 0.095
-0.031 -0.003 0.059
-0.033 -0.003 0.063
-0.015 0.003 0.055
-0.013 0.007 0.057
-0.013 0.005 0.061
-0.015 0.007 0.061
-0.007 0.027 0.037
-0.035 0.003 0.037
-0.035 0.003 0.039
-0.035 0.005 0.037
-0.035 0.003 0.039
-0.033 0.007 0.041
-0.031 0.007 0.041
-0.029 0.005 0.045
-0.029 0.001 0.045
-0.029 0.007 0.045
-0.007 0.011 0.043
-0.005 0.015 0.041
-0.019 0.005 0.045
-0.023 0.005 0.051
-0.009 0.009 0.047
-0.009 0.005 0.051
-0.011 0.009 0.051
-0.009 0.007 0.049
-0.007 0.025 0.039
-0.001 0.031 0.039
-0.007 0.021 0.041
-0.007 0.021 0.043
-0.009 0.017 0.047
-0.009 0.017 0.049
-0.007 0.021 0.047
-0.005 0.027 0.043
-0.027 0.003 0.051
-0.025 0.003 0.057
-0.025 0.003 0.057
-0.027 0.001 0.061
-0.021 0.001 0.061
-0.023 0.005 0.053
-0.019 0.003 0.057
-0.015 0.007 0.061
-0.011 0.011 0.053
-0.013 0.009 0.057
-0.015 0.007 0.061
-0.005 0.023 0.053
-0.005 0.025 0.053
-0.009 0.019 0.059
-0.021 0.005 0.073
-0.025 0.005 0.079
-0.019 0.011 0.077
-0.017 0.007 0.069
-0.015 0.015 0.067
-0.015 0.015 0.071
-0.015 0.015 0.075
-0.013 0.017 0.065
-0.013 0.017 0.069
-0.007 0.019 0.067
-0.011 0.017 0.073
-0.009 0.017 0.073
-0.029 0.001 0.085
-0.025 0.005 0.083
-0.023 0.003 0.091
-0.021 0.003 0.091
-0.019 0.005 0.091
-0.017 0.005 0.091
-0.017 0.003 0.093
-0.015 0.003 0.093
-0.015 0.009 0.087
-0.017 0.003 0.093
-0.013 0.007 0.093
-0.007 0.027 0.089
-0.007 0.029 0.089
-0.009 0.027 0.095
-0.007 0.025 0.095
-0.011 0.017 0.113
-0.001 0.019 0.097
-0.007 0.029 0.103
-0.007 0.029 0.101
-0.003 0.031 0.101
-0.007 0.019 0.109
-0.007 0.019 0.111
-0.005 0.021 0.109
-0.009 0.017 0.111
-0.007 0.019 0.111
-0.005 0.021 0.109
-0.009 0.015 0.049
-0.005 0.015 0.039
-0.011 0.009 0.051
-0.011 0.015 0.051
-0.007 0.021 0.049
-0.007 0.021 0.057
-0.005 0.029 0.039
-0.005 0.029 0.041
0.001 0.033 0.039
-0.001 0.025 0.051
0.003 0.033 0.041
0.005 0.029 0.045
-0.005 0.021 0.059
-0.007 0.021 0.061
-0.003 0.021 0.057
-0.009 0.009 0.047
-0.011 0.015 0.053
-0.011 0.017 0.057
-0.013 0.015 0.063
-0.007 0.021 0.053
-0.003 0.023 0.055
-0.007 0.021 0.061
-0.015 0.015 0.069
-0.007 0.023 0.039
0.003 0.031 0.043
-0.005 0.025 0.051
0.005 0.029 0.045
0.001 0.027 0.049
-0.005 0.025 0.053
0.001 0.025 0.053
0.003 0.027 0.049
0.007 0.035 0.049
-0.017 0.013 0.069
-0.017 0.011 0.069
-0.015 0.015 0.071
-0.009 0.017 0.071
-0.019 0.011 0.075
-0.017 0.013 0.079
-0.011 0.017 0.073
-0.011 0.017 0.073
-0.013 0.017 0.071
0.005 0.017 0.065
0.003 0.021 0.073
0.001 0.019 0.063
-0.003 0.019 0.065
-0.001 0.019 0.065
0.007 0.023 0.067
0.009 0.029 0.065
0.007 0.019 0.061
0.013 0.019 0.057
0.005 0.023 0.071
0.007 0.023 0.069
0.005 0.025 0.071
0.005 0.021 0.069
0.003 0.025 0.073
-0.009 0.019 0.065
-0.005 0.021 0.063
0.007 0.023 0.055
0.011 0.023 0.055
0.005 0.023 0.055
-0.011 0.017 0.069
0.011 0.021 0.057
0.001 0.019 0.065
0.001 0.025 0.053
0.009 0.031 0.051
0.007 0.035 0.049
0.009 0.035 0.051
0.011 0.023 0.057
0.013 0.033 0.063
0.015 0.035 0.059
0.011 0.033 0.071
0.015 0.035 0.067
0.011 0.033 0.075
0.005 0.035 0.041
0.007 0.039 0.037
0.009 0.039 0.041
0.005 0.035 0.043
0.005 0.035 0.045
0.007 0.037 0.043
0.005 0.035 0.043
0.009 0.039 0.051
0.011 0.041 0.049
0.015 0.043 0.041
0.015 0.045 0.039
0.015 0.041 0.043
0.015 0.045 0.039
0.017 0.047 0.039
0.025 0.043 0.039
0.011 0.041 0.047
0.011 0.041 0.047
0.011 0.041 0.049
0.011 0.041 0.051
0.019 0.043 0.051
0.017 0.049 0.039
0.019 0.049 0.039
0.009 0.035 0.051
0.011 0.041 0.051
0.013 0.041 0.053
0.019 0.041 0.055
0.017 0.037 0.061
0.019 0.039 0.059
0.027 0.039 0.065
0.025 0.041 0.059
0.013 0.041 0.053
0.015 0.043 0.051
0.021 0.037 0.065
0.021 0.039 0.063
-0.021 0.009 0.079
-0.007 0.017 0.073
-0.013 0.013 0.083
-0.007 0.017 0.075
-0.019 0.009 0.087
-0.017 0.011 0.085
-0.011 0.013 0.083
0.007 0.023 0.067
-0.003 0.017 0.073
0.003 0.021 0.071
0.005 0.023 0.071
-0.001 0.021 0.081
0.009 0.031 0.071
0.009 0.031 0.071
0.001 0.019 0.075
0.001 0.021 0.075
-0.001 0.019 0.079
-0.001 0.017 0.081
-0.001 0.019 0.083
-0.001 0.019 0.083
-0.001 0.019 0.085
-0.001 0.021 0.085
-0.001 0.021 0.089
0.001 0.025 0.079
0.001 0.023 0.079
-0.001 0.021 0.081
-0.007 0.029 0.087
-0.007 0.027 0.089
-0.003 0.029 0.087
-0.001 0.031 0.087
-0.001 0.031 0.087
-0.007 0.029 0.093
-0.003 0.029 0.091
-0.001 0.023 0.089
0.013 0.031 0.079
-0.003 0.031 0.089
0.009 0.033 0.083
0.005 0.033 0.087
0.003 0.015 0.085
0.001 0.013 0.095
-0.001 0.009 0.097
0.003 0.013 0.097
0.001 0.019 0.099
-0.003 0.021 0.107
-0.001 0.017 0.089
-0.001 0.023 0.087
-0.007 0.029 0.087
-0.003 0.031 0.091
-0.001 0.031 0.091
0.001 0.033 0.093
0.001 0.033 0.099
-0.009 0.027 0.097
-0.005 0.029 0.099
-0.001 0.033 0.097
0.005 0.035 0.099
0.001 0.029 0.103
0.003 0.033 0.103
0.003 0.033 0.105
0.003 0.033 0.105
0.015 0.033 0.077
-0.003 0.029 0.103
0.005 0.035 0.099
0.015 0.037 0.101
0.009 0.035 0.103
0.013 0.031 0.105
0.015 0.037 0.101
0.017 0.037 0.103
0.019 0.037 0.069
0.023 0.037 0.069
0.019 0.033 0.075
0.017 0.035 0.073
0.015 0.033 0.077
0.001 0.033 0.093
0.001 0.033 0.093
-0.001 0.033 0.097
0.009 0.035 0.093
0.011 0.037 0.095
0.013 0.035 0.085
0.017 0.037 0.087
0.017 0.037 0.091
0.025 0.039 0.085
0.013 0.037 0.093
0.017 0.037 0.097
0.013 0.035 0.103
0.023 0.039 0.097
0.027 0.041 0.097
0.027 0.041 0.097
0.019 0.039 0.095
0.017 0.037 0.095
0.019 0.039 0.101
0.037 0.043 0.085
0.029 0.041 0.099
0.021 0.039 0.101
0.029 0.039 0.099
0.029 0.043 0.095
0.031 0.041 0.099
0.035 0.043 0.101
0.001 0.011 0.099
0.003 0.013 0.099
0.001 0.011 0.103
-0.005 0.021 0.109
-0.007 0.019 0.111
0.009 0.015 0.109
0.009 0.015 0.109
-0.005 0.021 0.109
0.011 0.015 0.109
-0.005 0.021 0.109
-0.003 0.029 0.103
-0.001 0.019 0.111
-0.003 0.021 0.107
0.003 0.019 0.109
0.003 0.023 0.109
0.005 0.025 0.111
0.001 0.033 0.109
0.003 0.033 0.109
0.005 0.025 0.111
0.007 0.027 0.109
0.009 0.027 0.111
0.017 0.029 0.105
0.019 0.027 0.105
0.019 0.029 0.105
0.021 0.031 0.105
0.023 0.029 0.105
0.009 0.027 0.111
0.023 0.023 0.105
0.011 0.027 0.107
0.021 0.033 0.105
0.025 0.029 0.105
0.007 0.035 0.101
0.009 0.033 0.105
0.015 0.037 0.101
0.017 0.037 0.101
0.023 0.039 0.103
0.019 0.037 0.103
0.025 0.033 0.105
0.025 0.033 0.105
0.027 0.041 0.097
0.031 0.035 0.103
0.023 0.039 0.103
0.037 0.043 0.103
0.033 0.033 0.105
0.033 0.037 0.105
0.037 0.033 0.107
