-0.015 -0.035 0.047
-0.027 -0.025 0.059
-0.019 -0.019 0.077
-0.013 -0.019 0.073
-0.017 -0.037 0.049
-0.017 -0.039 0.045
-0.023 -0.041 0.051
-0.023 -0.035 0.059
-0.013 -0.035 0.043
-0.021 -0.039 0.053
-0.023 -0.039 0.053
-0.023 -0.037 0.057
-0.021 -0.035 0.055
-0.023 -0.037 0.057
-0.029 -0.025 0.061
-0.025 -0.021 0.065
-0.019 -0.011 0.091
-0.021 -0.013 0.089
-0.021 -0.033 0.055
-0.025 -0.029 0.061
-0.019 -0.025 0.047
-0.009 -0.031 0.057
-0.005 -0.029 0.059
-0.007 -0.025 0.063
-0.005 -0.023 0.061
-0.007 -0.025 0.063
-0.009 -0.021 0.067
-0.007 -0.021 0.061
-0.005 -0.017 0.049
-0.019 -0.019 0.079
-0.015 -0.015 0.081
-0.011 -0.019 0.071
-0.011 -0.019 0.071
-0.017 -0.013 0.089
-0.015 -0.013 0.087
-0.021 -0.019 0.083
-0.007 -0.005 0.045
-0.027 -0.031 0.065
-0.029 -0.027 0.065
-0.007 -0.031 0.057
-0.005 -0.025 0.059
-0.005 -0.023 0.055
-0.005 -0.019 0.051
-0.005 -0.021 0.057
-0.007 -0.019 0.053
-0.019 -0.019 0.077
-0.017 -0.017 0.081
-0.019 -0.009 0.091
-0.021 -0.009 0.091
-0.021 -0.011 0.091
-0.021 -0.007 0.093
-0.009 -0.011 0.049
-0.011 -0.009 0.053
-0.041 -0.033 0.087
-0.031 -0.023 0.073
-0.035 -0.021 0.081
-0.035 -0.023 0.085
-0.029 -0.013 0.091
-0.025 -0.007 0.095
-0.029 -0.013 0.091
-0.027 -0.005 0.091
-0.039 -0.027 0.087
-0.033 -0.025 0.087
-0.035 -0.031 0.087
-0.033 -0.027 0.087
-0.035 -0.025 0.087
-0.035 -0.021 0.081
-0.031 -0.017 0.089
-0.033 -0.009 0.087
-0.029 -0.025 0.069
-0.031 -0.023 0.067
-0.027 -0.021 0.079
-0.017 -0.017 0.081
-0.017 -0.017 0.081
-0.011 -0.021 0.071
-0.015 -0.015 0.081
-0.019 -0.007 0.093
-0.015 -0.005 0.091
-0.013 -0.003 0.091
-0.003 -0.003 0.077
-0.013 -0.011 0.087
-0.001 -0.001 0.077
-0.017 -0.017 0.081
-0.031 -0.009 0.089
-0.023 -0.011 0.091
-0.023 -0.007 0.095
-0.021 -0.003 0.095
-0.023 -0.005 0.095
-0.019 -0.001 0.095
-0.019 -0.003 0.095
-0.015 -0.003 0.091
-0.015 -0.001 0.093
0.003 -0.017 0.037
0.003 -0.007 0.039
-0.017 -0.003 0.093
-0.017 -0.003 0.093
-0.013 -0.005 0.091
-0.005 -0.003 0.083
0.003 0.001 0.065
0.005 0.007 0.071
-0.005 -0.001 0.085
-0.005 -0.005 0.077
-0.001 0.009 0.081
0.009 0.011 0.101
0.005 0.011 0.101
0.005 0.009 0.101
-0.009 -0.001 0.089
-0.013 -0.003 0.091
-0.003 -0.001 0.081
-0.007 -0.001 0.089
-0.007 -0.003 0.085
-0.007 0.003 0.089
-0.021 0.003 0.091
-0.017 0.009 0.087
-0.009 -0.003 0.089
-0.009 0.005 0.091
-0.011 0.011 0.085
0.005 0.009 0.101
-0.015 0.011 0.085
-0.019 0.003 0.091
-0.017 0.001 0.095
-0.013 0.011 0.087
0.001 0.021 0.109
0.005 0.023 0.115
-0.001 0.021 0.109
-0.007 0.015 0.113
-0.003 0.029 0.103
-0.003 0.017 0.111
-0.001 0.019 0.111
-0.013 0.015 0.113
0.009 0.007 0.059
0.015 0.007 0.051
0.023 0.013 0.053
0.025 0.013 0.055
0.025 0.019 0.091
0.029 0.019 0.061
0.015 0.007 0.051
0.033 0.005 0.043
0.023 0.007 0.049
0.021 0.011 0.053
0.029 0.009 0.047
0.017 0.005 0.045
0.013 0.015 0.055
0.013 0.013 0.097
0.021 0.017 0.091
0.021 0.017 0.099
0.013 0.013 0.107
0.015 0.015 0.107
0.017 0.017 0.105
0.025 0.019 0.069
0.009 0.001 0.051
0.003 0.001 0.061
0.011 0.001 0.049
0.011 0.003 0.053
0.007 0.013 0.063
0.005 0.013 0.065
0.009 0.011 0.061
0.021 0.007 0.049
0.019 0.015 0.055
0.023 0.013 0.053
0.021 0.015 0.055
0.029 0.013 0.055
0.009 0.011 0.101
0.009 0.011 0.101
0.015 0.017 0.073
0.017 0.015 0.097
0.023 0.019 0.065
0.021 0.017 0.073
0.027 0.017 0.059
0.037 0.017 0.043
0.033 0.019 0.055
0.033 0.019 0.055
0.019 0.021 0.105
0.019 0.023 0.105
0.027 0.019 0.097
0.029 0.021 0.097
0.035 0.023 0.083
0.035 0.023 0.083
0.035 0.025 0.099
0.027 0.025 0.105
0.027 0.025 0.105
0.025 0.027 0.105
0.027 0.033 0.105
0.037 0.029 0.101
0.039 0.027 0.101
0.037 0.025 0.101
0.005 0.003 0.067
0.001 0.001 0.071
0.003 0.001 0.069
0.003 0.003 0.073
0.001 0.003 0.075
0.007 0.011 0.099
0.017 0.015 0.099
0.013 0.019 0.105
0.009 0.021 0.105
0.013 0.021 0.105
0.011 0.021 0.105
0.015 0.025 0.105
0.023 0.023 0.105
0.021 0.025 0.105
0.021 0.023 0.105
0.029 0.021 0.097
0.029 0.023 0.103
0.009 0.011 0.095
0.019 0.015 0.087
0.005 0.017 0.099
0.005 0.021 0.109
0.021 0.017 0.099
0.021 0.021 0.105
0.027 0.027 0.105
0.023 0.021 0.103
0.021 0.021 0.105
0.029 0.029 0.103
0.035 0.027 0.101
0.039 0.027 0.089
0.041 0.025 0.085
0.047 0.031 0.089
0.035 0.027 0.101
0.039 0.027 0.101
0.049 0.031 0.087
0.019 0.025 0.105
0.023 0.027 0.105
0.005 0.029 0.103
0.007 0.027 0.111
0.017 0.031 0.105
0.025 0.029 0.105
0.031 0.033 0.103
0.033 0.033 0.105
0.035 0.035 0.107
0.043 0.031 0.105
0.003 0.009 0.103
0.011 0.015 0.109
0.003 0.023 0.109
0.007 0.023 0.115
0.009 0.025 0.113
0.011 0.017 0.107
0.009 0.021 0.109
0.011 0.029 0.105
0.025 0.023 0.105
0.021 0.027 0.105
0.033 0.023 0.099
0.011 0.033 0.103
0.011 0.035 0.103
0.029 0.033 0.103
0.021 0.033 0.105
0.035 0.033 0.105
0.043 0.033 0.105
0.039 0.041 0.105
0.039 0.043 0.103
-0.035 -0.015 0.035
-0.035 -0.009 0.035
-0.035 0.001 0.039
-0.037 0.005 0.037
-0.033 -0.033 0.047
-0.037 -0.029 0.065
-0.031 -0.027 0.041
-0.031 -0.025 0.041
-0.033 -0.033 0.045
-0.031 -0.029 0.049
-0.025 -0.027 0.049
-0.025 -0.027 0.047
-0.033 -0.035 0.051
-0.035 -0.031 0.053
-0.035 -0.029 0.055
-0.033 -0.029 0.053
-0.025 -0.027 0.051
-0.037 -0.027 0.063
-0.035 -0.013 0.035
-0.035 -0.011 0.033
-0.035 0.001 0.039
-0.035 -0.027 0.059
-0.037 -0.025 0.063
-0.029 -0.029 0.047
-0.027 -0.029 0.047
-0.023 -0.025 0.049
-0.023 -0.025 0.049
-0.021 -0.025 0.047
-0.023 -0.021 0.045
-0.023 -0.019 0.047
-0.031 -0.009 0.049
-0.023 -0.021 0.045
-0.023 -0.023 0.047
-0.029 -0.009 0.051
-0.033 -0.005 0.049
-0.031 -0.007 0.051
-0.035 0.001 0.039
-0.031 0.009 0.041
-0.029 0.007 0.045
-0.029 0.007 0.045
-0.031 0.009 0.039
-0.027 0.007 0.045
-0.027 0.003 0.047
-0.025 0.005 0.047
-0.023 0.005 0.051
-0.021 0.005 0.045
-0.023 0.005 0.051
-0.023 0.005 0.051
-0.025 0.005 0.049
-0.027 -0.027 0.053
-0.035 -0.009 0.061
-0.033 -0.005 0.057
-0.033 -0.009 0.059
-0.031 -0.001 0.055
-0.035 -0.007 0.063
-0.033 -0.003 0.069
-0.033 -0.003 0.067
-0.031 -0.007 0.053
-0.031 -0.009 0.049
-0.031 -0.007 0.055
-0.031 -0.001 0.063
-0.027 0.001 0.059
-0.029 0.001 0.057
-0.027 0.003 0.053
-0.027 0.001 0.061
-0.025 0.001 0.061
-0.015 0.009 0.063
-0.045 -0.035 0.081
-0.043 -0.029 0.077
-0.041 -0.023 0.077
-0.035 -0.019 0.079
-0.035 -0.007 0.065
-0.043 -0.031 0.083
-0.039 -0.025 0.083
-0.037 -0.023 0.083
-0.039 -0.027 0.087
-0.039 -0.025 0.085
-0.037 -0.029 0.089
-0.035 -0.013 0.083
-0.033 -0.007 0.083
-0.033 -0.003 0.081
-0.037 -0.021 0.071
-0.035 -0.021 0.065
-0.035 -0.015 0.067
-0.035 -0.005 0.073
-0.033 -0.005 0.075
-0.033 -0.003 0.077
-0.025 -0.001 0.065
-0.033 -0.011 0.087
-0.029 -0.003 0.089
-0.033 -0.003 0.081
-0.031 -0.007 0.089
-0.029 -0.007 0.091
-0.021 -0.001 0.093
-0.029 -0.003 0.089
-0.025 0.005 0.085
-0.007 0.015 0.043
-0.009 0.009 0.047
-0.005 0.015 0.039
-0.017 0.011 0.067
-0.031 0.007 0.037
-0.029 0.009 0.037
-0.033 0.003 0.041
-0.029 0.007 0.043
-0.025 0.009 0.043
-0.025 0.005 0.047
-0.023 0.009 0.043
-0.019 0.005 0.049
-0.005 0.007 0.043
-0.009 0.007 0.049
-0.007 0.021 0.041
-0.005 0.029 0.037
-0.009 0.017 0.047
-0.021 0.005 0.053
-0.013 0.009 0.059
-0.013 0.011 0.057
-0.015 0.013 0.061
-0.027 0.001 0.079
-0.021 0.001 0.073
-0.021 0.005 0.073
-0.025 0.003 0.077
-0.017 0.009 0.067
-0.005 0.019 0.069
-0.025 0.005 0.085
-0.019 0.011 0.081
-0.001 0.009 0.095
-0.009 0.027 0.095
-0.003 0.031 0.101
-0.005 0.021 0.109
-0.001 0.019 0.035
-0.007 0.023 0.039
-0.007 0.027 0.035
0.003 0.031 0.041
-0.005 0.015 0.039
-0.003 0.017 0.037
-0.007 0.019 0.049
-0.005 0.027 0.043
-0.007 0.021 0.053
-0.005 0.023 0.049
0.005 0.025 0.053
0.003 0.033 0.041
-0.013 0.013 0.057
-0.013 0.015 0.057
-0.005 0.021 0.057
-0.003 0.019 0.065
-0.009 0.019 0.065
-0.003 0.023 0.055
0.011 0.023 0.055
0.003 0.027 0.049
0.005 0.029 0.049
0.009 0.027 0.053
-0.005 0.019 0.065
0.011 0.025 0.061
0.011 0.029 0.063
0.013 0.027 0.059
0.011 0.027 0.061
0.011 0.031 0.065
0.001 0.027 0.047
0.005 0.035 0.045
0.005 0.035 0.041
0.009 0.035 0.051
0.011 0.031 0.053
0.013 0.041 0.053
0.015 0.033 0.057
0.021 0.039 0.061
0.005 0.037 0.035
0.005 0.037 0.035
0.009 0.039 0.039
0.015 0.043 0.037
0.015 0.045 0.039
0.015 0.049 0.037
0.017 0.051 0.037
0.013 0.041 0.045
0.025 0.039 0.041
0.015 0.043 0.041
0.023 0.041 0.045
0.017 0.051 0.037
0.011 0.041 0.051
0.013 0.037 0.055
0.013 0.041 0.053
0.025 0.041 0.055
0.017 0.043 0.051
0.023 0.039 0.061
0.021 0.039 0.059
0.023 0.039 0.061
0.027 0.041 0.059
0.027 0.039 0.065
-0.007 0.017 0.073
-0.005 0.017 0.075
-0.005 0.017 0.075
-0.001 0.015 0.077
0.001 0.021 0.079
0.009 0.031 0.079
0.009 0.031 0.073
0.003 0.025 0.077
0.005 0.029 0.081
-0.001 0.021 0.087
-0.001 0.017 0.087
-0.001 0.019 0.095
-0.001 0.021 0.081
0.001 0.025 0.083
0.007 0.031 0.083
-0.001 0.031 0.095
-0.001 0.031 0.085
-0.001 0.031 0.085
-0.003 0.031 0.089
0.003 0.033 0.087
0.003 0.033 0.087
0.001 0.033 0.089
0.009 0.033 0.087
0.013 0.035 0.085
0.003 0.033 0.091
0.005 0.035 0.097
0.011 0.035 0.089
0.007 0.035 0.097
0.011 0.035 0.093
0.011 0.035 0.097
0.017 0.037 0.085
0.023 0.041 0.093
0.023 0.037 0.069
0.011 0.035 0.083
0.007 0.033 0.085
0.009 0.033 0.087
0.001 0.033 0.093
0.023 0.039 0.083
0.019 0.037 0.087
0.025 0.039 0.085
0.031 0.041 0.083
0.017 0.037 0.091
0.015 0.037 0.093
0.021 0.039 0.095
0.033 0.039 0.087
0.037 0.043 0.083
0.039 0.043 0.083
0.005 0.015 0.099
0.003 0.013 0.101
-0.009 0.027 0.103
-0.007 0.029 0.103
0.005 0.027 0.103
0.003 0.033 0.103
-0.003 0.021 0.107
-0.003 0.021 0.109
0.007 0.027 0.109
0.007 0.027 0.111
0.007 0.035 0.101
0.011 0.035 0.101
0.003 0.035 0.107
0.003 0.035 0.107
0.015 0.033 0.105
0.019 0.037 0.103
0.001 0.033 0.101
0.007 0.035 0.097
0.003 0.035 0.107
0.003 0.035 0.105
0.005 0.035 0.105
0.023 0.039 0.097
0.019 0.039 0.101
0.023 0.039 0.103
0.023 0.039 0.103
0.029 0.039 0.099
0.023 0.039 0.103
0.033 0.041 0.101
0.033 0.037 0.105
