-0.005 -0.029 0.045
-0.031 -0.037 0.061
-0.021 -0.037 0.035
-0.025 -0.041 0.045
-0.021 -0.041 0.043
-0.021 -0.041 0.043
-0.013 -0.035 0.037
-0.013 -0.033 0.039
-0.021 -0.035 0.053
-0.023 -0.035 0.059
-0.029 -0.035 0.063
-0.025 -0.035 0.061
-0.023 -0.041 0.047
-0.019 -0.037 0.051
-0.019 -0.031 0.051
-0.023 -0.017 0.051
-0.025 -0.017 0.055
-0.029 -0.037 0.059
-0.027 -0.037 0.061
-0.029 -0.031 0.067
-0.029 -0.031 0.067
-0.027 -0.019 0.061
-0.027 -0.021 0.069
-0.023 -0.041 0.041
-0.023 -0.041 0.043
-0.011 -0.031 0.041
-0.011 -0.031 0.041
-0.009 -0.027 0.039
-0.019 -0.037 0.051
-0.019 -0.023 0.047
-0.011 -0.029 0.035
-0.005 -0.025 0.035
-0.011 -0.029 0.039
-0.011 -0.027 0.041
-0.007 -0.029 0.045
-0.005 -0.025 0.039
-0.003 -0.023 0.035
-0.001 -0.021 0.035
-0.001 -0.019 0.037
-0.011 -0.029 0.041
-0.007 -0.027 0.043
-0.005 -0.029 0.045
-0.007 -0.029 0.045
-0.007 -0.031 0.051
-0.005 -0.031 0.053
-0.005 -0.031 0.055
-0.005 -0.031 0.051
-0.003 -0.027 0.043
-0.003 -0.023 0.043
-0.011 -0.029 0.043
-0.007 -0.031 0.055
-0.021 -0.023 0.047
-0.021 -0.021 0.047
-0.023 -0.017 0.051
-0.003 -0.027 0.045
-0.003 -0.025 0.047
-0.003 -0.017 0.045
-0.003 -0.017 0.045
-0.001 -0.013 0.037
0.001 -0.011 0.039
-0.005 -0.011 0.047
-0.003 -0.011 0.045
-0.005 -0.015 0.051
-0.003 -0.013 0.045
-0.003 -0.011 0.045
-0.021 -0.037 0.055
-0.023 -0.035 0.059
-0.025 -0.033 0.061
-0.025 -0.031 0.061
-0.027 -0.029 0.065
-0.029 -0.023 0.063
-0.019 -0.017 0.057
-0.019 -0.017 0.059
-0.003 -0.029 0.049
-0.003 -0.027 0.049
-0.003 -0.029 0.053
-0.003 -0.029 0.055
-0.003 -0.025 0.055
-0.007 -0.029 0.061
-0.005 -0.023 0.061
-0.025 -0.017 0.055
-0.021 -0.017 0.057
-0.021 -0.019 0.061
-0.025 -0.019 0.061
-0.019 -0.019 0.065
-0.019 -0.019 0.069
-0.015 -0.005 0.061
-0.005 -0.015 0.051
-0.005 -0.011 0.049
-0.007 -0.009 0.049
-0.011 -0.005 0.055
-0.007 -0.025 0.063
-0.009 -0.021 0.067
-0.015 -0.005 0.061
-0.001 -0.001 0.057
-0.033 -0.033 0.065
-0.039 -0.035 0.083
-0.039 -0.035 0.083
-0.039 -0.037 0.087
-0.039 -0.035 0.087
-0.035 -0.033 0.065
-0.033 -0.031 0.069
-0.033 -0.029 0.071
-0.035 -0.029 0.071
-0.029 -0.029 0.069
-0.029 -0.029 0.069
-0.031 -0.023 0.073
-0.041 -0.033 0.077
-0.039 -0.033 0.079
-0.035 -0.027 0.073
-0.035 -0.027 0.075
-0.035 -0.027 0.077
-0.033 -0.025 0.077
-0.035 -0.029 0.079
-0.033 -0.027 0.083
-0.033 -0.021 0.077
-0.029 -0.021 0.071
-0.029 -0.021 0.075
-0.029 -0.021 0.079
-0.035 -0.031 0.083
-0.035 -0.029 0.085
-0.035 -0.029 0.087
-0.023 -0.017 0.087
-0.027 -0.029 0.065
-0.023 -0.021 0.065
-0.031 -0.023 0.073
-0.021 -0.019 0.077
-0.017 -0.017 0.079
-0.011 -0.023 0.067
-0.009 -0.025 0.065
-0.009 -0.025 0.065
-0.011 -0.021 0.069
-0.019 -0.019 0.073
-0.017 -0.015 0.073
-0.017 -0.013 0.073
-0.011 -0.001 0.067
-0.001 -0.001 0.065
-0.013 -0.005 0.073
-0.011 -0.009 0.079
-0.003 -0.003 0.077
-0.029 -0.017 0.085
-0.027 -0.017 0.087
-0.021 -0.015 0.089
-0.023 -0.015 0.089
-0.023 -0.009 0.093
-0.019 -0.013 0.089
-0.023 -0.011 0.091
-0.021 -0.007 0.093
-0.021 -0.005 0.095
-0.017 -0.003 0.093
-0.019 -0.003 0.095
-0.017 -0.001 0.095
-0.011 -0.009 0.087
-0.009 -0.005 0.087
-0.005 -0.003 0.081
-0.015 -0.009 0.091
-0.013 -0.007 0.091
0.013 -0.003 0.033
0.019 -0.003 0.031
0.007 -0.015 0.033
0.005 -0.017 0.035
0.007 -0.015 0.035
0.005 -0.015 0.037
0.011 -0.005 0.039
0.011 -0.005 0.039
0.015 -0.003 0.039
0.009 -0.003 0.041
0.017 -0.005 0.033
0.019 -0.003 0.035
0.001 -0.001 0.071
-0.011 -0.031 0.055
-0.023 -0.017 0.051
-0.007 -0.031 0.057
-0.007 -0.031 0.057
-0.009 -0.029 0.061
-0.007 -0.027 0.061
-0.009 -0.029 0.061
-0.009 -0.027 0.063
-0.005 -0.027 0.061
-0.003 -0.017 0.047
0.003 0.003 0.041
-0.009 -0.007 0.049
-0.001 0.001 0.047
0.001 0.001 0.047
0.007 0.001 0.049
0.007 0.001 0.053
0.003 0.001 0.055
0.005 0.001 0.059
0.009 0.003 0.055
-0.009 -0.025 0.065
-0.013 -0.009 0.057
-0.009 -0.019 0.065
-0.015 -0.005 0.061
-0.013 -0.003 0.057
-0.005 0.001 0.055
-0.003 -0.001 0.059
-0.009 -0.001 0.065
-0.003 -0.001 0.069
0.003 0.001 0.059
0.003 0.001 0.065
0.007 0.003 0.059
0.005 0.003 0.063
-0.003 -0.003 0.071
0.005 0.003 0.067
0.003 0.003 0.069
-0.009 -0.007 0.077
-0.017 -0.015 0.087
-0.007 -0.003 0.069
-0.007 -0.003 0.071
-0.005 -0.003 0.083
-0.001 0.001 0.081
-0.003 0.003 0.083
0.005 0.005 0.069
0.005 0.007 0.071
0.001 0.003 0.075
0.003 0.005 0.075
-0.017 -0.013 0.089
-0.015 -0.005 0.091
-0.013 -0.005 0.091
-0.011 -0.007 0.089
-0.019 -0.005 0.093
-0.003 0.005 0.083
-0.005 0.003 0.085
-0.007 -0.001 0.089
-0.003 0.009 0.083
-0.005 0.009 0.087
-0.005 0.009 0.087
0.009 0.011 0.093
0.009 0.011 0.095
0.009 0.011 0.099
0.003 0.009 0.103
0.005 0.009 0.101
0.001 0.017 0.109
-0.007 0.015 0.113
-0.007 0.015 0.113
0.017 -0.005 0.035
0.015 -0.003 0.039
0.011 -0.003 0.041
0.013 -0.003 0.041
0.019 -0.001 0.037
0.025 0.003 0.037
0.033 0.003 0.035
0.035 0.005 0.035
0.013 -0.003 0.043
0.023 0.003 0.041
0.023 0.005 0.045
0.033 0.005 0.039
0.041 0.009 0.035
0.041 0.013 0.033
0.011 -0.005 0.039
0.003 0.003 0.039
0.011 -0.003 0.041
0.017 -0.001 0.039
0.019 0.001 0.039
0.003 0.001 0.047
0.015 0.003 0.043
0.023 0.001 0.035
0.025 0.003 0.037
0.021 0.001 0.039
0.023 0.001 0.039
0.031 0.003 0.037
0.025 0.003 0.037
0.023 0.001 0.039
0.025 0.003 0.039
0.029 0.005 0.043
0.019 0.005 0.047
0.023 0.005 0.047
0.029 0.005 0.043
0.025 0.007 0.047
0.031 0.005 0.045
0.013 0.001 0.047
0.019 0.005 0.045
0.025 0.005 0.043
0.023 0.005 0.047
0.027 0.007 0.045
0.011 0.005 0.053
0.013 0.007 0.055
0.011 0.007 0.055
0.035 0.007 0.039
0.037 0.007 0.043
0.029 0.005 0.045
0.027 0.007 0.045
0.029 0.007 0.045
0.039 0.009 0.045
0.013 0.013 0.055
0.005 0.001 0.059
0.007 0.003 0.057
0.005 0.003 0.063
0.009 0.011 0.059
0.023 0.009 0.051
0.023 0.009 0.051
0.019 0.011 0.053
0.021 0.011 0.053
0.023 0.011 0.053
0.027 0.013 0.055
0.029 0.013 0.055
0.009 0.009 0.061
0.009 0.013 0.059
0.011 0.017 0.057
0.013 0.019 0.057
0.019 0.019 0.059
0.009 0.013 0.061
0.017 0.019 0.063
0.015 0.019 0.067
0.019 0.017 0.069
0.021 0.015 0.055
0.033 0.017 0.055
0.025 0.017 0.059
0.029 0.019 0.059
0.031 0.017 0.057
0.027 0.019 0.061
0.035 0.007 0.039
0.041 0.009 0.035
0.041 0.009 0.035
0.035 0.007 0.043
0.041 0.007 0.043
0.039 0.009 0.045
0.043 0.009 0.043
0.037 0.007 0.039
0.039 0.013 0.043
0.039 0.011 0.043
0.037 0.029 0.039
0.039 0.015 0.043
0.037 0.023 0.041
0.037 0.023 0.045
0.033 0.017 0.051
0.035 0.023 0.055
0.037 0.027 0.049
0.037 0.027 0.053
0.037 0.027 0.053
0.035 0.023 0.057
0.037 0.027 0.057
0.037 0.029 0.059
0.035 0.031 0.061
0.033 0.027 0.063
0.015 0.007 0.051
0.013 0.007 0.053
0.029 0.011 0.053
0.019 0.011 0.053
0.017 0.013 0.055
0.017 0.013 0.055
0.019 0.015 0.055
0.031 0.007 0.047
0.035 0.013 0.045
0.033 0.017 0.055
0.035 0.019 0.047
0.035 0.023 0.049
0.037 0.025 0.049
0.031 0.017 0.057
0.031 0.019 0.057
0.013 0.019 0.057
0.017 0.021 0.059
0.029 0.021 0.063
0.033 0.023 0.061
0.037 0.031 0.039
0.037 0.025 0.051
0.037 0.033 0.057
0.035 0.035 0.059
0.035 0.031 0.061
0.005 0.005 0.065
0.005 0.007 0.067
0.005 0.009 0.069
0.007 0.009 0.067
0.001 0.013 0.075
0.005 0.017 0.067
0.009 0.019 0.067
0.003 0.011 0.073
0.015 0.017 0.073
0.003 0.017 0.073
0.007 0.019 0.073
0.005 0.017 0.077
0.013 0.015 0.075
0.011 0.013 0.085
0.015 0.015 0.085
0.019 0.019 0.065
0.021 0.017 0.067
0.017 0.017 0.069
0.031 0.025 0.069
0.031 0.025 0.069
0.031 0.029 0.069
0.019 0.017 0.073
0.019 0.017 0.075
0.027 0.023 0.073
0.025 0.025 0.075
0.025 0.027 0.075
0.023 0.025 0.077
0.029 0.027 0.073
0.029 0.027 0.073
0.029 0.027 0.073
0.005 0.011 0.087
0.005 0.009 0.089
0.005 0.009 0.089
0.005 0.009 0.091
0.005 0.009 0.093
0.007 0.011 0.093
0.003 0.009 0.093
0.005 0.009 0.093
0.003 0.009 0.097
0.015 0.015 0.089
0.019 0.015 0.085
0.007 0.011 0.087
0.007 0.011 0.089
0.017 0.015 0.087
0.021 0.017 0.087
0.009 0.011 0.095
0.007 0.011 0.097
0.021 0.017 0.083
0.021 0.017 0.083
0.031 0.021 0.087
0.025 0.019 0.089
0.031 0.021 0.085
0.033 0.021 0.085
0.033 0.021 0.085
0.031 0.021 0.087
0.033 0.021 0.085
0.023 0.019 0.089
0.027 0.021 0.091
0.027 0.019 0.097
0.029 0.023 0.093
0.023 0.021 0.093
0.027 0.019 0.095
0.025 0.019 0.097
0.029 0.023 0.093
0.029 0.021 0.097
0.031 0.021 0.097
0.033 0.021 0.083
0.035 0.023 0.085
0.041 0.025 0.083
0.041 0.025 0.085
0.039 0.027 0.087
0.041 0.025 0.081
0.043 0.025 0.083
0.045 0.027 0.085
0.047 0.027 0.085
0.047 0.029 0.087
0.047 0.031 0.089
0.021 0.017 0.073
0.021 0.019 0.075
0.019 0.017 0.077
0.023 0.017 0.085
0.025 0.021 0.073
0.027 0.025 0.073
0.031 0.027 0.069
0.031 0.027 0.069
0.025 0.027 0.075
0.025 0.029 0.075
0.021 0.017 0.089
0.017 0.015 0.093
0.019 0.015 0.091
0.019 0.017 0.093
0.021 0.017 0.099
0.027 0.021 0.093
0.027 0.021 0.091
0.033 0.023 0.087
0.037 0.025 0.085
0.027 0.019 0.095
0.027 0.021 0.101
0.037 0.023 0.099
0.031 0.023 0.099
0.033 0.027 0.099
0.037 0.025 0.085
0.043 0.027 0.085
0.041 0.029 0.089
0.045 0.027 0.085
0.047 0.027 0.085
0.047 0.029 0.087
0.049 0.033 0.087
0.041 0.029 0.089
0.043 0.027 0.087
0.039 0.027 0.089
0.047 0.035 0.091
0.047 0.035 0.089
0.047 0.035 0.091
0.047 0.035 0.091
0.041 0.027 0.101
0.005 0.009 0.101
0.009 0.011 0.099
0.009 0.013 0.103
0.011 0.013 0.109
0.011 0.013 0.103
0.015 0.015 0.103
0.015 0.015 0.107
0.015 0.015 0.107
0.017 0.023 0.105
0.001 0.017 0.107
0.015 0.015 0.107
0.013 0.023 0.107
0.017 0.019 0.105
0.011 0.015 0.109
0.009 0.021 0.109
0.013 0.023 0.107
0.017 0.015 0.099
0.027 0.021 0.103
0.025 0.021 0.103
0.033 0.029 0.101
0.017 0.019 0.105
0.023 0.023 0.105
0.027 0.027 0.105
0.039 0.025 0.099
0.037 0.029 0.101
0.011 0.013 0.109
0.013 0.023 0.107
0.009 0.023 0.111
0.021 0.029 0.105
0.041 0.027 0.101
0.041 0.027 0.101
0.041 0.029 0.103
0.043 0.029 0.103
0.037 0.031 0.103
0.043 0.029 0.103
0.043 0.031 0.105
0.041 0.035 0.105
