-0.029 0.001 0.059
-0.027 -0.001 0.065
-0.033 -0.033 0.047
-0.037 -0.029 0.063
-0.043 -0.029 0.079
-0.037 -0.027 0.061
-0.037 -0.029 0.063
-0.041 -0.027 0.081
-0.037 -0.025 0.085
-0.033 -0.025 0.039
-0.031 -0.029 0.041
-0.031 -0.007 0.089
-0.029 -0.003 0.089
-0.033 -0.009 0.045
-0.031 -0.009 0.049
-0.033 -0.003 0.067
-0.027 0.003 0.049
-0.029 0.001 0.051
-0.031 -0.001 0.077
-0.027 0.003 0.085
-0.015 0.001 0.057
-0.035 -0.015 0.077
-0.035 -0.013 0.079
-0.021 -0.013 0.089
-0.033 -0.003 0.065
-0.031 -0.005 0.053
-0.031 -0.001 0.059
-0.035 -0.007 0.067
-0.031 -0.003 0.087
-0.031 -0.003 0.087
-0.031 -0.001 0.063
-0.031 -0.001 0.063
-0.023 0.007 0.079
-0.037 -0.021 0.081
-0.035 -0.023 0.085
-0.037 -0.013 0.075
-0.035 -0.015 0.081
-0.027 -0.007 0.093
-0.029 -0.001 0.087
-0.027 -0.003 0.091
-0.013 0.005 0.093
-0.027 -0.017 0.087
-0.023 -0.017 0.087
-0.025 -0.011 0.093
-0.023 -0.009 0.093
-0.027 -0.001 0.089
-0.011 0.013 0.083
-0.025 0.003 0.089
-0.013 0.011 0.087
-0.013 0.007 0.093
-0.029 0.007 0.043
-0.027 0.005 0.045
-0.027 0.003 0.051
-0.023 0.005 0.051
-0.029 0.001 0.045
-0.027 0.003 0.047
-0.029 0.005 0.045
-0.029 0.003 0.045
-0.023 0.009 0.043
-0.013 0.017 0.065
-0.011 0.017 0.055
-0.019 0.005 0.053
-0.015 0.015 0.067
-0.005 0.025 0.041
-0.005 0.025 0.043
-0.021 0.009 0.079
-0.015 0.013 0.063
-0.009 0.019 0.055
-0.007 0.021 0.053
-0.021 0.007 0.087
-0.021 0.009 0.079
-0.007 0.011 0.089
-0.013 0.013 0.083
-0.009 0.017 0.075
-0.029 0.001 0.083
-0.023 0.005 0.089
-0.019 0.005 0.091
-0.009 0.027 0.101
-0.007 0.029 0.097
-0.001 0.009 0.103
0.009 0.025 0.053
0.011 0.029 0.053
0.013 0.033 0.053
0.009 0.037 0.051
-0.013 0.015 0.073
-0.015 0.013 0.079
-0.001 0.019 0.083
0.005 0.031 0.045
0.009 0.027 0.053
-0.003 0.031 0.089
0.007 0.031 0.075
-0.015 0.011 0.085
0.001 0.019 0.075
-0.009 0.011 0.087
-0.001 0.021 0.083
-0.009 0.027 0.103
-0.003 0.029 0.103
0.007 0.029 0.069
-0.003 0.031 0.089
0.011 0.033 0.069
0.001 0.031 0.103
-0.003 0.027 0.101
-0.001 0.033 0.097
-0.001 0.033 0.097
0.007 0.033 0.085
-0.001 0.033 0.097
0.013 0.035 0.083
0.017 0.037 0.081
0.003 0.035 0.105
0.007 0.037 0.039
0.017 0.039 0.057
0.019 0.041 0.055
0.019 0.043 0.041
0.017 0.049 0.039
0.013 0.041 0.053
0.019 0.041 0.055
0.015 0.035 0.069
0.017 0.037 0.063
0.027 0.037 0.069
0.029 0.035 0.069
-0.009 0.027 0.097
-0.007 0.029 0.101
-0.009 0.027 0.097
-0.001 0.029 0.101
0.001 0.033 0.109
0.005 0.029 0.103
0.005 0.035 0.103
0.001 0.033 0.109
-0.007 0.019 0.109
-0.011 0.017 0.113
0.001 0.023 0.109
0.001 0.023 0.109
0.001 0.023 0.105
0.005 0.035 0.097
0.003 0.025 0.107
0.007 0.027 0.111
0.011 0.035 0.103
0.009 0.027 0.111
0.031 0.033 0.103
0.027 0.031 0.105
0.031 0.033 0.103
0.011 0.033 0.077
0.015 0.035 0.073
0.011 0.037 0.095
0.019 0.039 0.101
0.023 0.039 0.103
0.031 0.043 0.099
0.041 0.043 0.087
0.031 0.037 0.103
0.035 0.039 0.105
0.037 0.039 0.105
0.037 0.041 0.103
-0.001 0.019 0.111
0.017 0.019 0.105
0.035 0.031 0.105
0.001 0.033 0.109
0.017 0.033 0.105
0.023 0.037 0.103
0.031 0.033 0.103
0.031 0.037 0.103
0.037 0.033 0.107
-0.011 -0.029 0.043
-0.011 -0.027 0.031
-0.003 -0.013 0.041
-0.027 -0.037 0.061
-0.019 -0.037 0.035
-0.025 -0.041 0.047
-0.021 -0.041 0.047
-0.023 -0.041 0.047
-0.029 -0.039 0.055
-0.029 -0.037 0.061
-0.021 -0.039 0.053
-0.003 -0.029 0.055
-0.013 -0.013 0.051
-0.005 -0.023 0.061
-0.031 -0.033 0.065
-0.029 -0.027 0.065
-0.019 -0.035 0.051
-0.011 -0.031 0.055
-0.005 -0.027 0.057
-0.009 -0.027 0.037
-0.003 -0.027 0.045
-0.003 -0.025 0.045
-0.003 -0.023 0.047
-0.015 -0.011 0.057
0.005 -0.013 0.039
-0.003 -0.009 0.039
-0.019 -0.033 0.051
-0.019 -0.033 0.053
-0.021 -0.033 0.055
-0.011 -0.025 0.063
-0.007 -0.025 0.063
-0.025 -0.031 0.061
-0.029 -0.019 0.057
-0.007 -0.031 0.057
-0.005 -0.023 0.057
-0.039 -0.037 0.087
-0.025 -0.021 0.069
-0.031 -0.023 0.073
-0.039 -0.033 0.079
-0.037 -0.029 0.073
-0.023 -0.021 0.079
-0.033 -0.027 0.081
-0.035 -0.029 0.087
-0.031 -0.019 0.081
-0.025 -0.017 0.087
-0.021 -0.017 0.087
-0.029 -0.025 0.065
-0.025 -0.021 0.079
-0.023 -0.021 0.079
-0.009 -0.021 0.067
-0.015 -0.013 0.079
-0.005 -0.003 0.071
-0.011 -0.009 0.079
-0.031 -0.017 0.089
-0.019 -0.013 0.089
-0.017 -0.013 0.089
-0.019 -0.003 0.095
-0.005 -0.003 0.081
-0.005 -0.003 0.083
-0.011 -0.003 0.091
0.007 -0.015 0.035
0.003 -0.011 0.039
0.017 -0.005 0.035
0.015 -0.001 0.043
-0.011 -0.007 0.053
-0.011 -0.007 0.053
-0.013 -0.009 0.055
-0.011 -0.003 0.053
0.013 0.003 0.045
-0.007 -0.005 0.045
0.015 0.007 0.051
0.017 0.009 0.051
-0.015 -0.005 0.063
-0.013 -0.001 0.057
0.003 0.001 0.057
-0.007 -0.001 0.065
0.001 -0.001 0.065
0.007 0.007 0.061
0.009 0.015 0.059
0.005 0.009 0.069
0.027 0.011 0.053
-0.009 -0.007 0.083
-0.007 -0.003 0.087
-0.003 -0.001 0.081
-0.005 -0.001 0.085
0.001 0.003 0.077
-0.001 -0.001 0.073
0.001 0.009 0.077
0.001 0.007 0.079
-0.011 -0.001 0.091
-0.005 0.003 0.087
0.011 0.013 0.103
0.023 0.001 0.039
0.025 0.003 0.041
0.021 0.001 0.031
0.023 0.005 0.043
0.039 0.007 0.043
0.031 0.005 0.041
0.021 0.003 0.041
0.021 0.005 0.047
0.031 0.009 0.047
0.025 0.007 0.049
0.017 0.013 0.055
0.033 0.005 0.043
0.035 0.007 0.045
0.037 0.011 0.045
0.035 0.027 0.037
0.005 0.001 0.051
0.001 0.001 0.053
0.003 0.001 0.055
0.007 0.001 0.053
0.009 0.001 0.049
0.003 0.001 0.061
0.023 0.007 0.049
0.031 0.013 0.051
0.027 0.011 0.053
0.023 0.017 0.059
0.007 0.015 0.061
0.009 0.017 0.059
0.029 0.015 0.057
0.037 0.007 0.035
0.037 0.007 0.039
0.041 0.009 0.037
0.039 0.009 0.045
0.043 0.011 0.043
0.043 0.011 0.043
0.039 0.017 0.041
0.035 0.021 0.037
0.037 0.021 0.043
0.037 0.019 0.043
0.039 0.029 0.047
0.037 0.027 0.055
0.037 0.031 0.057
0.035 0.031 0.063
0.031 0.013 0.053
0.033 0.017 0.051
0.033 0.019 0.051
0.027 0.017 0.059
0.037 0.023 0.051
0.037 0.027 0.045
0.039 0.029 0.045
0.037 0.027 0.049
0.039 0.029 0.045
0.039 0.031 0.049
0.037 0.033 0.051
0.029 0.019 0.061
0.035 0.029 0.063
0.031 0.029 0.069
0.037 0.031 0.059
0.005 0.003 0.065
0.003 0.005 0.075
0.003 0.007 0.073
0.013 0.017 0.071
0.025 0.021 0.073
0.027 0.023 0.073
0.007 0.011 0.089
0.017 0.015 0.085
0.017 0.015 0.089
0.021 0.017 0.091
0.011 0.011 0.093
0.019 0.017 0.099
0.029 0.019 0.085
0.035 0.023 0.085
0.021 0.017 0.089
0.023 0.019 0.091
0.027 0.019 0.089
0.031 0.023 0.099
0.037 0.025 0.085
0.043 0.025 0.083
0.041 0.027 0.087
0.039 0.027 0.095
0.029 0.019 0.083
0.027 0.021 0.091
0.029 0.023 0.099
0.027 0.021 0.103
0.029 0.023 0.103
0.037 0.027 0.089
0.035 0.023 0.099
0.039 0.025 0.099
0.045 0.031 0.089
0.035 0.033 0.089
0.007 0.011 0.097
0.015 0.015 0.105
0.017 0.017 0.105
0.017 0.023 0.105
0.011 0.025 0.111
0.031 0.021 0.097
0.021 0.021 0.105
0.025 0.023 0.105
0.041 0.027 0.099
0.027 0.027 0.105
0.027 0.029 0.105
0.041 0.027 0.101
0.041 0.043 0.103
-0.035 -0.033 0.057
-0.031 -0.031 0.039
-0.031 -0.023 0.041
-0.029 -0.029 0.047
-0.033 -0.029 0.037
-0.037 -0.027 0.061
-0.033 -0.029 0.039
-0.033 -0.017 0.039
-0.033 -0.007 0.047
-0.033 -0.005 0.049
-0.031 -0.001 0.051
-0.031 -0.003 0.053
-0.035 -0.001 0.037
-0.035 0.005 0.037
-0.033 0.005 0.041
-0.021 0.005 0.045
-0.025 0.005 0.047
-0.033 -0.023 0.063
-0.033 -0.005 0.061
-0.033 -0.009 0.057
-0.031 -0.001 0.061
-0.031 -0.001 0.063
-0.029 0.001 0.055
-0.027 0.003 0.053
-0.015 0.009 0.063
-0.037 -0.027 0.067
-0.035 -0.019 0.071
-0.041 -0.029 0.073
-0.037 -0.011 0.071
-0.035 -0.013 0.081
-0.031 -0.003 0.073
-0.027 0.003 0.079
-0.031 -0.007 0.089
-0.029 -0.003 0.089
-0.029 -0.011 0.091
-0.027 -0.007 0.093
-0.025 -0.005 0.093
-0.025 0.005 0.087
-0.023 -0.003 0.093
-0.025 0.007 0.041
-0.029 0.007 0.045
-0.025 0.007 0.045
-0.023 0.009 0.041
-0.007 0.011 0.045
-0.033 0.007 0.039
-0.033 0.007 0.041
-0.029 0.005 0.045
-0.029 0.007 0.045
-0.025 0.009 0.043
-0.005 0.017 0.041
-0.007 0.013 0.043
-0.007 0.025 0.039
-0.029 0.001 0.057
-0.011 0.009 0.051
-0.011 0.009 0.051
-0.015 0.009 0.061
-0.015 0.007 0.061
-0.009 0.019 0.055
-0.011 0.017 0.057
-0.007 0.021 0.061
-0.029 0.001 0.085
-0.011 0.009 0.089
-0.001 0.021 0.083
-0.005 0.027 0.091
-0.009 0.017 0.111
-0.003 0.031 0.097
-0.001 0.033 0.097
-0.003 0.017 0.037
0.007 0.039 0.037
-0.005 0.013 0.039
-0.009 0.009 0.049
-0.011 0.013 0.051
-0.011 0.015 0.051
-0.007 0.023 0.047
-0.005 0.025 0.045
-0.001 0.029 0.043
-0.005 0.023 0.049
-0.005 0.025 0.053
0.001 0.027 0.045
-0.005 0.021 0.063
-0.001 0.019 0.065
0.007 0.033 0.049
0.011 0.023 0.063
0.009 0.025 0.065
0.013 0.031 0.059
0.011 0.025 0.063
0.011 0.031 0.067
0.007 0.035 0.047
0.009 0.027 0.053
0.017 0.039 0.057
0.017 0.037 0.059
0.013 0.033 0.061
0.017 0.037 0.067
0.011 0.041 0.037
0.013 0.041 0.037
0.013 0.043 0.039
0.017 0.051 0.037
0.015 0.043 0.041
0.019 0.043 0.041
0.029 0.041 0.047
0.017 0.051 0.037
0.013 0.041 0.049
0.017 0.041 0.043
0.023 0.039 0.043
-0.013 0.017 0.071
-0.011 0.017 0.073
-0.003 0.017 0.073
-0.013 0.015 0.079
-0.001 0.015 0.077
0.007 0.021 0.067
0.009 0.025 0.065
0.007 0.031 0.079
0.007 0.027 0.069
0.005 0.029 0.073
0.011 0.033 0.071
0.011 0.033 0.073
0.019 0.035 0.073
0.003 0.029 0.081
0.011 0.033 0.077
0.003 0.013 0.087
0.001 0.013 0.095
-0.009 0.027 0.095
0.003 0.031 0.083
-0.007 0.025 0.095
-0.009 0.027 0.095
0.003 0.033 0.087
-0.005 0.031 0.097
0.009 0.033 0.091
0.005 0.035 0.097
0.017 0.037 0.087
0.015 0.035 0.069
0.011 0.033 0.075
0.003 0.033 0.087
0.013 0.035 0.087
0.009 0.033 0.091
0.023 0.041 0.095
0.023 0.041 0.093
0.003 0.013 0.101
0.001 0.023 0.105
-0.001 0.021 0.105
0.001 0.019 0.099
-0.009 0.027 0.103
-0.007 0.029 0.101
-0.005 0.021 0.109
0.005 0.025 0.111
0.001 0.033 0.107
0.001 0.033 0.109
-0.003 0.031 0.099
0.005 0.035 0.105
0.013 0.035 0.103
0.021 0.033 0.105
0.001 0.033 0.107
0.011 0.031 0.105
0.013 0.037 0.097
0.009 0.035 0.103
0.029 0.043 0.097
0.035 0.037 0.107
