-0.029 -0.037 0.061
-0.021 -0.033 0.055
-0.013 -0.035 0.043
-0.013 -0.031 0.045
-0.021 -0.023 0.047
-0.023 -0.021 0.045
-0.013 -0.023 0.065
-0.033 -0.037 0.053
-0.035 -0.035 0.061
-0.035 -0.035 0.061
-0.013 -0.035 0.043
-0.025 -0.041 0.051
-0.021 -0.039 0.053
-0.017 -0.037 0.049
-0.029 -0.037 0.061
-0.025 -0.037 0.059
-0.023 -0.035 0.059
-0.033 -0.037 0.059
-0.031 -0.027 0.073
-0.037 -0.031 0.063
-0.035 -0.033 0.065
-0.033 -0.027 0.083
-0.017 -0.035 0.049
-0.027 -0.033 0.063
-0.023 -0.021 0.045
-0.023 -0.019 0.047
-0.017 -0.019 0.047
-0.015 -0.025 0.045
-0.009 -0.031 0.057
-0.007 -0.029 0.061
-0.013 -0.029 0.045
-0.005 -0.031 0.055
-0.005 -0.031 0.051
-0.005 -0.029 0.061
-0.025 -0.015 0.047
-0.027 -0.021 0.071
-0.007 -0.025 0.063
-0.003 -0.017 0.047
-0.013 -0.021 0.071
-0.009 -0.021 0.067
-0.003 -0.013 0.045
-0.027 -0.035 0.061
-0.019 -0.033 0.053
-0.029 -0.031 0.067
-0.029 -0.027 0.069
-0.009 -0.031 0.053
-0.007 -0.031 0.053
-0.003 -0.029 0.055
-0.011 -0.025 0.063
-0.005 -0.027 0.061
-0.007 -0.027 0.061
-0.009 -0.027 0.063
-0.005 -0.029 0.059
-0.011 -0.021 0.069
-0.011 -0.025 0.065
-0.015 -0.011 0.065
-0.039 -0.037 0.087
-0.037 -0.029 0.067
-0.033 -0.027 0.083
-0.039 -0.037 0.087
-0.033 -0.027 0.087
-0.035 -0.017 0.081
-0.033 -0.015 0.087
-0.035 -0.031 0.087
-0.039 -0.027 0.087
-0.037 -0.029 0.089
-0.033 -0.027 0.087
-0.033 -0.025 0.087
-0.033 -0.017 0.087
-0.029 -0.027 0.069
-0.019 -0.019 0.071
-0.017 -0.017 0.071
-0.011 -0.021 0.071
-0.017 -0.017 0.079
-0.017 -0.015 0.085
-0.017 -0.017 0.081
-0.025 -0.011 0.091
-0.015 -0.011 0.065
-0.001 -0.001 0.071
-0.029 -0.019 0.083
-0.025 -0.011 0.093
-0.023 -0.005 0.095
-0.019 -0.003 0.095
-0.019 -0.003 0.095
-0.019 -0.001 0.095
-0.011 -0.009 0.087
-0.011 -0.009 0.087
-0.015 -0.011 0.089
-0.015 -0.007 0.091
0.019 -0.003 0.033
0.003 -0.017 0.035
0.005 -0.017 0.035
0.003 -0.017 0.037
0.001 -0.013 0.037
0.003 -0.013 0.037
0.013 -0.003 0.039
0.013 -0.003 0.043
0.011 -0.001 0.047
0.019 -0.003 0.035
0.001 -0.001 0.065
-0.031 -0.021 0.075
-0.027 -0.017 0.085
-0.021 -0.017 0.085
-0.015 -0.013 0.065
-0.001 0.001 0.049
-0.003 -0.001 0.059
-0.015 -0.015 0.081
-0.003 0.001 0.051
-0.007 -0.005 0.079
-0.025 -0.017 0.087
-0.009 -0.007 0.077
-0.013 -0.011 0.087
-0.013 -0.009 0.089
-0.013 -0.011 0.087
-0.003 -0.001 0.063
-0.013 -0.007 0.091
-0.009 -0.003 0.089
-0.007 -0.001 0.089
-0.023 -0.009 0.093
-0.019 -0.003 0.095
-0.001 0.011 0.081
-0.009 0.001 0.089
-0.005 0.005 0.087
-0.001 0.007 0.095
-0.027 -0.007 0.093
-0.017 0.001 0.095
-0.017 0.001 0.095
-0.019 -0.001 0.095
-0.005 -0.001 0.085
-0.001 0.007 0.081
-0.013 0.005 0.093
-0.015 0.003 0.095
-0.003 0.011 0.085
-0.001 0.009 0.097
-0.003 0.025 0.089
-0.001 0.025 0.095
-0.003 0.017 0.111
-0.007 0.015 0.113
-0.009 0.015 0.113
0.013 -0.003 0.043
0.005 0.001 0.053
0.013 0.009 0.055
0.011 0.013 0.057
0.017 0.013 0.055
0.003 0.001 0.051
0.007 0.001 0.047
0.019 0.005 0.047
0.023 0.005 0.047
0.029 0.005 0.043
0.027 0.007 0.045
0.029 0.005 0.045
0.017 0.007 0.049
0.027 0.007 0.045
0.005 0.005 0.069
0.007 0.009 0.067
0.001 0.007 0.079
-0.001 0.003 0.081
0.029 0.011 0.053
0.031 0.013 0.053
0.011 0.003 0.053
0.013 0.007 0.055
0.007 0.013 0.063
0.009 0.011 0.061
0.025 0.007 0.049
0.017 0.009 0.053
0.017 0.009 0.053
0.009 0.017 0.073
0.031 0.017 0.057
0.021 0.017 0.067
0.025 0.019 0.061
0.035 0.005 0.037
0.037 0.009 0.045
0.039 0.007 0.043
0.031 0.013 0.049
0.039 0.015 0.043
0.033 0.017 0.055
0.033 0.019 0.055
0.035 0.019 0.047
0.033 0.017 0.051
0.037 0.023 0.047
0.037 0.023 0.053
0.035 0.023 0.057
0.039 0.029 0.051
0.005 0.013 0.069
0.005 0.007 0.071
0.007 0.027 0.051
0.009 0.015 0.077
0.003 0.017 0.073
0.005 0.009 0.089
0.011 0.011 0.089
0.011 0.011 0.091
0.023 0.017 0.059
0.021 0.017 0.067
0.019 0.017 0.077
0.021 0.019 0.075
0.017 0.017 0.075
0.027 0.021 0.069
0.017 0.017 0.077
0.013 0.013 0.093
0.019 0.015 0.091
0.019 0.015 0.091
0.019 0.017 0.095
0.035 0.025 0.059
0.033 0.027 0.067
0.003 0.001 0.069
0.003 0.007 0.075
0.003 0.013 0.073
0.015 0.015 0.077
0.011 0.015 0.079
0.007 0.011 0.091
0.001 0.009 0.097
0.001 0.009 0.097
0.013 0.015 0.079
0.003 0.009 0.099
0.023 0.019 0.067
0.027 0.019 0.089
0.021 0.017 0.085
0.017 0.015 0.101
0.009 0.011 0.089
0.005 0.011 0.101
0.011 0.013 0.095
-0.001 0.009 0.103
0.027 0.019 0.089
0.029 0.021 0.097
0.017 0.015 0.105
0.023 0.021 0.103
0.015 0.021 0.105
0.021 0.023 0.105
0.025 0.021 0.103
0.035 0.025 0.099
0.013 0.013 0.101
0.027 0.019 0.089
0.013 0.013 0.101
0.013 0.017 0.107
0.011 0.021 0.105
0.013 0.021 0.105
0.015 0.021 0.105
0.017 0.019 0.105
0.025 0.031 0.105
0.033 0.023 0.099
0.043 0.029 0.089
0.047 0.033 0.089
0.037 0.031 0.105
0.011 0.015 0.109
0.005 0.019 0.105
0.005 0.019 0.107
0.003 0.019 0.109
0.005 0.021 0.109
0.005 0.023 0.109
0.001 0.017 0.109
0.011 0.023 0.111
0.011 0.023 0.111
0.009 0.023 0.113
0.029 0.023 0.103
0.023 0.031 0.105
0.027 0.029 0.105
0.007 0.025 0.115
0.035 0.023 0.099
0.009 0.033 0.105
0.023 0.033 0.105
0.017 0.033 0.105
0.021 0.037 0.103
0.035 0.035 0.107
0.039 0.041 0.105
-0.035 -0.015 0.035
-0.029 -0.011 0.033
-0.033 0.007 0.035
-0.031 -0.031 0.041
-0.033 -0.021 0.039
-0.033 -0.033 0.047
-0.033 -0.035 0.049
-0.033 -0.033 0.043
-0.035 -0.035 0.057
-0.035 -0.029 0.057
-0.035 -0.011 0.035
-0.037 -0.023 0.065
-0.035 -0.013 0.063
-0.033 -0.027 0.037
-0.035 -0.009 0.039
-0.035 -0.005 0.039
-0.033 -0.007 0.043
-0.031 -0.015 0.043
-0.023 -0.019 0.047
-0.035 -0.009 0.039
-0.035 -0.003 0.039
-0.033 -0.005 0.045
-0.033 0.003 0.041
-0.033 0.007 0.041
-0.031 -0.007 0.051
-0.029 0.001 0.051
-0.035 -0.001 0.039
-0.035 0.001 0.039
-0.035 0.005 0.037
-0.035 -0.001 0.039
-0.035 0.005 0.037
-0.033 -0.011 0.043
-0.033 -0.007 0.045
-0.033 -0.007 0.047
-0.031 0.009 0.041
-0.029 0.007 0.043
-0.029 0.007 0.045
-0.011 0.001 0.037
-0.025 0.007 0.045
-0.031 -0.001 0.051
-0.027 0.003 0.051
-0.027 0.007 0.045
-0.027 -0.027 0.051
-0.031 -0.027 0.055
-0.031 -0.011 0.055
-0.035 -0.009 0.061
-0.033 -0.005 0.061
-0.031 -0.003 0.059
-0.031 -0.001 0.059
-0.035 -0.007 0.065
-0.033 -0.003 0.063
-0.033 -0.005 0.067
-0.033 -0.005 0.063
-0.033 -0.005 0.065
-0.031 -0.003 0.065
-0.033 -0.009 0.057
-0.031 -0.007 0.051
-0.015 0.009 0.063
-0.043 -0.035 0.087
-0.035 -0.017 0.067
-0.041 -0.027 0.075
-0.041 -0.025 0.075
-0.041 -0.023 0.079
-0.037 -0.021 0.073
-0.035 -0.017 0.073
-0.035 -0.017 0.077
-0.035 -0.009 0.069
-0.033 -0.003 0.071
-0.035 -0.009 0.077
-0.039 -0.025 0.085
-0.039 -0.023 0.071
-0.033 -0.003 0.073
-0.033 -0.005 0.077
-0.033 -0.005 0.079
-0.033 -0.003 0.069
-0.033 -0.003 0.069
-0.033 -0.005 0.075
-0.019 0.011 0.075
-0.031 -0.001 0.079
-0.021 0.009 0.075
-0.019 0.011 0.081
-0.033 -0.011 0.087
-0.025 -0.005 0.093
-0.027 -0.007 0.093
-0.023 -0.001 0.093
-0.023 -0.001 0.093
-0.007 0.011 0.043
-0.007 0.013 0.043
-0.017 0.011 0.069
-0.033 0.007 0.039
-0.029 0.009 0.037
-0.033 0.005 0.041
-0.021 0.005 0.047
-0.019 0.005 0.049
-0.009 0.009 0.049
-0.007 0.015 0.045
-0.005 0.023 0.035
-0.005 0.021 0.037
-0.007 0.027 0.039
-0.007 0.027 0.035
-0.007 0.023 0.041
-0.007 0.023 0.043
-0.005 0.027 0.043
-0.023 0.005 0.053
-0.013 0.009 0.055
-0.011 0.011 0.051
-0.013 0.015 0.061
-0.009 0.017 0.049
-0.017 0.013 0.071
-0.025 0.005 0.079
-0.021 0.005 0.073
-0.019 0.007 0.073
-0.019 0.011 0.075
-0.017 0.013 0.075
-0.003 0.015 0.079
-0.017 0.011 0.085
-0.009 0.011 0.085
-0.017 0.003 0.093
-0.007 0.029 0.095
-0.007 0.019 0.109
-0.013 0.015 0.113
-0.005 0.029 0.035
-0.003 0.033 0.035
0.003 0.035 0.035
0.003 0.031 0.041
0.001 0.035 0.033
-0.007 0.011 0.043
-0.005 0.011 0.041
-0.005 0.017 0.039
0.001 0.013 0.033
-0.007 0.027 0.039
-0.005 0.027 0.043
-0.007 0.027 0.041
-0.005 0.029 0.039
-0.001 0.025 0.045
0.003 0.031 0.041
0.001 0.027 0.045
-0.005 0.025 0.049
0.009 0.027 0.053
-0.007 0.027 0.035
0.001 0.035 0.035
0.007 0.039 0.037
-0.011 0.013 0.055
-0.011 0.017 0.059
-0.007 0.021 0.059
-0.007 0.021 0.061
-0.001 0.021 0.059
-0.005 0.021 0.063
0.011 0.023 0.057
0.001 0.023 0.057
-0.001 0.025 0.051
0.003 0.019 0.063
-0.001 0.021 0.061
0.009 0.025 0.065
0.007 0.033 0.047
0.001 0.025 0.051
0.005 0.035 0.043
0.009 0.039 0.039
0.011 0.041 0.049
0.013 0.031 0.059
0.017 0.037 0.063
-0.001 0.033 0.033
0.009 0.039 0.037
0.013 0.043 0.039
0.015 0.043 0.037
0.011 0.041 0.037
0.015 0.045 0.039
0.025 0.041 0.043
0.023 0.041 0.047
0.017 0.051 0.037
0.009 0.037 0.051
0.019 0.043 0.051
0.019 0.039 0.057
0.015 0.035 0.061
0.023 0.041 0.053
0.025 0.041 0.055
0.023 0.039 0.061
-0.013 0.017 0.071
-0.011 0.017 0.073
-0.009 0.019 0.067
-0.007 0.019 0.067
-0.009 0.015 0.077
0.005 0.027 0.071
0.001 0.017 0.077
0.003 0.027 0.075
0.003 0.029 0.079
0.011 0.031 0.079
0.005 0.027 0.071
0.015 0.035 0.069
0.015 0.035 0.071
0.017 0.033 0.075
0.017 0.033 0.075
-0.001 0.023 0.085
0.001 0.011 0.089
-0.003 0.019 0.091
0.007 0.033 0.085
0.001 0.031 0.085
-0.005 0.029 0.089
0.003 0.033 0.087
0.011 0.035 0.087
0.011 0.035 0.087
0.001 0.033 0.095
0.001 0.033 0.091
0.011 0.035 0.091
0.007 0.035 0.095
0.017 0.037 0.091
0.011 0.035 0.089
0.031 0.039 0.085
0.011 0.035 0.097
0.023 0.039 0.091
0.015 0.035 0.073
0.017 0.037 0.065
0.021 0.037 0.065
0.019 0.037 0.069
0.011 0.035 0.085
0.011 0.035 0.091
0.011 0.035 0.091
0.017 0.037 0.083
0.017 0.037 0.085
0.027 0.039 0.083
0.025 0.039 0.085
0.017 0.037 0.091
0.017 0.039 0.093
0.023 0.039 0.091
0.025 0.039 0.085
0.031 0.041 0.083
0.045 0.039 0.093
0.035 0.041 0.089
0.001 0.019 0.099
-0.007 0.025 0.097
-0.007 0.029 0.103
0.001 0.031 0.103
0.009 0.035 0.101
0.011 0.035 0.101
0.015 0.033 0.105
0.005 0.025 0.115
0.013 0.037 0.099
0.007 0.035 0.101
0.005 0.035 0.103
0.007 0.035 0.103
0.009 0.035 0.103
0.019 0.039 0.101
0.025 0.039 0.097
0.023 0.039 0.103
0.023 0.039 0.103
0.033 0.039 0.103
0.037 0.039 0.105
0.039 0.041 0.105
