-0.035 -0.025 0.033
-0.033 -0.027 0.035
-0.033 -0.023 0.037
-0.033 -0.021 0.037
-0.033 -0.021 0.037
-0.035 -0.013 0.037
-0.033 -0.017 0.039
-0.035 -0.015 0.037
-0.033 -0.009 0.041
-0.035 -0.033 0.053
-0.035 -0.035 0.055
-0.029 -0.039 0.043
-0.031 -0.039 0.047
-0.033 -0.035 0.049
-0.027 -0.041 0.051
-0.029 -0.041 0.049
-0.031 -0.039 0.051
-0.027 -0.041 0.051
-0.027 -0.039 0.055
-0.031 -0.039 0.057
-0.033 -0.037 0.057
-0.027 -0.039 0.057
-0.035 -0.035 0.059
-0.029 -0.039 0.057
-0.033 -0.029 0.033
-0.033 -0.029 0.035
-0.033 -0.031 0.047
-0.035 -0.009 0.037
-0.035 -0.013 0.037
-0.035 -0.001 0.039
-0.033 -0.013 0.041
-0.033 -0.011 0.043
-0.033 -0.005 0.043
-0.035 -0.031 0.053
-0.035 -0.029 0.055
-0.037 -0.031 0.059
-0.037 -0.031 0.059
-0.037 -0.027 0.063
-0.035 -0.009 0.063
-0.033 -0.005 0.059
-0.031 -0.031 0.039
-0.031 -0.027 0.041
-0.031 -0.019 0.039
-0.033 -0.031 0.045
-0.031 -0.025 0.043
-0.029 -0.025 0.043
-0.029 -0.017 0.043
-0.025 -0.019 0.043
-0.023 -0.023 0.045
-0.023 -0.023 0.047
-0.021 -0.021 0.047
-0.021 -0.019 0.047
-0.033 -0.031 0.049
-0.033 -0.031 0.049
-0.031 -0.025 0.043
-0.025 -0.027 0.047
-0.025 -0.021 0.043
-0.035 -0.029 0.055
-0.035 -0.029 0.057
-0.035 -0.033 0.059
-0.013 -0.017 0.047
-0.035 -0.027 0.057
-0.035 -0.015 0.035
-0.035 -0.017 0.037
-0.035 -0.011 0.037
-0.033 -0.017 0.039
-0.031 -0.017 0.041
-0.029 -0.017 0.043
-0.035 -0.009 0.039
-0.035 -0.003 0.041
-0.033 -0.005 0.043
-0.033 -0.003 0.043
-0.031 -0.015 0.043
-0.031 -0.009 0.047
-0.031 -0.017 0.041
-0.031 -0.015 0.043
-0.031 -0.013 0.045
-0.027 -0.015 0.045
-0.023 -0.019 0.045
-0.027 -0.015 0.045
-0.025 -0.017 0.045
-0.029 -0.011 0.049
-0.027 -0.013 0.051
-0.013 -0.017 0.047
-0.025 -0.015 0.051
-0.027 -0.017 0.053
-0.011 -0.017 0.049
-0.029 -0.017 0.057
-0.027 -0.013 0.051
-0.029 -0.013 0.053
-0.031 -0.011 0.055
-0.033 -0.011 0.057
-0.035 -0.033 0.061
-0.027 -0.017 0.053
-0.035 -0.033 0.065
-0.037 -0.031 0.065
-0.037 -0.027 0.065
-0.033 -0.019 0.063
-0.037 -0.029 0.065
-0.035 -0.031 0.067
-0.033 -0.033 0.067
-0.037 -0.027 0.063
-0.035 -0.031 0.069
-0.043 -0.035 0.077
-0.029 -0.015 0.055
-0.031 -0.001 0.051
-0.033 -0.007 0.057
-0.033 -0.005 0.057
-0.033 -0.009 0.059
-0.033 -0.019 0.063
-0.033 -0.003 0.063
-0.037 -0.013 0.071
-0.031 -0.017 0.059
-0.033 -0.015 0.061
-0.035 -0.015 0.065
-0.035 -0.009 0.065
-0.035 -0.007 0.065
-0.035 -0.009 0.067
-0.037 -0.011 0.071
-0.037 -0.011 0.073
-0.035 -0.033 0.065
-0.043 -0.035 0.075
-0.043 -0.033 0.081
-0.045 -0.035 0.081
-0.045 -0.035 0.081
-0.041 -0.033 0.087
-0.043 -0.031 0.075
-0.039 -0.025 0.069
-0.039 -0.023 0.069
-0.041 -0.025 0.077
-0.043 -0.029 0.079
-0.041 -0.027 0.081
-0.041 -0.023 0.077
-0.041 -0.023 0.077
-0.035 -0.013 0.065
-0.035 -0.015 0.067
-0.035 -0.007 0.069
-0.033 -0.003 0.067
-0.035 -0.007 0.079
-0.041 -0.027 0.081
-0.041 -0.031 0.085
-0.035 -0.025 0.087
-0.039 -0.023 0.083
-0.035 -0.015 0.081
-0.033 -0.009 0.085
-0.033 -0.011 0.087
-0.033 -0.007 0.083
-0.035 -0.031 0.069
-0.039 -0.023 0.075
-0.039 -0.023 0.073
-0.039 -0.023 0.083
-0.037 -0.021 0.081
-0.039 -0.025 0.085
-0.043 -0.031 0.079
-0.043 -0.029 0.079
-0.041 -0.023 0.077
-0.043 -0.029 0.081
-0.039 -0.023 0.081
-0.039 -0.023 0.083
-0.033 -0.003 0.069
-0.035 -0.005 0.073
-0.031 -0.003 0.079
-0.033 -0.017 0.085
-0.033 -0.011 0.085
-0.033 -0.011 0.085
-0.033 -0.011 0.087
-0.031 -0.017 0.089
-0.031 -0.005 0.087
-0.031 -0.003 0.087
-0.029 -0.013 0.091
-0.031 -0.011 0.089
-0.029 -0.013 0.091
-0.025 -0.007 0.095
-0.031 -0.015 0.089
-0.029 -0.015 0.089
-0.029 -0.013 0.091
-0.027 -0.013 0.091
-0.027 -0.013 0.051
-0.027 -0.013 0.051
-0.023 -0.017 0.049
-0.025 -0.017 0.051
-0.027 -0.013 0.047
-0.027 -0.013 0.047
-0.029 -0.011 0.053
-0.035 -0.011 0.061
-0.035 -0.011 0.061
-0.035 -0.013 0.065
-0.029 -0.015 0.055
-0.005 0.027 0.033
-0.037 0.005 0.037
-0.035 0.001 0.037
-0.033 0.007 0.039
-0.033 0.005 0.041
-0.033 -0.001 0.043
-0.031 -0.001 0.045
-0.033 0.007 0.039
-0.033 0.007 0.041
-0.029 0.005 0.043
-0.029 0.007 0.045
-0.027 0.003 0.047
-0.027 0.003 0.049
-0.029 0.001 0.053
-0.029 0.007 0.045
-0.033 -0.005 0.047
-0.031 -0.001 0.051
-0.007 0.015 0.045
-0.007 0.019 0.043
-0.007 0.023 0.041
-0.001 0.031 0.041
-0.029 0.001 0.053
-0.027 0.003 0.053
-0.031 -0.001 0.061
-0.031 -0.001 0.061
-0.031 -0.001 0.063
-0.033 -0.003 0.063
-0.035 -0.009 0.065
-0.013 0.007 0.059
-0.035 -0.007 0.069
-0.035 -0.009 0.073
-0.013 0.011 0.057
-0.015 0.013 0.063
-0.015 0.013 0.063
-0.009 0.019 0.057
-0.005 0.025 0.049
-0.005 0.025 0.053
-0.009 0.019 0.059
-0.013 0.017 0.065
-0.017 0.013 0.069
-0.013 0.017 0.065
-0.019 0.007 0.071
-0.031 -0.001 0.081
-0.027 0.001 0.077
-0.021 0.009 0.081
-0.033 -0.005 0.075
-0.031 -0.007 0.089
-0.015 0.015 0.073
-0.013 0.015 0.079
-0.017 0.013 0.079
-0.023 0.007 0.087
-0.021 0.009 0.085
-0.015 0.015 0.069
-0.015 0.015 0.071
-0.017 0.013 0.077
-0.031 -0.001 0.083
-0.025 0.005 0.087
-0.027 0.003 0.083
-0.023 0.007 0.085
-0.023 0.007 0.087
-0.019 0.011 0.081
-0.017 0.011 0.085
-0.019 0.009 0.087
-0.023 0.005 0.089
-0.019 0.009 0.087
-0.023 -0.003 0.093
-0.001 0.021 0.085
-0.003 0.019 0.091
-0.007 0.029 0.093
-0.007 0.025 0.095
-0.007 0.025 0.097
-0.009 0.027 0.095
-0.011 0.013 0.113
-0.007 0.025 0.097
-0.009 0.027 0.103
-0.007 0.029 0.103
-0.005 0.029 0.103
-0.005 0.021 0.109
-0.031 -0.009 0.053
-0.029 0.005 0.045
-0.027 0.003 0.047
-0.031 -0.003 0.051
-0.027 0.003 0.049
-0.031 -0.009 0.053
-0.031 -0.003 0.055
-0.035 -0.009 0.061
-0.033 -0.007 0.059
-0.001 0.023 0.033
-0.005 0.029 0.035
-0.005 0.019 0.039
-0.007 0.011 0.045
-0.009 0.013 0.047
-0.023 0.005 0.053
-0.007 0.017 0.043
-0.009 0.015 0.047
-0.007 0.017 0.045
-0.003 0.031 0.033
-0.031 -0.009 0.053
-0.031 -0.007 0.053
-0.033 -0.011 0.057
-0.029 0.001 0.047
-0.029 0.001 0.053
-0.033 -0.007 0.059
-0.035 -0.009 0.063
-0.035 -0.009 0.065
-0.035 -0.009 0.065
-0.031 -0.013 0.057
-0.033 -0.007 0.057
-0.033 -0.007 0.059
-0.035 -0.013 0.063
-0.035 -0.011 0.063
-0.035 -0.009 0.065
-0.031 -0.001 0.057
-0.033 -0.007 0.061
-0.035 -0.007 0.063
-0.035 -0.009 0.063
-0.033 -0.005 0.063
-0.035 -0.009 0.071
-0.035 -0.007 0.073
-0.005 0.015 0.039
-0.007 0.027 0.041
-0.005 0.025 0.041
-0.005 0.025 0.045
-0.009 0.013 0.047
-0.009 0.011 0.047
-0.011 0.011 0.051
-0.011 0.013 0.051
-0.035 -0.009 0.067
-0.035 -0.009 0.071
-0.035 -0.009 0.069
-0.035 -0.007 0.071
-0.035 -0.007 0.073
-0.035 -0.007 0.073
-0.035 -0.005 0.073
-0.035 -0.009 0.077
-0.035 -0.007 0.079
-0.035 -0.007 0.079
-0.035 -0.007 0.077
-0.033 -0.003 0.077
-0.031 -0.003 0.079
-0.013 0.017 0.063
-0.015 0.013 0.067
-0.009 0.019 0.061
-0.019 0.007 0.073
-0.027 0.003 0.081
-0.035 -0.011 0.063
-0.037 -0.011 0.069
-0.037 -0.011 0.069
-0.037 -0.011 0.071
-0.037 -0.011 0.073
-0.037 -0.013 0.075
-0.035 -0.005 0.071
-0.035 -0.007 0.073
-0.015 0.007 0.063
-0.015 0.005 0.065
-0.015 0.005 0.065
-0.017 0.005 0.067
-0.017 0.005 0.067
-0.017 0.011 0.071
-0.021 0.007 0.077
-0.003 0.031 0.037
-0.001 0.033 0.037
0.003 0.035 0.039
0.003 0.033 0.041
-0.003 0.029 0.043
0.015 0.047 0.035
0.015 0.045 0.037
0.015 0.047 0.039
0.005 0.035 0.041
0.003 0.033 0.043
0.007 0.037 0.041
-0.009 0.019 0.051
0.005 0.029 0.045
-0.005 0.025 0.053
0.013 0.043 0.039
0.017 0.047 0.039
0.009 0.039 0.043
0.007 0.033 0.047
0.009 0.039 0.047
0.013 0.033 0.053
0.009 0.039 0.045
0.007 0.035 0.047
0.007 0.037 0.047
0.009 0.035 0.051
0.011 0.035 0.053
0.015 0.049 0.037
0.017 0.049 0.039
0.017 0.049 0.039
0.007 0.035 0.049
0.013 0.035 0.055
0.013 0.037 0.055
0.011 0.039 0.053
0.015 0.035 0.059
0.015 0.041 0.055
0.015 0.035 0.063
0.017 0.037 0.065
0.009 0.031 0.067
0.003 0.025 0.073
0.017 0.037 0.063
0.013 0.029 0.055
0.009 0.029 0.067
0.007 0.027 0.069
-0.033 -0.005 0.083
-0.031 -0.005 0.087
-0.015 0.015 0.075
-0.021 0.009 0.079
-0.023 0.007 0.081
-0.019 0.011 0.077
-0.015 0.013 0.083
-0.023 0.007 0.087
-0.019 0.009 0.087
-0.025 0.005 0.087
-0.023 0.005 0.089
0.003 0.025 0.073
0.003 0.025 0.075
-0.023 0.007 0.081
-0.025 0.005 0.085
-0.025 0.003 0.089
-0.025 0.005 0.087
-0.019 0.007 0.089
-0.019 0.009 0.087
-0.001 0.023 0.085
-0.001 0.019 0.083
-0.013 0.007 0.093
-0.001 0.007 0.095
-0.001 0.009 0.095
-0.001 0.019 0.083
-0.001 0.017 0.089
-0.001 0.023 0.087
0.001 0.027 0.081
-0.003 0.025 0.087
-0.001 0.025 0.097
0.003 0.013 0.089
0.001 0.017 0.091
0.001 0.011 0.093
0.001 0.013 0.095
0.003 0.015 0.095
-0.001 0.019 0.089
-0.003 0.025 0.089
-0.001 0.021 0.093
-0.001 0.019 0.093
-0.001 0.021 0.093
0.001 0.011 0.097
0.005 0.017 0.097
0.003 0.013 0.101
0.003 0.013 0.101
0.003 0.015 0.097
0.001 0.019 0.097
0.001 0.019 0.099
0.005 0.019 0.101
0.003 0.023 0.103
0.007 0.015 0.103
0.001 0.021 0.099
-0.001 0.019 0.105
0.007 0.031 0.075
0.005 0.029 0.077
0.007 0.031 0.077
0.003 0.029 0.079
0.011 0.033 0.069
0.007 0.031 0.075
0.003 0.025 0.075
0.003 0.025 0.077
0.001 0.025 0.079
0.005 0.029 0.077
0.003 0.027 0.079
0.003 0.029 0.079
-0.007 0.027 0.089
-0.007 0.027 0.089
-0.007 0.029 0.097
-0.009 0.027 0.097
-0.007 0.027 0.093
-0.005 0.025 0.095
-0.003 0.025 0.095
-0.007 0.025 0.097
-0.005 0.027 0.099
-0.007 0.027 0.101
-0.005 0.027 0.103
-0.007 0.029 0.103
0.001 0.031 0.105
0.001 0.031 0.105
-0.001 0.019 0.095
0.001 0.023 0.099
-0.009 0.027 0.097
-0.009 0.027 0.101
-0.001 0.027 0.099
-0.003 0.027 0.101
0.001 0.011 0.101
0.001 0.011 0.103
0.005 0.015 0.101
0.007 0.015 0.103
0.007 0.013 0.103
-0.011 0.013 0.111
-0.001 0.025 0.097
0.003 0.025 0.101
-0.013 0.015 0.113
-0.013 0.015 0.113
-0.011 0.017 0.113
0.007 0.027 0.107
0.009 0.015 0.105
0.011 0.017 0.105
-0.001 0.021 0.105
-0.011 0.013 0.113
0.023 0.023 0.105
0.001 0.023 0.109
-0.011 0.017 0.113
0.009 0.015 0.105
0.011 0.017 0.107
0.039 0.031 0.105
0.003 0.033 0.103
-0.007 0.029 0.103
0.011 0.031 0.105
0.001 0.031 0.107
0.015 0.035 0.105
0.001 0.031 0.105
0.015 0.033 0.105
-0.001 0.023 0.107
0.007 0.027 0.105
-0.011 0.017 0.113
0.003 0.031 0.107
0.001 0.031 0.107
0.033 0.039 0.103
0.037 0.045 0.101
0.005 0.025 0.113
0.035 0.037 0.107
