0.031 0.011 0.047
0.031 0.015 0.049
0.007 -0.013 0.037
0.031 0.007 0.047
0.031 0.009 0.047
0.029 0.005 0.045
0.033 0.007 0.045
0.007 -0.013 0.037
0.007 -0.013 0.037
0.037 0.007 0.045
0.035 0.011 0.045
0.035 0.019 0.047
0.037 0.011 0.045
0.037 0.011 0.045
0.035 0.019 0.045
0.037 0.021 0.045
-0.007 -0.021 0.055
-0.009 -0.019 0.061
-0.003 -0.025 0.041
-0.003 -0.025 0.045
-0.011 -0.029 0.035
-0.003 -0.023 0.037
-0.003 -0.029 0.051
-0.003 -0.029 0.053
-0.003 -0.023 0.049
-0.003 -0.019 0.047
-0.003 -0.023 0.051
-0.013 -0.035 0.043
-0.003 -0.029 0.051
-0.003 -0.029 0.053
-0.003 -0.025 0.053
-0.005 -0.029 0.057
-0.005 -0.027 0.061
-0.003 -0.011 0.043
0.037 0.023 0.053
0.037 0.025 0.055
0.033 0.021 0.059
0.037 0.029 0.059
0.035 0.025 0.061
-0.025 -0.027 0.055
-0.013 -0.019 0.061
-0.011 -0.019 0.067
0.027 0.021 0.071
-0.003 -0.017 0.039
-0.003 -0.017 0.045
-0.003 -0.015 0.045
-0.003 -0.023 0.037
0.001 -0.017 0.037
-0.003 -0.011 0.043
-0.005 -0.013 0.049
-0.007 -0.017 0.053
-0.005 -0.017 0.051
-0.005 -0.021 0.051
-0.005 -0.017 0.049
-0.005 -0.019 0.051
0.013 0.003 0.051
0.009 0.001 0.051
-0.007 -0.009 0.049
-0.005 -0.009 0.045
-0.005 -0.015 0.049
-0.009 -0.011 0.049
-0.003 -0.025 0.035
0.007 -0.015 0.037
0.005 -0.013 0.039
0.033 0.007 0.045
-0.003 -0.019 0.041
-0.003 -0.023 0.033
-0.003 -0.021 0.045
-0.005 -0.021 0.049
-0.003 -0.023 0.049
-0.003 -0.027 0.043
-0.003 -0.025 0.047
-0.005 -0.019 0.049
-0.003 -0.023 0.045
-0.003 -0.019 0.047
0.033 0.017 0.051
0.033 0.013 0.047
0.031 0.009 0.047
0.037 0.025 0.053
0.037 0.023 0.053
0.013 0.003 0.051
-0.011 -0.009 0.051
0.013 0.007 0.055
0.035 0.025 0.061
0.031 0.007 0.047
0.035 0.013 0.045
0.033 0.017 0.051
0.031 0.009 0.047
-0.007 -0.019 0.053
-0.007 -0.019 0.053
-0.011 -0.021 0.057
-0.025 -0.027 0.055
-0.007 -0.019 0.053
-0.009 -0.019 0.063
-0.017 -0.015 0.065
-0.003 -0.025 0.055
-0.005 -0.021 0.055
-0.003 -0.025 0.055
-0.007 -0.019 0.053
-0.007 -0.021 0.055
-0.005 -0.027 0.057
-0.005 -0.027 0.061
-0.009 -0.019 0.063
-0.005 -0.023 0.061
0.011 0.007 0.057
0.033 0.027 0.065
0.003 0.001 0.067
-0.017 -0.015 0.057
0.027 0.023 0.073
0.025 0.019 0.071
-0.013 -0.011 0.055
0.031 0.019 0.059
-0.013 -0.009 0.057
0.007 0.007 0.063
0.005 0.005 0.065
-0.035 -0.031 0.081
-0.017 -0.015 0.073
-0.017 -0.013 0.069
-0.017 -0.013 0.073
-0.005 -0.005 0.077
-0.001 -0.001 0.075
-0.019 -0.017 0.083
-0.015 -0.015 0.081
-0.015 -0.013 0.079
-0.017 -0.017 0.077
-0.011 -0.009 0.079
0.041 0.025 0.081
0.021 0.019 0.077
0.041 0.027 0.081
0.047 0.027 0.085
-0.017 -0.015 0.085
-0.033 -0.025 0.085
-0.009 -0.007 0.085
-0.005 0.003 0.085
-0.007 -0.001 0.089
0.039 0.027 0.095
-0.013 -0.017 0.073
-0.017 -0.015 0.075
-0.015 -0.015 0.081
-0.011 -0.017 0.065
-0.017 -0.013 0.067
0.023 0.021 0.075
0.019 0.017 0.075
0.023 0.021 0.075
0.047 0.029 0.083
0.003 0.005 0.073
0.001 0.003 0.075
0.047 0.029 0.083
-0.001 -0.001 0.077
0.047 0.033 0.089
0.047 0.029 0.083
0.005 0.005 0.067
-0.007 -0.005 0.079
0.001 0.001 0.077
0.001 0.001 0.075
-0.001 -0.001 0.075
-0.001 -0.001 0.073
-0.011 -0.009 0.085
0.043 0.031 0.091
0.029 0.023 0.093
0.039 0.029 0.095
-0.013 -0.007 0.091
-0.015 -0.005 0.091
-0.019 -0.007 0.093
-0.011 -0.007 0.089
-0.013 -0.007 0.091
-0.013 -0.009 0.089
0.039 0.025 0.097
0.039 0.025 0.097
0.039 0.025 0.097
0.041 0.027 0.099
-0.009 -0.007 0.087
-0.005 -0.003 0.081
-0.007 -0.005 0.085
-0.003 -0.001 0.081
-0.005 -0.003 0.083
-0.003 -0.001 0.081
-0.015 -0.009 0.091
-0.007 -0.001 0.089
0.007 -0.015 0.037
0.007 -0.013 0.037
0.031 0.005 0.045
0.005 -0.011 0.037
0.037 0.011 0.045
0.035 0.009 0.045
0.041 0.013 0.043
0.043 0.011 0.043
0.037 0.009 0.045
0.031 0.007 0.047
0.033 0.007 0.045
0.025 0.007 0.049
0.043 0.011 0.043
0.037 0.035 0.051
0.037 0.031 0.059
0.035 0.033 0.059
0.037 0.031 0.059
0.037 0.031 0.059
0.037 0.033 0.055
0.037 0.029 0.057
0.037 0.027 0.053
0.035 0.021 0.049
0.037 0.027 0.049
0.037 0.027 0.057
0.037 0.029 0.057
0.035 0.023 0.057
0.037 0.029 0.057
0.037 0.033 0.055
0.037 0.035 0.047
0.033 0.039 0.047
0.037 0.037 0.049
0.035 0.039 0.051
0.035 0.037 0.053
0.033 0.029 0.067
0.035 0.029 0.061
0.033 0.027 0.067
0.031 0.023 0.067
0.033 0.021 0.059
0.035 0.027 0.061
0.033 0.025 0.063
0.035 0.029 0.063
0.033 0.029 0.065
0.027 0.021 0.069
0.009 0.007 0.059
0.031 0.029 0.069
0.031 0.029 0.069
0.033 0.035 0.063
0.029 0.033 0.071
0.029 0.033 0.071
0.031 0.035 0.067
0.031 0.033 0.069
0.019 0.039 0.043
0.021 0.019 0.075
0.025 0.025 0.075
0.023 0.029 0.077
0.045 0.039 0.089
0.025 0.021 0.073
0.023 0.029 0.077
0.023 0.029 0.077
0.033 0.021 0.085
0.025 0.033 0.073
0.029 0.033 0.071
0.041 0.029 0.097
0.041 0.027 0.101
-0.003 0.001 0.083
0.027 0.021 0.091
0.049 0.039 0.091
0.045 0.037 0.089
0.049 0.039 0.093
0.047 0.035 0.089
0.025 0.025 0.091
0.047 0.035 0.091
0.041 0.031 0.097
0.041 0.027 0.099
0.049 0.037 0.093
0.031 0.041 0.093
0.033 0.037 0.093
0.029 0.041 0.093
0.037 0.045 0.099
0.037 0.045 0.099
0.043 0.029 0.101
0.041 0.043 0.101
0.009 0.025 0.113
0.011 0.023 0.109
0.011 0.023 0.109
0.011 0.025 0.109
0.009 0.023 0.113
0.035 0.021 0.037
0.037 0.027 0.039
0.041 0.015 0.035
0.035 0.035 0.041
0.033 0.037 0.039
0.035 0.035 0.039
0.035 0.035 0.039
0.035 0.033 0.037
0.041 0.013 0.033
0.037 0.023 0.045
0.037 0.019 0.041
0.033 0.017 0.047
0.035 0.019 0.047
0.037 0.019 0.041
0.037 0.025 0.045
0.033 0.013 0.047
0.029 0.011 0.051
0.041 0.013 0.041
0.041 0.015 0.039
0.041 0.013 0.041
0.037 0.019 0.035
0.039 0.015 0.043
0.031 0.009 0.047
0.027 0.009 0.049
0.039 0.009 0.045
0.035 0.007 0.045
0.033 0.013 0.047
0.037 0.035 0.043
0.037 0.029 0.041
0.033 0.039 0.051
0.035 0.027 0.037
0.033 0.035 0.037
0.035 0.029 0.035
0.033 0.033 0.035
0.007 0.003 0.061
0.031 0.013 0.051
0.031 0.013 0.049
0.037 0.029 0.059
0.035 0.037 0.057
0.033 0.039 0.057
0.035 0.037 0.059
0.035 0.037 0.059
0.033 0.037 0.059
0.033 0.033 0.065
0.031 0.031 0.069
0.033 0.031 0.067
0.035 0.029 0.063
0.033 0.029 0.067
0.035 0.035 0.061
0.033 0.037 0.061
0.033 0.033 0.065
0.035 0.023 0.057
0.033 0.027 0.067
0.033 0.025 0.065
0.041 0.013 0.033
0.041 0.009 0.037
0.043 0.011 0.039
0.041 0.015 0.039
0.043 0.011 0.043
0.041 0.007 0.041
0.039 0.009 0.045
0.035 0.015 0.045
0.037 0.019 0.033
0.037 0.019 0.035
0.033 0.021 0.035
0.035 0.023 0.043
0.037 0.025 0.047
0.037 0.023 0.051
0.033 0.017 0.055
0.037 0.025 0.049
0.039 0.031 0.049
0.039 0.029 0.051
0.037 0.027 0.059
0.027 0.041 0.039
0.027 0.041 0.039
0.025 0.043 0.039
0.023 0.045 0.041
0.023 0.049 0.039
0.029 0.041 0.049
0.019 0.041 0.045
0.019 0.043 0.049
0.017 0.041 0.045
0.027 0.041 0.037
0.027 0.039 0.037
0.031 0.033 0.033
0.033 0.035 0.037
0.031 0.039 0.039
0.027 0.045 0.037
0.027 0.043 0.039
0.029 0.041 0.047
0.023 0.045 0.041
0.023 0.045 0.041
0.027 0.041 0.045
0.021 0.051 0.037
0.029 0.041 0.057
0.035 0.039 0.049
0.035 0.039 0.053
0.027 0.039 0.065
0.037 0.033 0.039
0.035 0.037 0.041
0.033 0.039 0.045
0.033 0.039 0.047
0.001 0.001 0.071
0.003 0.003 0.071
0.025 0.019 0.069
0.027 0.021 0.071
0.029 0.023 0.071
0.027 0.023 0.073
0.003 0.007 0.073
0.047 0.027 0.083
0.001 0.003 0.077
0.043 0.033 0.083
0.049 0.033 0.085
0.029 0.029 0.073
0.027 0.035 0.071
0.027 0.037 0.069
0.025 0.035 0.071
0.023 0.027 0.077
0.023 0.025 0.077
0.045 0.041 0.085
0.023 0.021 0.077
0.045 0.031 0.083
0.021 0.033 0.075
0.045 0.043 0.085
0.043 0.043 0.085
0.031 0.025 0.069
0.029 0.021 0.067
0.029 0.027 0.071
0.031 0.029 0.069
0.027 0.023 0.073
0.041 0.027 0.081
0.023 0.027 0.077
0.043 0.033 0.083
0.043 0.041 0.083
0.029 0.027 0.073
0.029 0.029 0.073
0.029 0.021 0.089
0.047 0.035 0.093
0.045 0.029 0.089
0.041 0.031 0.099
0.041 0.031 0.097
0.019 0.015 0.091
0.047 0.037 0.087
0.047 0.039 0.087
0.037 0.041 0.089
0.027 0.027 0.091
0.035 0.031 0.097
0.035 0.043 0.095
0.049 0.033 0.085
0.047 0.035 0.085
0.049 0.031 0.087
0.045 0.029 0.089
0.049 0.031 0.087
0.045 0.037 0.089
0.025 0.019 0.091
0.027 0.021 0.091
0.039 0.027 0.095
0.037 0.025 0.095
0.031 0.023 0.089
0.027 0.023 0.091
0.039 0.027 0.095
0.039 0.029 0.095
0.045 0.035 0.093
0.037 0.031 0.097
0.039 0.039 0.097
0.049 0.039 0.091
0.049 0.037 0.091
0.049 0.039 0.091
0.041 0.031 0.097
0.049 0.033 0.087
0.047 0.029 0.083
0.047 0.027 0.085
0.049 0.033 0.085
0.047 0.027 0.085
0.049 0.031 0.085
0.025 0.035 0.071
0.039 0.043 0.081
0.027 0.035 0.071
0.025 0.033 0.073
0.039 0.043 0.087
0.027 0.041 0.093
0.025 0.039 0.091
0.037 0.045 0.099
0.045 0.041 0.087
0.041 0.043 0.085
0.041 0.043 0.087
0.039 0.041 0.089
0.033 0.039 0.093
0.037 0.041 0.095
0.033 0.043 0.095
0.037 0.043 0.097
0.033 0.043 0.097
0.033 0.039 0.093
0.041 0.039 0.083
0.043 0.043 0.085
0.045 0.041 0.085
0.049 0.039 0.091
0.043 0.041 0.089
0.037 0.039 0.095
0.047 0.035 0.089
0.049 0.037 0.091
0.029 0.023 0.103
0.017 0.017 0.105
0.029 0.023 0.103
0.041 0.027 0.099
0.029 0.023 0.103
0.017 0.015 0.101
0.027 0.021 0.103
0.025 0.037 0.103
0.015 0.035 0.105
0.037 0.035 0.107
0.011 0.027 0.107
0.017 0.033 0.105
0.019 0.033 0.105
0.027 0.021 0.101
0.029 0.023 0.103
0.039 0.025 0.099
0.039 0.025 0.099
0.029 0.023 0.103
0.017 0.017 0.105
0.025 0.023 0.105
0.027 0.025 0.105
0.027 0.025 0.105
0.037 0.037 0.107
0.041 0.031 0.097
0.039 0.031 0.097
0.041 0.033 0.099
0.043 0.031 0.101
0.043 0.031 0.101
0.043 0.029 0.103
0.037 0.043 0.103
0.019 0.037 0.103
0.037 0.045 0.101
0.023 0.039 0.103
0.037 0.043 0.103
0.037 0.045 0.099
0.041 0.043 0.101
0.025 0.037 0.103
0.023 0.039 0.103
0.041 0.043 0.101
0.039 0.039 0.097
0.039 0.043 0.099
0.041 0.041 0.101
0.039 0.045 0.101
0.041 0.043 0.103
0.043 0.033 0.105
