-0.035 -0.021 0.031
-0.035 -0.015 0.037
-0.035 -0.015 0.035
-0.035 -0.015 0.033
-0.035 -0.011 0.037
-0.035 -0.003 0.039
-0.035 -0.001 0.039
-0.035 0.001 0.039
-0.037 0.005 0.037
-0.037 0.005 0.035
-0.035 -0.033 0.053
-0.035 -0.033 0.055
-0.033 -0.027 0.037
-0.031 -0.027 0.043
-0.033 -0.035 0.047
-0.033 -0.031 0.049
-0.033 -0.031 0.045
-0.033 -0.031 0.045
-0.023 -0.025 0.047
-0.037 -0.027 0.061
-0.037 -0.027 0.063
-0.037 -0.025 0.063
-0.037 -0.023 0.065
-0.035 -0.011 0.037
-0.035 -0.009 0.039
-0.035 -0.001 0.039
-0.035 -0.003 0.041
-0.033 -0.027 0.055
-0.033 -0.027 0.057
-0.037 -0.029 0.061
-0.037 -0.027 0.061
-0.037 -0.023 0.065
-0.033 -0.009 0.057
-0.033 -0.013 0.061
-0.035 -0.011 0.061
-0.035 -0.007 0.063
-0.035 -0.023 0.035
-0.033 -0.027 0.039
-0.035 -0.009 0.039
-0.035 -0.009 0.039
-0.025 -0.025 0.045
-0.023 -0.025 0.049
-0.033 -0.015 0.041
-0.033 -0.011 0.043
-0.033 -0.009 0.045
-0.023 -0.021 0.045
-0.029 -0.011 0.049
-0.033 -0.011 0.041
-0.031 -0.013 0.045
-0.031 -0.011 0.045
-0.035 -0.003 0.041
-0.033 0.003 0.041
-0.033 -0.001 0.041
-0.031 0.001 0.043
-0.031 0.001 0.043
-0.029 0.001 0.045
-0.031 -0.005 0.051
-0.031 -0.003 0.049
-0.031 -0.007 0.051
-0.031 -0.001 0.051
-0.035 -0.009 0.035
-0.035 -0.007 0.037
-0.033 -0.003 0.043
-0.037 0.005 0.037
-0.031 -0.011 0.047
-0.033 -0.007 0.047
-0.029 0.007 0.043
-0.025 0.009 0.043
-0.027 0.007 0.045
-0.023 0.009 0.041
-0.025 0.007 0.045
-0.031 -0.001 0.051
-0.027 0.003 0.047
-0.023 0.005 0.051
-0.031 -0.027 0.055
-0.027 -0.027 0.053
-0.031 -0.025 0.059
-0.037 -0.023 0.065
-0.035 -0.021 0.065
-0.035 -0.007 0.065
-0.033 -0.005 0.067
-0.031 -0.009 0.055
-0.033 -0.007 0.057
-0.033 -0.005 0.059
-0.033 -0.005 0.061
-0.033 -0.005 0.061
-0.031 -0.001 0.057
-0.031 -0.001 0.057
-0.033 -0.005 0.061
-0.031 -0.003 0.059
-0.035 -0.007 0.069
-0.035 -0.007 0.067
-0.035 -0.007 0.063
-0.035 -0.007 0.063
-0.033 -0.003 0.065
-0.031 -0.001 0.063
-0.031 -0.007 0.051
-0.033 -0.007 0.057
-0.031 -0.007 0.051
-0.031 -0.003 0.055
-0.031 -0.001 0.061
-0.033 -0.005 0.059
-0.033 -0.003 0.063
-0.027 -0.001 0.065
-0.025 0.001 0.063
-0.021 0.001 0.061
-0.031 -0.001 0.055
-0.027 0.003 0.055
-0.025 0.003 0.053
-0.029 0.001 0.059
-0.043 -0.035 0.079
-0.043 -0.029 0.079
-0.043 -0.033 0.083
-0.043 -0.033 0.085
-0.039 -0.025 0.069
-0.039 -0.025 0.073
-0.035 -0.021 0.065
-0.035 -0.017 0.067
-0.041 -0.029 0.073
-0.041 -0.029 0.075
-0.043 -0.029 0.077
-0.043 -0.029 0.077
-0.039 -0.021 0.079
-0.039 -0.023 0.075
-0.039 -0.021 0.077
-0.037 -0.021 0.079
-0.035 -0.017 0.077
-0.037 -0.011 0.069
-0.035 -0.009 0.069
-0.033 -0.003 0.065
-0.037 -0.011 0.075
-0.033 -0.005 0.077
-0.039 -0.025 0.083
-0.039 -0.027 0.085
-0.037 -0.023 0.085
-0.033 -0.017 0.085
-0.033 -0.009 0.085
-0.035 -0.019 0.069
-0.033 -0.003 0.071
-0.037 -0.021 0.075
-0.037 -0.011 0.075
-0.035 -0.007 0.077
-0.033 -0.003 0.069
-0.027 -0.001 0.067
-0.027 -0.001 0.067
-0.033 -0.003 0.073
-0.029 -0.001 0.073
-0.031 -0.001 0.079
-0.029 -0.001 0.079
-0.023 0.003 0.075
-0.021 0.003 0.073
-0.017 0.007 0.069
-0.021 0.009 0.075
-0.023 0.007 0.081
-0.021 0.009 0.081
-0.019 0.011 0.081
-0.035 -0.013 0.083
-0.033 -0.005 0.083
-0.031 -0.009 0.089
-0.029 -0.005 0.089
-0.031 -0.001 0.081
-0.031 -0.005 0.087
-0.031 -0.011 0.089
-0.027 -0.009 0.093
-0.029 -0.007 0.091
-0.027 -0.001 0.089
-0.023 -0.003 0.093
-0.029 0.001 0.085
-0.027 0.001 0.089
-0.025 0.003 0.089
-0.025 0.005 0.085
-0.025 0.005 0.085
-0.019 0.007 0.089
-0.023 0.003 0.091
-0.025 0.009 0.043
-0.025 0.009 0.043
-0.023 0.009 0.041
-0.005 0.011 0.039
-0.007 0.009 0.045
-0.007 0.017 0.045
-0.005 0.027 0.033
-0.037 0.005 0.037
-0.029 0.009 0.039
-0.023 0.009 0.041
-0.031 0.009 0.039
-0.033 0.005 0.041
-0.029 0.003 0.045
-0.025 0.009 0.043
-0.025 0.005 0.047
-0.025 0.007 0.045
-0.023 0.005 0.047
-0.005 0.011 0.039
-0.017 0.005 0.045
-0.017 0.005 0.041
-0.017 0.005 0.047
-0.007 0.007 0.047
-0.009 0.009 0.047
-0.009 0.009 0.049
-0.009 0.011 0.047
-0.007 0.015 0.045
-0.005 0.023 0.035
-0.005 0.021 0.037
-0.005 0.029 0.037
-0.005 0.029 0.039
-0.007 0.019 0.043
-0.007 0.019 0.045
-0.007 0.023 0.045
-0.005 0.027 0.043
-0.003 0.029 0.043
-0.025 0.005 0.049
-0.027 0.003 0.053
-0.029 0.001 0.059
-0.025 0.003 0.057
-0.023 0.003 0.059
-0.023 0.003 0.059
-0.021 0.003 0.057
-0.011 0.007 0.053
-0.009 0.011 0.049
-0.011 0.013 0.051
-0.011 0.015 0.051
-0.013 0.007 0.059
-0.013 0.005 0.061
-0.015 0.005 0.063
-0.015 0.007 0.061
-0.015 0.007 0.063
-0.013 0.005 0.059
-0.013 0.015 0.059
-0.015 0.009 0.061
-0.015 0.013 0.061
-0.009 0.019 0.055
-0.011 0.017 0.061
-0.009 0.019 0.063
-0.009 0.019 0.061
-0.003 0.033 0.035
-0.017 0.013 0.069
-0.023 0.005 0.077
-0.019 0.009 0.073
-0.015 0.005 0.065
-0.017 0.007 0.067
-0.017 0.013 0.077
-0.019 0.011 0.081
-0.015 0.013 0.081
-0.017 0.013 0.075
-0.013 0.015 0.077
-0.009 0.017 0.075
-0.007 0.015 0.079
-0.009 0.019 0.067
-0.007 0.017 0.071
-0.005 0.019 0.069
-0.029 0.001 0.085
-0.021 0.009 0.085
-0.027 0.001 0.089
-0.025 0.003 0.089
-0.023 0.005 0.089
-0.015 0.009 0.087
-0.013 0.011 0.087
-0.015 0.013 0.083
-0.013 0.011 0.087
-0.019 0.005 0.091
-0.019 0.005 0.091
-0.019 0.007 0.089
-0.015 0.007 0.089
-0.015 0.005 0.091
-0.013 0.007 0.091
-0.013 0.007 0.091
-0.015 0.003 0.093
-0.011 0.009 0.089
-0.001 0.019 0.083
-0.007 0.029 0.087
-0.005 0.029 0.087
-0.003 0.031 0.089
-0.003 0.031 0.089
-0.001 0.009 0.103
-0.007 0.029 0.097
-0.009 0.017 0.111
-0.007 0.019 0.111
-0.001 0.033 0.097
-0.001 0.019 0.035
-0.003 0.015 0.037
-0.007 0.027 0.039
-0.005 0.025 0.033
-0.007 0.027 0.035
0.005 0.037 0.035
0.005 0.037 0.035
-0.005 0.029 0.041
0.005 0.035 0.039
-0.005 0.013 0.041
-0.001 0.015 0.035
-0.003 0.017 0.037
-0.009 0.015 0.047
-0.007 0.011 0.043
-0.009 0.017 0.049
-0.007 0.023 0.043
-0.007 0.027 0.041
-0.005 0.027 0.043
-0.003 0.029 0.039
-0.005 0.029 0.041
0.001 0.027 0.047
-0.007 0.021 0.049
-0.005 0.025 0.051
0.001 0.025 0.051
0.007 0.025 0.053
-0.007 0.027 0.037
-0.003 0.031 0.037
0.001 0.033 0.039
0.003 0.033 0.041
0.005 0.035 0.043
0.003 0.035 0.039
0.011 0.041 0.039
-0.011 0.009 0.053
-0.007 0.021 0.053
-0.007 0.021 0.057
-0.001 0.021 0.059
-0.013 0.015 0.061
-0.013 0.017 0.063
-0.009 0.019 0.061
-0.005 0.021 0.063
-0.009 0.019 0.065
-0.003 0.023 0.055
0.001 0.023 0.057
0.007 0.023 0.055
0.003 0.023 0.055
0.005 0.023 0.055
0.005 0.023 0.055
0.007 0.025 0.053
0.013 0.025 0.059
0.009 0.021 0.057
0.003 0.027 0.049
0.005 0.027 0.051
0.005 0.029 0.049
0.001 0.025 0.053
0.007 0.033 0.049
0.005 0.019 0.061
0.005 0.021 0.059
0.013 0.025 0.059
0.011 0.027 0.061
0.009 0.025 0.065
0.009 0.029 0.065
0.011 0.027 0.063
0.011 0.029 0.061
0.011 0.029 0.061
-0.003 0.029 0.043
0.001 0.027 0.045
-0.001 0.025 0.047
0.003 0.033 0.043
0.007 0.031 0.047
0.007 0.033 0.047
0.001 0.025 0.053
0.009 0.031 0.051
0.005 0.035 0.045
0.009 0.039 0.043
0.009 0.039 0.039
0.011 0.041 0.045
0.007 0.037 0.047
0.007 0.037 0.049
0.011 0.031 0.053
0.009 0.039 0.051
0.011 0.035 0.053
0.015 0.035 0.057
0.013 0.033 0.063
0.021 0.039 0.063
0.005 0.037 0.035
0.011 0.041 0.039
0.007 0.037 0.043
0.007 0.037 0.045
0.009 0.039 0.047
0.007 0.039 0.037
0.011 0.041 0.037
0.011 0.041 0.037
0.013 0.043 0.039
0.015 0.043 0.041
0.015 0.049 0.037
0.019 0.049 0.039
0.021 0.047 0.039
0.013 0.041 0.043
0.017 0.041 0.045
0.023 0.041 0.045
0.017 0.043 0.041
0.017 0.051 0.035
0.017 0.051 0.037
0.017 0.051 0.037
0.009 0.039 0.051
0.013 0.041 0.053
0.017 0.043 0.051
0.015 0.043 0.051
0.021 0.039 0.057
0.021 0.039 0.063
0.025 0.041 0.057
0.023 0.041 0.051
0.023 0.041 0.053
0.029 0.041 0.051
0.027 0.039 0.063
-0.005 0.019 0.069
-0.013 0.015 0.075
-0.005 0.017 0.075
0.005 0.027 0.071
0.009 0.025 0.065
0.009 0.031 0.067
0.001 0.019 0.075
0.001 0.021 0.079
0.003 0.025 0.077
0.003 0.027 0.077
0.005 0.029 0.077
0.009 0.031 0.079
0.007 0.025 0.067
0.005 0.025 0.071
0.003 0.025 0.073
0.011 0.033 0.071
0.011 0.033 0.075
0.013 0.031 0.079
0.017 0.033 0.075
-0.001 0.019 0.085
0.001 0.009 0.087
0.001 0.011 0.087
-0.001 0.017 0.087
-0.001 0.019 0.085
-0.001 0.019 0.085
-0.001 0.021 0.083
0.003 0.011 0.091
-0.001 0.017 0.089
-0.001 0.017 0.091
-0.003 0.019 0.091
0.001 0.011 0.095
-0.003 0.029 0.091
-0.001 0.021 0.085
0.003 0.031 0.083
-0.001 0.031 0.085
0.001 0.031 0.087
0.003 0.031 0.085
0.009 0.033 0.083
0.007 0.033 0.085
0.007 0.033 0.085
-0.007 0.029 0.095
-0.001 0.031 0.093
-0.003 0.031 0.089
0.003 0.031 0.085
0.007 0.033 0.085
0.003 0.033 0.087
0.011 0.035 0.087
0.015 0.035 0.087
0.013 0.035 0.085
-0.001 0.033 0.097
0.013 0.037 0.093
0.013 0.037 0.097
0.011 0.035 0.097
0.013 0.037 0.097
0.019 0.037 0.069
0.011 0.035 0.085
0.017 0.037 0.085
0.019 0.037 0.085
0.031 0.039 0.087
0.033 0.039 0.089
0.025 0.039 0.091
0.013 0.033 0.065
0.011 0.033 0.071
0.017 0.037 0.065
0.019 0.035 0.071
0.023 0.039 0.065
0.025 0.039 0.065
0.015 0.035 0.073
0.017 0.033 0.075
0.011 0.035 0.085
0.021 0.037 0.081
0.017 0.037 0.087
0.019 0.037 0.089
0.027 0.037 0.087
0.017 0.037 0.091
0.021 0.039 0.095
0.019 0.037 0.091
0.019 0.037 0.097
0.023 0.041 0.095
0.023 0.037 0.067
0.029 0.039 0.083
0.033 0.039 0.087
0.039 0.043 0.087
0.041 0.043 0.083
0.023 0.039 0.091
0.027 0.041 0.095
0.035 0.043 0.095
0.003 0.015 0.097
0.005 0.015 0.099
-0.007 0.025 0.097
-0.007 0.029 0.101
-0.007 0.029 0.101
-0.003 0.031 0.101
0.001 0.029 0.103
0.001 0.029 0.103
0.001 0.023 0.105
0.003 0.025 0.107
0.001 0.033 0.107
-0.003 0.029 0.103
0.001 0.031 0.105
0.009 0.035 0.101
0.005 0.035 0.105
0.007 0.035 0.105
0.015 0.033 0.105
0.015 0.037 0.099
0.017 0.037 0.103
0.029 0.037 0.101
0.001 0.033 0.097
0.011 0.035 0.097
0.003 0.035 0.107
0.005 0.035 0.105
0.015 0.037 0.097
0.013 0.035 0.103
0.015 0.035 0.105
0.021 0.033 0.105
0.029 0.041 0.099
0.031 0.043 0.099
0.035 0.039 0.105
0.035 0.043 0.099
0.037 0.043 0.103
