-0.005 -0.017 0.049
-0.003 -0.023 0.047
-0.005 -0.011 0.049
-0.007 -0.009 0.049
-0.003 -0.019 0.041
-0.003 -0.019 0.039
-0.007 -0.007 0.047
-0.005 -0.009 0.045
-0.009 -0.023 0.065
-0.025 -0.031 0.061
-0.027 -0.029 0.063
-0.005 -0.031 0.053
-0.005 -0.027 0.061
-0.007 -0.025 0.063
-0.005 -0.029 0.057
-0.013 -0.035 0.037
-0.021 -0.037 0.055
-0.019 -0.039 0.049
-0.005 -0.027 0.059
-0.013 -0.013 0.051
-0.013 -0.011 0.055
-0.011 -0.009 0.053
0.005 0.005 0.065
0.027 0.019 0.087
0.005 0.009 0.071
-0.009 -0.021 0.067
-0.011 -0.019 0.071
-0.013 -0.017 0.073
-0.003 -0.001 0.081
-0.005 -0.003 0.083
-0.005 -0.021 0.051
-0.005 -0.019 0.051
-0.003 -0.017 0.047
-0.003 -0.019 0.047
-0.019 -0.019 0.047
-0.021 -0.023 0.047
-0.005 -0.021 0.057
-0.007 -0.021 0.055
-0.015 -0.015 0.049
-0.009 -0.019 0.055
-0.011 -0.015 0.051
-0.003 -0.021 0.043
-0.003 -0.023 0.035
-0.003 -0.015 0.037
0.005 -0.013 0.039
-0.003 -0.019 0.041
-0.003 -0.023 0.049
-0.005 -0.023 0.053
-0.003 -0.025 0.051
-0.003 -0.023 0.051
-0.003 -0.027 0.043
-0.003 -0.029 0.049
-0.003 -0.019 0.047
-0.005 -0.019 0.051
-0.005 -0.017 0.051
-0.005 -0.021 0.053
-0.005 -0.015 0.051
-0.005 -0.015 0.051
-0.009 -0.015 0.051
-0.003 -0.023 0.043
-0.007 -0.007 0.047
0.005 0.003 0.063
0.007 0.007 0.065
0.009 0.005 0.059
0.033 0.021 0.085
0.009 0.011 0.059
0.011 0.007 0.057
-0.013 -0.007 0.055
-0.003 -0.013 0.039
-0.003 -0.013 0.039
-0.003 -0.013 0.039
0.001 -0.009 0.039
0.011 0.007 0.057
0.011 -0.001 0.047
0.013 0.001 0.047
0.013 0.001 0.049
0.013 0.001 0.047
0.013 0.003 0.045
0.013 0.001 0.049
0.007 0.001 0.053
0.009 0.005 0.059
-0.005 -0.007 0.047
-0.009 -0.021 0.065
-0.007 -0.025 0.063
-0.007 -0.025 0.063
-0.011 -0.019 0.071
-0.025 -0.029 0.061
-0.015 -0.013 0.065
-0.013 -0.017 0.073
-0.017 -0.013 0.071
-0.017 -0.015 0.069
-0.003 -0.027 0.055
-0.003 -0.025 0.055
-0.007 -0.021 0.055
-0.003 -0.023 0.051
-0.005 -0.021 0.049
-0.003 -0.023 0.049
-0.005 -0.019 0.051
-0.009 -0.027 0.063
-0.005 -0.029 0.061
-0.009 -0.021 0.063
-0.007 -0.021 0.059
-0.009 -0.019 0.061
-0.005 -0.023 0.057
-0.005 -0.023 0.059
-0.005 -0.023 0.061
0.001 -0.001 0.069
-0.015 -0.011 0.065
0.003 0.005 0.075
0.019 0.015 0.087
0.003 0.007 0.075
0.019 0.015 0.091
0.017 0.015 0.097
0.001 0.005 0.079
-0.015 -0.013 0.053
-0.013 -0.011 0.055
-0.005 -0.011 0.049
0.003 0.001 0.067
0.005 0.003 0.065
0.003 0.003 0.073
-0.037 -0.033 0.085
-0.037 -0.033 0.085
-0.031 -0.029 0.069
-0.019 -0.019 0.077
-0.023 -0.021 0.079
-0.033 -0.025 0.079
-0.033 -0.027 0.081
-0.033 -0.021 0.081
-0.033 -0.025 0.077
-0.017 -0.013 0.089
-0.017 -0.015 0.087
0.009 0.011 0.101
-0.011 -0.003 0.091
-0.015 -0.003 0.091
-0.015 -0.001 0.093
-0.033 -0.025 0.087
-0.033 -0.025 0.085
-0.033 -0.025 0.085
-0.023 -0.015 0.089
-0.021 -0.015 0.089
-0.019 -0.007 0.093
-0.021 -0.011 0.091
-0.015 -0.001 0.093
-0.029 -0.031 0.067
-0.029 -0.031 0.067
-0.015 -0.015 0.081
-0.017 -0.017 0.069
-0.019 -0.017 0.083
-0.019 -0.017 0.083
-0.013 -0.017 0.073
-0.003 0.005 0.083
-0.017 -0.015 0.077
-0.005 -0.003 0.081
-0.003 0.001 0.083
0.003 0.003 0.073
0.001 0.001 0.071
0.001 0.001 0.073
-0.011 -0.009 0.083
-0.001 0.001 0.081
-0.005 -0.003 0.081
-0.001 -0.001 0.077
-0.007 -0.005 0.079
-0.017 -0.013 0.089
-0.021 -0.015 0.089
-0.019 -0.017 0.085
-0.023 -0.015 0.089
-0.021 -0.015 0.089
-0.017 -0.015 0.087
-0.021 -0.017 0.087
-0.023 -0.015 0.089
-0.015 0.001 0.095
-0.021 -0.003 0.095
-0.013 -0.011 0.081
-0.009 -0.007 0.083
-0.003 -0.001 0.081
-0.013 -0.007 0.091
-0.013 -0.001 0.091
0.023 0.001 0.039
0.009 -0.011 0.035
0.005 -0.011 0.037
0.003 -0.009 0.037
0.005 -0.013 0.039
0.005 -0.013 0.039
0.013 -0.003 0.043
0.003 -0.007 0.039
0.013 0.001 0.049
0.005 0.001 0.061
0.001 -0.001 0.067
0.033 0.023 0.087
0.035 0.023 0.083
0.037 0.029 0.089
0.035 0.025 0.087
0.033 0.023 0.087
0.033 0.023 0.087
0.011 0.009 0.057
0.009 0.009 0.059
0.035 0.023 0.085
0.007 0.011 0.063
0.013 0.009 0.055
0.013 0.011 0.055
0.009 0.011 0.059
0.031 0.035 0.065
0.029 0.037 0.067
0.029 0.037 0.067
0.033 0.023 0.099
0.025 0.019 0.099
0.007 0.009 0.067
0.009 0.011 0.061
0.005 0.009 0.071
0.005 0.007 0.071
0.039 0.027 0.097
0.043 0.031 0.105
0.043 0.037 0.093
0.049 0.039 0.093
0.033 0.031 0.089
0.017 0.017 0.105
0.019 0.017 0.103
0.019 0.017 0.101
0.027 0.025 0.105
0.029 0.029 0.103
0.029 0.025 0.101
0.043 0.035 0.105
0.037 0.033 0.107
0.037 0.031 0.105
0.009 0.015 0.109
0.017 0.019 0.105
0.011 0.017 0.107
0.009 0.019 0.103
-0.001 0.001 0.081
0.021 0.023 0.105
0.015 0.019 0.105
0.025 0.019 0.099
0.023 0.019 0.101
0.025 0.021 0.103
0.009 0.011 0.101
0.005 0.009 0.099
0.015 0.017 0.107
0.017 0.017 0.105
0.021 0.035 0.103
0.025 0.037 0.103
0.019 0.025 0.105
0.015 0.025 0.105
0.015 0.031 0.105
0.009 0.029 0.105
-0.007 0.015 0.113
-0.005 0.015 0.111
0.005 0.031 0.107
0.005 0.031 0.107
0.031 0.007 0.047
0.033 0.015 0.047
0.035 0.021 0.051
0.035 0.019 0.045
0.039 0.017 0.039
0.035 0.033 0.061
0.039 0.029 0.047
0.041 0.015 0.039
0.037 0.019 0.035
0.025 0.007 0.047
0.031 0.013 0.053
0.019 0.005 0.047
0.029 0.013 0.055
0.031 0.019 0.059
0.031 0.019 0.059
0.035 0.027 0.061
0.037 0.023 0.053
0.013 0.001 0.047
0.035 0.009 0.045
0.031 0.005 0.045
0.033 0.005 0.043
0.035 0.009 0.045
0.037 0.011 0.045
0.033 0.015 0.047
0.033 0.017 0.049
0.033 0.015 0.047
0.037 0.019 0.043
0.021 0.003 0.043
0.031 0.005 0.045
0.031 0.009 0.047
0.031 0.009 0.047
0.033 0.013 0.047
0.035 0.033 0.063
0.035 0.031 0.063
0.035 0.035 0.059
0.035 0.037 0.059
0.037 0.033 0.053
0.035 0.037 0.055
0.031 0.033 0.069
0.045 0.039 0.085
0.039 0.029 0.049
0.037 0.021 0.045
0.035 0.023 0.037
0.039 0.031 0.049
0.037 0.027 0.039
0.009 0.003 0.055
0.009 0.005 0.059
0.013 0.005 0.051
0.013 0.009 0.055
0.009 0.009 0.059
0.047 0.027 0.085
0.023 0.009 0.051
0.029 0.017 0.057
0.031 0.013 0.051
0.031 0.013 0.053
0.031 0.013 0.051
0.029 0.015 0.057
0.049 0.033 0.087
0.045 0.041 0.087
0.049 0.039 0.091
0.049 0.039 0.093
0.049 0.039 0.091
0.049 0.033 0.087
0.049 0.039 0.091
0.049 0.031 0.085
0.049 0.031 0.085
0.047 0.029 0.087
0.047 0.027 0.085
0.041 0.011 0.037
0.037 0.007 0.045
0.043 0.009 0.043
0.039 0.009 0.045
0.039 0.009 0.045
0.039 0.017 0.039
0.037 0.033 0.041
0.035 0.017 0.045
0.037 0.025 0.045
0.033 0.021 0.055
0.037 0.031 0.051
0.037 0.027 0.053
0.037 0.031 0.059
0.031 0.041 0.055
0.033 0.039 0.053
0.025 0.041 0.047
0.029 0.039 0.063
0.027 0.039 0.063
0.029 0.041 0.057
0.033 0.039 0.047
0.037 0.037 0.049
0.031 0.041 0.045
0.027 0.041 0.039
0.037 0.035 0.043
0.033 0.033 0.035
0.025 0.047 0.039
0.027 0.043 0.037
0.031 0.041 0.047
0.023 0.041 0.045
0.023 0.045 0.041
0.023 0.041 0.057
0.027 0.039 0.065
0.015 0.041 0.053
0.017 0.043 0.051
0.043 0.043 0.087
0.033 0.039 0.057
0.019 0.043 0.051
0.045 0.043 0.083
0.031 0.039 0.063
0.037 0.035 0.043
0.033 0.039 0.041
0.037 0.035 0.049
0.033 0.037 0.061
0.003 0.003 0.071
0.019 0.015 0.087
0.047 0.039 0.093
0.043 0.031 0.103
0.041 0.029 0.103
0.041 0.027 0.099
0.043 0.029 0.103
0.041 0.037 0.103
0.039 0.039 0.099
0.041 0.039 0.105
0.041 0.025 0.085
0.043 0.027 0.087
0.047 0.029 0.087
0.031 0.025 0.067
0.033 0.021 0.083
0.047 0.031 0.089
0.047 0.033 0.089
0.047 0.035 0.089
0.033 0.023 0.099
0.017 0.015 0.097
0.027 0.021 0.099
0.037 0.023 0.099
0.029 0.023 0.099
0.017 0.015 0.099
0.021 0.019 0.103
0.017 0.015 0.101
0.017 0.015 0.101
0.017 0.019 0.105
0.021 0.019 0.103
0.025 0.019 0.099
0.023 0.019 0.101
0.021 0.017 0.099
0.019 0.015 0.091
0.039 0.025 0.101
0.037 0.035 0.107
0.037 0.037 0.107
0.035 0.039 0.105
0.025 0.025 0.105
0.041 0.029 0.099
0.041 0.027 0.101
0.035 0.023 0.099
0.039 0.025 0.097
0.037 0.023 0.099
0.031 0.021 0.087
0.043 0.033 0.103
0.043 0.035 0.103
0.041 0.039 0.103
0.041 0.031 0.097
0.029 0.023 0.099
0.041 0.027 0.099
0.037 0.025 0.101
0.033 0.023 0.099
0.037 0.023 0.099
0.037 0.023 0.099
0.037 0.037 0.107
0.037 0.033 0.107
0.033 0.029 0.067
0.033 0.031 0.067
0.043 0.025 0.083
0.047 0.029 0.085
0.039 0.025 0.099
0.041 0.027 0.101
0.047 0.031 0.089
0.037 0.039 0.089
0.043 0.041 0.089
0.027 0.039 0.065
0.049 0.039 0.091
0.047 0.039 0.087
0.041 0.041 0.089
0.039 0.041 0.105
0.019 0.037 0.103
0.023 0.039 0.103
0.025 0.037 0.101
0.041 0.039 0.103
0.041 0.041 0.103
0.041 0.041 0.101
0.035 0.035 0.089
0.037 0.037 0.089
0.037 0.041 0.089
0.033 0.039 0.089
0.035 0.041 0.089
0.031 0.033 0.089
0.035 0.037 0.089
0.039 0.041 0.089
0.039 0.039 0.105
0.041 0.041 0.103
0.041 0.041 0.103
0.041 0.039 0.105
0.025 0.039 0.097
0.029 0.041 0.099
0.023 0.039 0.097
0.041 0.037 0.103
0.037 0.045 0.101
0.047 0.039 0.093
0.045 0.041 0.087
0.045 0.037 0.093
0.041 0.041 0.089
0.047 0.039 0.093
0.049 0.039 0.091
0.049 0.033 0.087
0.045 0.043 0.085
0.039 0.041 0.099
0.039 0.039 0.097
0.047 0.035 0.093
0.045 0.033 0.091
0.047 0.039 0.093
0.049 0.037 0.093
0.041 0.041 0.089
0.013 0.015 0.107
0.011 0.013 0.109
0.015 0.017 0.107
0.015 0.017 0.107
0.015 0.015 0.107
0.017 0.021 0.105
0.013 0.025 0.107
0.013 0.023 0.107
0.017 0.021 0.105
0.013 0.031 0.105
0.011 0.029 0.105
0.011 0.031 0.105
0.005 0.021 0.109
0.009 0.025 0.113
0.005 0.019 0.109
0.009 0.025 0.113
0.011 0.023 0.111
0.009 0.027 0.111
0.013 0.027 0.107
0.013 0.027 0.107
0.015 0.027 0.105
0.013 0.029 0.105
0.027 0.021 0.101
0.025 0.023 0.105
0.019 0.027 0.105
0.007 0.025 0.115
0.007 0.025 0.115
0.039 0.025 0.101
0.041 0.033 0.105
0.009 0.035 0.103
0.009 0.033 0.105
0.007 0.035 0.105
0.023 0.039 0.101
0.035 0.039 0.105
0.041 0.039 0.105
0.035 0.035 0.107
0.037 0.045 0.101
0.027 0.033 0.105
0.043 0.035 0.105
0.039 0.041 0.105
0.041 0.043 0.101
0.039 0.045 0.101
0.041 0.035 0.105
0.037 0.033 0.107
0.043 0.033 0.105
