0.035 0.023 0.057
0.037 0.029 0.059
0.003 0.001 0.069
0.027 0.023 0.073
-0.005 -0.011 0.047
-0.003 -0.011 0.045
-0.003 -0.025 0.045
0.033 0.013 0.047
0.029 0.011 0.049
-0.005 -0.011 0.049
-0.005 -0.021 0.057
-0.009 -0.023 0.063
-0.011 -0.009 0.053
0.029 0.025 0.071
0.027 0.023 0.073
0.009 0.009 0.059
-0.013 -0.019 0.073
-0.007 -0.005 0.083
-0.017 -0.015 0.073
-0.015 -0.015 0.081
0.005 0.005 0.069
-0.011 -0.009 0.087
-0.013 -0.011 0.087
-0.015 -0.015 0.081
-0.011 -0.003 0.091
0.005 -0.011 0.037
0.043 0.009 0.043
0.029 0.039 0.039
0.037 0.035 0.053
0.037 0.027 0.049
0.037 0.029 0.057
0.039 0.031 0.049
0.037 0.025 0.055
0.033 0.039 0.055
0.037 0.027 0.059
0.033 0.033 0.065
0.007 0.009 0.065
0.025 0.043 0.039
0.049 0.033 0.087
0.047 0.037 0.087
0.047 0.037 0.085
0.021 0.027 0.079
0.047 0.035 0.093
0.049 0.037 0.093
0.045 0.037 0.089
0.037 0.041 0.095
0.011 0.027 0.109
0.041 0.015 0.037
0.035 0.035 0.039
0.031 0.037 0.037
0.027 0.043 0.039
0.029 0.035 0.033
0.037 0.021 0.043
0.039 0.017 0.041
0.041 0.015 0.039
0.039 0.009 0.045
0.035 0.039 0.051
0.035 0.039 0.053
0.035 0.031 0.037
0.035 0.035 0.057
0.033 0.023 0.061
0.037 0.007 0.045
0.041 0.013 0.043
0.037 0.011 0.045
0.037 0.029 0.039
0.035 0.021 0.051
0.035 0.031 0.063
0.025 0.043 0.039
0.031 0.039 0.039
0.025 0.049 0.037
0.025 0.045 0.039
0.027 0.041 0.059
0.031 0.039 0.061
0.037 0.035 0.053
0.029 0.027 0.073
0.029 0.035 0.069
0.031 0.025 0.067
0.033 0.027 0.067
0.029 0.025 0.071
0.021 0.019 0.075
0.027 0.021 0.091
0.045 0.031 0.089
0.043 0.043 0.087
0.045 0.029 0.089
0.039 0.027 0.097
0.041 0.029 0.097
0.047 0.027 0.083
0.025 0.037 0.069
0.029 0.033 0.071
0.035 0.043 0.095
0.043 0.043 0.087
0.039 0.041 0.089
0.035 0.043 0.095
0.047 0.039 0.087
0.037 0.039 0.095
0.049 0.039 0.091
0.017 0.015 0.101
0.029 0.023 0.103
0.011 0.027 0.107
0.039 0.031 0.105
0.039 0.025 0.101
0.043 0.031 0.101
0.023 0.039 0.103
0.041 0.043 0.101
0.041 0.037 0.101
0.041 0.039 0.105
-0.015 -0.037 0.041
-0.019 -0.037 0.051
-0.005 -0.013 0.047
-0.009 -0.003 0.047
-0.003 -0.029 0.047
-0.005 -0.023 0.053
-0.003 -0.021 0.039
0.001 -0.019 0.035
-0.005 -0.007 0.043
-0.013 -0.011 0.053
-0.007 -0.017 0.053
-0.003 -0.005 0.039
-0.005 -0.029 0.059
-0.011 -0.017 0.067
-0.005 -0.023 0.053
-0.005 -0.019 0.049
-0.005 -0.017 0.049
-0.005 -0.021 0.057
-0.005 -0.029 0.061
-0.009 -0.019 0.065
-0.009 -0.019 0.065
-0.017 -0.015 0.057
-0.013 -0.005 0.059
-0.037 -0.033 0.083
-0.035 -0.023 0.085
-0.025 -0.017 0.085
-0.035 -0.023 0.085
-0.017 -0.017 0.079
-0.011 -0.017 0.065
-0.017 -0.005 0.065
-0.005 -0.005 0.077
-0.017 -0.017 0.081
-0.017 -0.015 0.087
-0.015 -0.011 0.089
-0.017 -0.013 0.089
-0.019 -0.007 0.093
0.007 -0.013 0.037
0.009 -0.011 0.035
0.015 -0.003 0.037
0.015 -0.003 0.041
0.021 -0.001 0.037
0.011 0.009 0.057
0.031 0.013 0.053
0.013 0.017 0.055
0.025 0.017 0.059
0.005 0.001 0.061
0.003 0.001 0.063
0.005 0.003 0.065
0.001 -0.001 0.061
0.005 0.009 0.069
0.027 0.019 0.063
-0.003 0.005 0.083
0.001 -0.001 0.071
0.013 0.015 0.079
-0.011 0.003 0.091
-0.003 0.003 0.083
-0.013 0.001 0.091
-0.009 0.007 0.091
0.025 0.021 0.103
-0.003 0.017 0.111
-0.003 0.019 0.111
0.033 0.011 0.045
0.033 0.005 0.043
0.037 0.007 0.043
0.031 0.023 0.033
0.037 0.027 0.039
0.013 0.003 0.047
0.025 0.003 0.037
0.039 0.009 0.045
0.043 0.011 0.041
0.023 0.005 0.045
0.035 0.021 0.049
0.037 0.027 0.045
0.039 0.013 0.043
0.035 0.021 0.041
0.007 0.003 0.059
0.025 0.013 0.055
0.029 0.021 0.065
0.023 0.019 0.067
0.029 0.023 0.069
0.031 0.019 0.059
0.039 0.007 0.039
0.037 0.011 0.045
0.037 0.021 0.045
0.037 0.027 0.053
0.035 0.039 0.051
0.025 0.047 0.037
0.035 0.033 0.063
0.033 0.035 0.063
0.033 0.037 0.063
0.005 0.005 0.067
0.003 0.003 0.073
0.003 0.011 0.071
0.005 0.009 0.071
0.017 0.017 0.075
0.011 0.011 0.093
0.011 0.011 0.093
0.033 0.023 0.095
0.031 0.023 0.089
0.021 0.017 0.095
0.027 0.021 0.091
0.043 0.027 0.087
0.039 0.025 0.097
0.043 0.031 0.103
0.043 0.031 0.105
0.043 0.031 0.103
0.043 0.031 0.103
0.043 0.029 0.101
0.045 0.033 0.091
0.003 0.011 0.103
0.021 0.021 0.105
0.037 0.035 0.107
-0.035 -0.025 0.031
-0.035 -0.023 0.035
-0.033 -0.037 0.049
-0.035 -0.035 0.055
-0.035 -0.033 0.063
-0.035 -0.013 0.035
-0.033 -0.029 0.053
-0.037 -0.027 0.061
-0.037 -0.027 0.063
-0.033 -0.013 0.059
-0.033 -0.029 0.033
-0.035 -0.015 0.035
-0.031 -0.023 0.041
-0.035 -0.017 0.037
-0.031 -0.015 0.043
-0.023 -0.019 0.045
-0.013 -0.021 0.047
-0.035 -0.005 0.039
-0.033 0.001 0.041
-0.033 -0.005 0.049
-0.031 -0.019 0.059
-0.031 -0.019 0.059
-0.035 -0.021 0.067
-0.025 -0.015 0.049
-0.031 -0.003 0.053
-0.033 -0.005 0.057
-0.041 -0.035 0.083
-0.041 -0.029 0.075
-0.041 -0.025 0.075
-0.037 -0.011 0.075
-0.035 -0.015 0.077
-0.043 -0.031 0.083
-0.039 -0.025 0.083
-0.041 -0.029 0.085
-0.039 -0.025 0.085
-0.033 -0.009 0.087
-0.033 -0.005 0.067
-0.015 0.001 0.067
-0.033 -0.013 0.085
-0.027 -0.001 0.089
-0.025 -0.001 0.091
-0.033 -0.005 0.083
-0.033 0.005 0.041
-0.025 0.005 0.049
-0.029 0.007 0.045
-0.007 0.017 0.043
-0.005 0.025 0.047
-0.025 0.003 0.057
-0.029 0.001 0.057
-0.015 0.011 0.061
-0.007 0.021 0.055
-0.017 0.013 0.075
-0.015 0.015 0.067
-0.015 0.013 0.083
-0.023 0.003 0.091
-0.017 0.003 0.093
-0.003 0.033 0.033
-0.011 0.017 0.053
-0.003 0.031 0.037
0.005 0.031 0.045
-0.005 0.029 0.039
-0.015 0.003 0.055
-0.015 0.005 0.065
-0.011 0.013 0.055
-0.011 0.017 0.061
0.009 0.027 0.053
0.011 0.027 0.061
-0.007 0.021 0.043
0.011 0.041 0.051
0.021 0.045 0.041
0.015 0.033 0.057
0.015 0.037 0.055
0.017 0.039 0.057
-0.011 0.017 0.073
0.009 0.031 0.073
0.003 0.021 0.073
0.007 0.025 0.069
0.007 0.029 0.071
0.001 0.023 0.077
-0.001 0.017 0.089
0.001 0.025 0.083
-0.003 0.025 0.087
0.015 0.035 0.073
0.001 0.033 0.089
0.007 0.035 0.093
0.007 0.035 0.095
0.007 0.033 0.091
0.019 0.037 0.089
0.037 0.043 0.083
0.003 0.021 0.103
0.003 0.025 0.105
0.001 0.031 0.103
0.003 0.033 0.105
0.005 0.035 0.103
0.003 0.035 0.105
0.033 0.041 0.101
0.035 0.039 0.105
-0.031 -0.027 0.031
-0.029 -0.027 0.031
-0.027 -0.041 0.045
-0.013 -0.035 0.037
-0.023 -0.037 0.057
-0.009 -0.023 0.035
-0.009 -0.025 0.043
-0.017 -0.039 0.045
-0.019 -0.039 0.049
-0.011 -0.029 0.033
-0.003 -0.025 0.035
0.001 -0.019 0.035
-0.003 -0.015 0.043
-0.003 -0.015 0.043
-0.021 -0.039 0.051
-0.009 -0.031 0.055
-0.005 -0.031 0.053
-0.021 -0.041 0.049
-0.011 -0.029 0.059
-0.023 -0.021 0.075
-0.017 -0.017 0.071
-0.021 -0.019 0.073
-0.019 -0.005 0.093
-0.009 -0.003 0.089
0.001 -0.017 0.037
-0.019 -0.041 0.043
-0.013 -0.035 0.039
-0.015 -0.037 0.043
-0.013 -0.033 0.045
-0.007 -0.027 0.043
-0.003 -0.029 0.047
0.007 -0.001 0.041
-0.003 0.003 0.047
0.005 0.003 0.045
-0.009 -0.031 0.055
-0.009 0.001 0.061
-0.007 -0.025 0.063
-0.005 0.003 0.049
0.001 0.001 0.075
-0.001 0.001 0.079
0.001 0.017 0.083
-0.003 0.011 0.085
0.021 0.001 0.031
0.025 0.017 0.031
0.033 0.003 0.033
0.009 -0.001 0.033
0.009 -0.013 0.035
0.009 -0.001 0.035
0.005 -0.013 0.039
0.007 0.001 0.039
0.025 0.003 0.037
0.033 0.003 0.033
0.029 0.003 0.035
0.031 0.005 0.045
0.009 -0.001 0.043
0.013 0.003 0.051
0.021 0.011 0.053
0.005 0.001 0.055
0.017 0.013 0.055
0.039 0.007 0.035
0.035 0.007 0.033
0.039 0.007 0.041
0.009 -0.003 0.037
0.029 0.005 0.037
0.029 0.005 0.041
0.031 0.003 0.037
0.027 0.005 0.043
0.031 0.007 0.047
0.017 0.021 0.061
0.017 0.019 0.063
0.027 0.019 0.063
0.037 0.007 0.041
0.035 0.023 0.055
0.001 -0.001 0.065
0.003 0.001 0.067
0.027 0.021 0.069
0.031 0.025 0.067
0.027 0.023 0.073
0.005 0.015 0.083
0.005 0.009 0.089
0.003 0.017 0.083
0.015 0.017 0.079
0.031 0.021 0.085
0.023 0.019 0.091
0.027 0.021 0.091
0.021 0.019 0.093
0.035 0.023 0.083
0.033 0.023 0.087
0.021 0.017 0.067
0.033 0.025 0.065
0.021 0.019 0.077
0.019 0.017 0.083
0.027 0.037 0.081
0.043 0.025 0.083
0.039 0.027 0.087
0.033 0.037 0.093
0.003 0.009 0.099
0.013 0.015 0.105
0.007 0.011 0.097
0.013 0.013 0.099
0.027 0.021 0.101
-0.035 -0.015 0.033
-0.035 -0.015 0.031
-0.025 -0.027 0.047
-0.031 -0.001 0.045
-0.033 -0.031 0.051
-0.033 -0.007 0.059
-0.035 -0.023 0.063
-0.031 -0.001 0.051
-0.019 0.005 0.043
-0.019 0.005 0.049
-0.023 0.005 0.051
-0.031 0.005 0.035
-0.033 0.007 0.039
-0.031 -0.001 0.061
-0.023 0.001 0.061
-0.031 -0.001 0.051
-0.031 -0.009 0.055
-0.033 -0.007 0.057
-0.019 0.005 0.051
-0.019 -0.003 0.065
-0.039 -0.021 0.077
-0.035 -0.007 0.079
-0.037 -0.021 0.081
-0.037 -0.023 0.083
-0.037 -0.023 0.085
-0.029 0.001 0.081
-0.025 -0.001 0.067
-0.031 -0.001 0.079
-0.021 0.007 0.077
-0.015 0.013 0.079
-0.027 -0.003 0.091
-0.003 -0.003 0.035
0.001 -0.007 0.037
-0.003 0.029 0.043
-0.033 0.007 0.035
-0.005 0.013 0.041
-0.009 0.015 0.049
-0.025 0.001 0.061
-0.013 0.013 0.057
-0.009 0.019 0.051
-0.013 0.015 0.059
-0.029 0.001 0.083
-0.001 0.031 0.089
-0.005 0.019 0.107
-0.005 0.029 0.033
0.003 0.035 0.033
-0.001 0.033 0.037
0.003 0.033 0.041
0.003 0.033 0.043
0.003 0.027 0.049
0.005 0.023 0.055
0.015 0.035 0.059
0.015 0.043 0.049
0.017 0.049 0.039
0.021 0.041 0.055
0.023 0.041 0.055
0.007 0.039 0.035
0.009 0.039 0.035
0.015 0.043 0.041
0.027 0.041 0.045
0.027 0.039 0.061
-0.003 0.017 0.071
0.001 0.019 0.065
-0.001 0.015 0.075
0.007 0.029 0.071
0.003 0.027 0.075
0.015 0.031 0.079
0.007 0.033 0.085
0.011 0.035 0.083
0.011 0.035 0.093
0.021 0.039 0.095
0.019 0.039 0.095
0.033 0.039 0.087
0.035 0.041 0.089
0.025 0.037 0.067
0.027 0.037 0.067
0.009 0.035 0.095
0.017 0.037 0.085
0.017 0.037 0.095
0.031 0.041 0.083
0.035 0.041 0.083
0.033 0.039 0.089
0.041 0.041 0.089
0.045 0.039 0.091
-0.009 0.027 0.101
-0.003 0.031 0.099
0.003 0.023 0.109
-0.005 0.029 0.099
-0.003 0.031 0.101
0.019 0.039 0.101
0.021 0.033 0.105
0.027 0.037 0.099
0.005 0.035 0.099
0.015 0.037 0.101
0.001 0.033 0.107
0.005 0.035 0.105
