-0.035 -0.017 0.035
-0.035 -0.017 0.037
-0.029 -0.023 0.043
-0.031 -0.023 0.041
-0.037 -0.023 0.065
-0.033 -0.005 0.045
-0.033 -0.009 0.057
-0.035 -0.035 0.055
-0.043 -0.035 0.075
-0.033 -0.037 0.049
-0.035 -0.035 0.057
-0.029 -0.041 0.049
-0.035 -0.035 0.053
-0.043 -0.035 0.075
-0.031 -0.039 0.053
-0.043 -0.035 0.081
-0.029 -0.039 0.057
-0.031 -0.037 0.061
-0.031 -0.037 0.061
-0.043 -0.033 0.083
-0.043 -0.037 0.081
-0.033 -0.029 0.039
-0.033 -0.027 0.039
-0.035 -0.021 0.035
-0.033 -0.021 0.037
-0.033 -0.023 0.039
-0.033 -0.017 0.039
-0.033 -0.013 0.041
-0.041 -0.025 0.075
-0.035 -0.013 0.065
-0.031 -0.029 0.041
-0.031 -0.025 0.041
-0.029 -0.019 0.041
-0.039 -0.025 0.069
-0.039 -0.023 0.073
-0.035 -0.019 0.069
-0.041 -0.029 0.073
-0.043 -0.029 0.079
-0.041 -0.027 0.083
-0.041 -0.025 0.077
-0.039 -0.021 0.077
-0.039 -0.021 0.079
-0.039 -0.021 0.079
-0.043 -0.033 0.081
-0.041 -0.025 0.079
-0.041 -0.025 0.081
-0.039 -0.021 0.079
-0.035 -0.019 0.077
-0.037 -0.023 0.085
-0.031 -0.015 0.043
-0.033 -0.011 0.043
-0.033 -0.009 0.045
-0.029 -0.013 0.045
-0.027 -0.015 0.045
-0.033 -0.009 0.045
-0.031 -0.003 0.049
-0.031 -0.015 0.043
-0.035 -0.017 0.069
-0.035 -0.017 0.069
-0.033 -0.005 0.049
-0.031 -0.017 0.059
-0.035 -0.017 0.075
-0.035 -0.013 0.077
-0.035 -0.007 0.069
-0.035 -0.007 0.073
-0.037 -0.011 0.075
-0.037 -0.011 0.075
-0.035 -0.011 0.081
-0.035 -0.019 0.081
-0.035 -0.007 0.073
-0.035 -0.011 0.079
-0.037 -0.029 0.061
-0.037 -0.027 0.065
-0.043 -0.031 0.079
-0.033 -0.019 0.063
-0.033 -0.019 0.065
-0.043 -0.031 0.081
-0.041 -0.025 0.075
-0.039 -0.021 0.073
-0.039 -0.021 0.075
-0.035 -0.017 0.069
-0.035 -0.019 0.081
-0.039 -0.031 0.087
-0.037 -0.029 0.089
-0.009 -0.031 0.057
-0.009 -0.031 0.057
-0.009 -0.029 0.061
-0.037 -0.023 0.085
-0.035 -0.025 0.087
-0.033 -0.021 0.081
-0.013 -0.023 0.067
-0.035 -0.015 0.065
-0.035 -0.013 0.065
-0.035 -0.017 0.071
-0.031 -0.003 0.051
-0.031 -0.001 0.051
-0.035 -0.017 0.079
-0.033 -0.003 0.077
-0.035 -0.017 0.075
-0.035 -0.015 0.077
-0.035 -0.015 0.081
-0.035 -0.013 0.081
-0.035 -0.013 0.081
-0.035 -0.011 0.079
-0.033 -0.005 0.079
-0.035 -0.015 0.081
-0.033 -0.011 0.083
-0.033 -0.005 0.081
-0.043 -0.035 0.087
-0.043 -0.033 0.083
-0.039 -0.025 0.071
-0.041 -0.025 0.075
-0.039 -0.023 0.073
-0.039 -0.023 0.073
-0.043 -0.029 0.081
-0.043 -0.029 0.081
-0.041 -0.027 0.079
-0.041 -0.027 0.081
-0.041 -0.029 0.085
-0.039 -0.025 0.085
-0.041 -0.023 0.077
-0.039 -0.021 0.079
-0.039 -0.023 0.081
-0.039 -0.023 0.083
-0.037 -0.021 0.081
-0.035 -0.015 0.069
-0.035 -0.009 0.069
-0.037 -0.013 0.073
-0.033 -0.019 0.083
-0.037 -0.031 0.089
-0.033 -0.009 0.085
-0.033 -0.013 0.085
-0.033 -0.007 0.087
-0.043 -0.029 0.081
-0.041 -0.027 0.081
-0.041 -0.029 0.083
-0.029 -0.021 0.079
-0.025 -0.021 0.079
-0.011 -0.023 0.067
-0.011 -0.023 0.067
-0.023 -0.021 0.079
-0.023 -0.021 0.079
-0.011 -0.021 0.071
-0.033 -0.017 0.085
-0.033 -0.017 0.087
-0.033 -0.015 0.087
-0.033 -0.007 0.085
-0.031 -0.001 0.083
-0.033 -0.013 0.085
-0.025 -0.009 0.095
-0.023 -0.005 0.095
-0.021 -0.005 0.095
-0.021 -0.003 0.095
-0.023 -0.017 0.087
-0.025 -0.015 0.089
-0.025 -0.015 0.089
-0.025 -0.011 0.093
-0.023 -0.013 0.089
-0.019 -0.011 0.091
-0.027 -0.005 0.091
-0.027 -0.003 0.091
-0.023 -0.007 0.095
-0.019 -0.011 0.091
-0.013 -0.005 0.091
-0.039 -0.023 0.081
-0.037 -0.021 0.081
-0.037 -0.021 0.081
-0.031 -0.009 0.089
-0.031 -0.009 0.089
-0.035 0.003 0.037
-0.029 0.007 0.043
-0.031 -0.001 0.051
-0.029 0.007 0.045
-0.031 -0.001 0.061
-0.033 -0.003 0.067
-0.007 0.011 0.043
-0.007 0.011 0.043
-0.031 -0.001 0.063
-0.027 0.001 0.061
-0.031 -0.003 0.083
-0.011 0.009 0.051
-0.011 0.011 0.051
-0.009 0.009 0.047
-0.011 0.013 0.051
-0.007 0.023 0.039
-0.007 0.021 0.041
-0.007 0.023 0.041
-0.007 0.019 0.045
-0.029 0.001 0.053
-0.029 0.001 0.059
-0.031 -0.001 0.063
-0.029 -0.001 0.065
-0.013 0.007 0.059
-0.011 0.007 0.053
-0.011 0.013 0.053
-0.013 0.013 0.057
-0.031 -0.001 0.083
-0.031 -0.001 0.085
-0.017 0.007 0.067
-0.029 -0.003 0.089
-0.029 -0.003 0.089
-0.013 0.015 0.059
-0.013 0.015 0.061
-0.007 0.021 0.059
-0.009 0.019 0.067
-0.031 -0.001 0.085
-0.021 0.007 0.075
-0.021 0.009 0.075
-0.027 0.003 0.081
-0.023 0.007 0.081
-0.019 0.011 0.083
-0.029 -0.001 0.087
-0.023 0.005 0.075
-0.017 0.013 0.069
-0.019 0.011 0.083
-0.013 0.011 0.087
-0.009 0.011 0.087
-0.015 0.015 0.075
-0.011 0.017 0.073
-0.023 0.007 0.085
-0.021 0.009 0.083
-0.023 0.007 0.087
-0.017 0.005 0.091
-0.015 0.001 0.095
-0.013 0.005 0.093
-0.013 0.005 0.093
-0.013 0.005 0.093
-0.015 0.011 0.085
-0.013 0.011 0.087
-0.013 0.009 0.089
-0.009 0.011 0.087
-0.009 0.011 0.087
-0.005 0.013 0.085
-0.019 0.001 0.095
-0.015 0.005 0.091
-0.013 0.007 0.093
-0.009 0.007 0.091
-0.017 0.001 0.095
-0.001 0.021 0.095
-0.009 0.027 0.097
-0.009 0.027 0.097
-0.007 0.027 0.097
-0.007 0.015 0.113
-0.001 0.025 0.097
-0.005 0.027 0.103
-0.007 0.029 0.103
-0.013 0.015 0.113
-0.013 0.015 0.113
-0.009 0.017 0.113
-0.015 0.007 0.061
-0.023 0.005 0.075
-0.031 -0.005 0.087
-0.007 0.023 0.047
-0.005 0.029 0.041
-0.005 0.025 0.047
-0.009 0.019 0.059
-0.013 0.017 0.069
-0.019 0.003 0.091
-0.003 0.031 0.037
-0.033 -0.003 0.081
-0.031 -0.001 0.085
-0.031 -0.003 0.085
-0.011 0.007 0.053
-0.029 -0.005 0.089
-0.029 -0.003 0.089
-0.029 -0.007 0.091
-0.029 -0.003 0.089
-0.029 -0.007 0.091
-0.025 -0.005 0.093
-0.025 -0.001 0.091
-0.023 -0.001 0.093
-0.027 0.003 0.083
-0.025 0.001 0.091
-0.023 0.003 0.091
-0.023 -0.003 0.095
-0.023 -0.001 0.093
-0.025 -0.005 0.093
-0.023 -0.003 0.095
-0.021 -0.003 0.095
-0.009 0.017 0.049
-0.015 0.011 0.063
-0.007 0.023 0.047
0.001 0.027 0.049
-0.005 0.023 0.053
-0.005 0.023 0.053
-0.019 0.011 0.075
-0.015 0.015 0.071
-0.031 -0.005 0.087
-0.029 -0.005 0.089
-0.029 -0.003 0.089
-0.027 -0.003 0.091
-0.025 0.001 0.091
-0.023 0.003 0.091
-0.021 0.007 0.087
-0.019 0.009 0.087
-0.023 -0.001 0.093
-0.021 0.003 0.091
-0.013 0.005 0.093
0.009 0.029 0.065
-0.009 0.011 0.087
0.005 0.015 0.081
0.023 0.017 0.061
0.005 0.015 0.081
0.001 0.011 0.087
-0.023 -0.003 0.095
-0.019 -0.001 0.095
-0.013 0.005 0.093
-0.015 0.003 0.095
-0.013 0.005 0.093
-0.007 0.001 0.089
-0.019 0.009 0.087
-0.013 0.007 0.093
-0.013 0.011 0.087
-0.007 0.017 0.075
-0.007 0.015 0.079
0.007 0.023 0.067
-0.005 0.013 0.085
-0.013 0.007 0.093
-0.007 0.011 0.089
-0.001 0.019 0.081
-0.001 0.019 0.085
-0.001 0.019 0.085
-0.001 0.017 0.089
0.001 0.023 0.095
0.003 0.031 0.043
0.003 0.033 0.043
0.005 0.035 0.043
0.005 0.031 0.045
0.007 0.033 0.049
0.007 0.031 0.049
0.007 0.029 0.051
0.011 0.033 0.051
0.017 0.045 0.039
0.011 0.039 0.053
0.009 0.037 0.051
0.013 0.039 0.053
0.015 0.037 0.055
0.015 0.037 0.055
0.017 0.049 0.039
0.015 0.043 0.051
0.011 0.031 0.063
0.009 0.031 0.067
0.015 0.035 0.063
0.017 0.041 0.055
0.019 0.039 0.059
-0.007 0.029 0.087
-0.009 0.027 0.097
0.009 0.029 0.065
0.003 0.027 0.075
0.001 0.025 0.079
-0.001 0.023 0.089
-0.001 0.023 0.091
-0.009 0.027 0.097
-0.001 0.025 0.097
-0.015 0.005 0.091
-0.019 -0.001 0.095
0.003 0.013 0.087
0.001 0.019 0.075
-0.001 0.019 0.079
0.001 0.025 0.079
-0.001 0.017 0.079
-0.001 0.019 0.079
-0.001 0.021 0.081
0.005 0.015 0.081
0.001 0.025 0.079
-0.009 0.027 0.095
0.005 0.015 0.081
0.001 0.017 0.091
0.003 0.015 0.087
0.001 0.013 0.095
-0.001 0.019 0.097
0.001 0.023 0.097
0.003 0.017 0.093
0.001 0.021 0.097
-0.003 0.025 0.095
-0.001 0.019 0.097
0.001 0.011 0.099
-0.001 0.009 0.095
-0.001 0.009 0.095
-0.001 0.009 0.097
0.003 0.013 0.091
0.001 0.011 0.097
0.001 0.009 0.097
-0.001 0.009 0.097
0.001 0.011 0.103
-0.001 0.009 0.103
0.001 0.011 0.103
0.001 0.011 0.103
0.001 0.011 0.101
-0.001 0.017 0.087
0.001 0.017 0.085
-0.003 0.025 0.089
0.003 0.017 0.095
-0.009 0.027 0.101
-0.009 0.015 0.113
0.005 0.013 0.103
0.001 0.023 0.097
-0.001 0.023 0.107
-0.001 0.019 0.111
0.011 0.017 0.105
0.011 0.017 0.107
0.005 0.019 0.109
0.011 0.017 0.107
0.015 0.017 0.107
0.005 0.027 0.103
-0.001 0.019 0.111
0.007 0.021 0.109
0.001 0.019 0.095
0.003 0.021 0.109
0.005 0.023 0.113
0.005 0.019 0.109
0.005 0.023 0.113
0.007 0.023 0.113
0.013 0.021 0.105
0.019 0.023 0.105
0.023 0.025 0.105
-0.009 0.027 0.097
-0.009 0.027 0.101
-0.001 0.025 0.097
-0.005 0.027 0.101
-0.005 0.031 0.097
-0.003 0.031 0.099
-0.001 0.031 0.101
0.001 0.031 0.107
-0.001 0.031 0.101
0.005 0.031 0.105
0.001 0.031 0.103
0.001 0.031 0.107
0.001 0.031 0.107
0.001 0.031 0.107
0.005 0.029 0.103
0.001 0.033 0.109
0.011 0.035 0.103
0.007 0.027 0.109
0.011 0.031 0.105
0.015 0.031 0.105
0.015 0.035 0.105
0.015 0.035 0.105
0.015 0.035 0.105
0.023 0.041 0.095
0.019 0.039 0.101
0.021 0.029 0.105
0.023 0.031 0.105
0.017 0.037 0.103
0.021 0.037 0.103
0.015 0.035 0.105
0.019 0.037 0.103
0.021 0.037 0.103
0.015 0.033 0.105
0.025 0.029 0.105
0.029 0.035 0.101
0.031 0.033 0.103
0.029 0.041 0.099
-0.001 0.009 0.103
0.001 0.009 0.103
0.003 0.011 0.103
0.001 0.009 0.103
0.007 0.015 0.103
0.009 0.015 0.109
0.001 0.017 0.109
0.011 0.019 0.103
0.009 0.015 0.107
-0.001 0.027 0.101
0.001 0.029 0.103
0.003 0.019 0.109
-0.005 0.019 0.111
0.001 0.021 0.109
0.013 0.019 0.105
0.015 0.017 0.107
0.009 0.023 0.111
0.007 0.023 0.115
0.001 0.031 0.107
0.007 0.027 0.111
0.005 0.023 0.115
0.005 0.025 0.115
0.015 0.017 0.107
0.017 0.019 0.105
0.021 0.021 0.105
0.021 0.021 0.105
0.007 0.025 0.115
0.021 0.027 0.105
0.023 0.025 0.105
0.019 0.031 0.105
0.023 0.029 0.105
0.037 0.025 0.101
0.035 0.027 0.101
0.039 0.029 0.101
0.043 0.029 0.103
0.001 0.031 0.105
0.003 0.033 0.103
0.001 0.031 0.105
0.001 0.033 0.109
0.001 0.031 0.107
0.013 0.033 0.103
0.001 0.033 0.109
0.011 0.035 0.103
0.017 0.037 0.103
0.023 0.039 0.103
0.021 0.033 0.105
0.023 0.039 0.103
0.031 0.043 0.099
0.023 0.031 0.105
0.031 0.039 0.101
0.033 0.033 0.105
0.037 0.035 0.107
0.033 0.041 0.101
0.033 0.039 0.103
0.033 0.041 0.101
0.035 0.041 0.101
0.039 0.043 0.103
0.035 0.035 0.107
0.041 0.033 0.105
