-0.035 -0.017 0.037
-0.033 -0.007 0.047
-0.033 -0.003 0.063
-0.033 -0.005 0.057
-0.019 0.011 0.077
-0.019 0.001 0.061
-0.023 0.003 0.055
-0.021 0.005 0.053
-0.019 0.005 0.047
-0.019 0.005 0.053
-0.035 -0.013 0.083
-0.037 -0.013 0.075
-0.029 -0.001 0.075
-0.031 -0.001 0.081
-0.033 -0.003 0.077
-0.031 -0.003 0.073
-0.029 0.001 0.081
-0.023 0.007 0.083
-0.029 0.001 0.083
-0.031 -0.001 0.085
-0.031 -0.001 0.085
-0.033 -0.003 0.081
-0.031 -0.003 0.087
-0.025 0.003 0.089
-0.023 0.003 0.091
-0.025 0.001 0.091
-0.023 0.007 0.083
-0.021 0.005 0.089
-0.027 -0.005 0.091
-0.035 -0.007 0.079
-0.035 -0.013 0.083
-0.027 -0.003 0.091
-0.033 -0.011 0.087
-0.029 -0.007 0.091
-0.035 -0.025 0.035
-0.035 -0.015 0.037
-0.033 -0.005 0.049
-0.033 -0.005 0.045
-0.033 -0.005 0.045
-0.035 -0.009 0.081
-0.037 -0.011 0.075
-0.037 -0.021 0.075
-0.037 -0.013 0.075
-0.037 -0.013 0.075
-0.033 -0.003 0.063
-0.025 -0.001 0.067
-0.031 -0.005 0.055
-0.023 0.001 0.061
-0.033 -0.003 0.077
-0.023 0.007 0.087
-0.023 0.005 0.089
-0.025 0.005 0.083
-0.023 -0.001 0.065
-0.027 0.003 0.079
-0.019 0.011 0.083
-0.017 0.013 0.077
-0.015 0.015 0.075
-0.019 0.011 0.077
-0.011 0.015 0.079
-0.015 0.015 0.075
-0.009 0.015 0.079
-0.021 0.007 0.087
-0.013 0.011 0.087
-0.015 0.009 0.087
-0.015 0.013 0.083
-0.019 0.003 0.057
-0.021 0.003 0.059
-0.027 0.005 0.045
-0.027 0.007 0.045
-0.027 0.003 0.049
-0.031 -0.001 0.059
-0.031 -0.001 0.055
-0.017 0.003 0.055
-0.009 0.017 0.073
-0.011 0.017 0.073
-0.009 0.019 0.067
-0.007 0.017 0.069
-0.011 0.017 0.069
-0.009 0.017 0.071
-0.011 0.017 0.073
-0.013 0.015 0.077
-0.025 0.003 0.089
-0.025 0.005 0.085
-0.029 -0.001 0.073
-0.027 0.003 0.079
-0.033 -0.005 0.083
-0.031 -0.003 0.087
-0.027 -0.001 0.089
-0.031 -0.001 0.077
-0.017 0.003 0.093
-0.015 0.005 0.091
-0.011 0.007 0.091
-0.011 0.011 0.085
-0.013 0.011 0.085
-0.013 0.009 0.089
-0.011 0.003 0.091
-0.011 -0.001 0.091
-0.017 0.005 0.091
-0.013 0.007 0.093
-0.027 -0.001 0.063
-0.029 -0.001 0.065
-0.021 0.009 0.081
-0.025 0.005 0.081
-0.029 0.001 0.059
-0.029 0.001 0.059
-0.019 0.011 0.081
-0.019 0.011 0.083
-0.019 0.011 0.081
-0.011 0.013 0.083
-0.011 0.013 0.083
-0.017 0.013 0.079
-0.035 -0.019 0.081
-0.043 -0.031 0.083
-0.041 -0.033 0.087
-0.043 -0.035 0.087
-0.041 -0.023 0.079
-0.041 -0.025 0.081
-0.035 -0.021 0.081
-0.035 -0.023 0.083
-0.035 -0.005 0.073
-0.035 -0.005 0.073
-0.035 -0.007 0.079
-0.035 -0.009 0.081
-0.035 -0.007 0.079
-0.037 -0.029 0.089
-0.037 -0.027 0.087
-0.037 -0.027 0.087
-0.035 -0.019 0.081
-0.037 -0.023 0.085
-0.033 -0.015 0.087
-0.033 -0.007 0.087
-0.031 -0.009 0.089
-0.027 0.001 0.089
-0.027 -0.003 0.091
-0.023 0.005 0.089
-0.031 -0.009 0.089
-0.017 0.005 0.091
-0.017 0.001 0.095
-0.021 0.005 0.089
-0.025 -0.001 0.067
-0.031 -0.003 0.071
-0.031 -0.001 0.077
-0.029 -0.001 0.077
-0.019 0.009 0.087
-0.011 0.013 0.083
-0.017 0.011 0.085
-0.009 0.027 0.103
-0.005 0.011 0.087
-0.007 0.007 0.089
-0.031 -0.011 0.089
-0.027 -0.009 0.093
-0.023 -0.003 0.095
-0.025 -0.007 0.095
-0.019 -0.003 0.095
-0.019 -0.003 0.095
-0.019 -0.011 0.091
-0.031 -0.005 0.087
-0.031 -0.001 0.085
-0.027 -0.011 0.093
-0.029 -0.009 0.091
-0.027 -0.009 0.093
-0.025 -0.005 0.093
-0.025 -0.003 0.091
-0.019 -0.001 0.095
-0.023 -0.001 0.093
-0.021 -0.001 0.095
-0.017 -0.001 0.095
-0.017 0.001 0.095
-0.009 -0.003 0.089
-0.013 0.015 0.113
-0.009 0.005 0.091
-0.007 -0.001 0.089
0.005 0.029 0.073
-0.007 0.015 0.077
-0.005 0.029 0.089
-0.007 0.029 0.093
-0.003 0.031 0.091
-0.003 0.017 0.069
0.005 0.031 0.083
0.003 0.033 0.091
0.009 0.031 0.077
-0.007 0.029 0.097
-0.001 0.033 0.033
-0.029 0.009 0.041
-0.021 0.005 0.045
-0.031 0.001 0.043
-0.029 0.001 0.047
-0.019 0.005 0.047
-0.023 0.009 0.043
-0.015 0.005 0.043
-0.005 0.021 0.059
-0.005 0.025 0.053
-0.015 0.005 0.047
-0.005 0.019 0.067
-0.009 0.019 0.065
-0.007 0.019 0.063
-0.005 0.021 0.057
-0.005 0.027 0.043
-0.007 0.023 0.047
-0.007 0.027 0.041
-0.005 0.029 0.041
-0.001 0.029 0.043
-0.023 0.005 0.053
-0.023 0.001 0.061
-0.023 0.003 0.059
-0.015 0.003 0.051
-0.007 0.017 0.071
-0.009 0.019 0.067
-0.009 0.017 0.073
-0.011 0.017 0.059
-0.013 0.017 0.065
-0.013 0.017 0.065
-0.017 0.013 0.073
-0.007 0.015 0.077
-0.015 0.015 0.071
-0.005 0.023 0.053
-0.011 0.017 0.059
-0.001 0.033 0.035
-0.019 0.011 0.083
-0.021 0.009 0.079
-0.017 0.013 0.077
-0.017 0.013 0.079
-0.011 0.013 0.083
-0.015 0.015 0.075
-0.015 0.015 0.075
-0.015 0.015 0.071
-0.015 0.015 0.073
-0.013 0.017 0.071
-0.001 0.005 0.081
-0.009 0.027 0.097
-0.005 0.019 0.069
-0.005 0.019 0.069
-0.027 0.003 0.083
-0.017 0.011 0.083
-0.017 0.009 0.087
-0.019 0.003 0.091
-0.003 0.001 0.083
-0.003 0.011 0.085
-0.005 0.003 0.087
-0.007 0.009 0.089
-0.011 0.013 0.083
-0.005 0.029 0.103
-0.007 0.029 0.101
-0.013 0.003 0.093
-0.011 0.005 0.093
-0.005 0.031 0.097
-0.003 0.031 0.095
-0.003 0.031 0.091
-0.003 0.029 0.103
-0.007 0.029 0.089
-0.005 0.031 0.097
-0.005 0.017 0.111
-0.007 0.029 0.103
-0.005 0.029 0.103
-0.007 0.019 0.111
-0.003 0.017 0.111
0.005 0.021 0.057
0.007 0.021 0.057
0.009 0.027 0.053
0.001 0.027 0.047
-0.001 0.027 0.043
0.007 0.037 0.047
0.009 0.039 0.049
0.019 0.039 0.057
0.021 0.041 0.055
0.029 0.037 0.065
0.001 0.019 0.063
0.005 0.021 0.059
0.009 0.021 0.055
-0.003 0.023 0.055
-0.003 0.023 0.055
-0.001 0.023 0.057
-0.001 0.019 0.065
0.001 0.019 0.065
0.003 0.019 0.063
0.009 0.031 0.071
0.011 0.033 0.073
0.007 0.031 0.081
0.017 0.037 0.081
0.011 0.033 0.069
0.013 0.033 0.069
0.017 0.037 0.067
0.015 0.035 0.073
0.009 0.033 0.085
0.017 0.037 0.085
0.017 0.037 0.087
0.019 0.037 0.085
0.015 0.035 0.087
0.017 0.037 0.085
0.019 0.037 0.087
0.009 0.037 0.051
0.001 0.027 0.049
0.007 0.033 0.049
0.007 0.031 0.049
0.015 0.039 0.055
0.019 0.037 0.061
0.025 0.041 0.059
0.005 0.031 0.083
0.001 0.033 0.091
-0.003 0.031 0.097
-0.003 0.031 0.095
-0.001 0.033 0.097
-0.003 0.031 0.099
0.001 0.033 0.093
0.003 0.031 0.083
0.003 0.033 0.087
0.013 0.035 0.085
0.013 0.035 0.083
0.009 0.033 0.083
0.015 0.035 0.081
0.017 0.037 0.087
0.019 0.037 0.089
0.001 0.027 0.049
0.007 0.029 0.051
0.011 0.031 0.053
0.011 0.031 0.063
0.013 0.033 0.061
0.015 0.035 0.063
0.003 0.029 0.079
0.005 0.029 0.075
0.009 0.031 0.075
0.009 0.031 0.073
0.023 0.039 0.083
0.015 0.035 0.085
0.023 0.039 0.083
0.019 0.037 0.087
0.023 0.035 0.073
0.029 0.037 0.067
0.031 0.033 0.069
0.031 0.037 0.065
0.031 0.033 0.069
0.031 0.033 0.069
0.023 0.039 0.083
0.031 0.033 0.069
0.027 0.039 0.085
0.023 0.039 0.083
0.029 0.039 0.083
0.027 0.041 0.053
0.029 0.041 0.055
0.031 0.041 0.053
0.031 0.039 0.063
0.031 0.039 0.061
0.033 0.037 0.063
0.035 0.037 0.059
0.029 0.033 0.071
0.033 0.033 0.065
0.033 0.035 0.063
0.035 0.035 0.061
0.031 0.031 0.069
0.007 0.039 0.037
0.013 0.043 0.039
0.007 0.037 0.045
0.007 0.037 0.047
0.007 0.035 0.049
0.009 0.039 0.043
0.015 0.043 0.041
0.019 0.043 0.041
0.023 0.041 0.047
0.025 0.041 0.047
0.023 0.041 0.045
0.021 0.049 0.039
0.021 0.049 0.039
0.021 0.045 0.041
0.021 0.045 0.041
0.025 0.047 0.039
0.017 0.043 0.051
0.021 0.041 0.049
0.017 0.051 0.037
0.007 0.037 0.049
0.015 0.035 0.057
0.015 0.041 0.055
0.021 0.041 0.055
0.019 0.039 0.059
0.017 0.037 0.065
0.029 0.039 0.061
0.027 0.041 0.059
0.031 0.041 0.055
0.033 0.039 0.043
0.035 0.039 0.049
0.035 0.037 0.055
0.033 0.039 0.057
0.001 0.005 0.079
-0.005 0.031 0.097
0.005 0.035 0.105
0.007 0.035 0.105
0.005 0.031 0.083
0.007 0.031 0.079
0.011 0.033 0.071
0.013 0.033 0.071
0.005 0.033 0.093
0.001 0.031 0.085
0.015 0.037 0.093
0.017 0.037 0.095
0.021 0.039 0.093
0.023 0.041 0.093
0.023 0.041 0.095
0.027 0.039 0.085
0.013 0.037 0.099
0.019 0.039 0.095
0.017 0.039 0.093
0.017 0.037 0.097
0.015 0.035 0.085
0.021 0.039 0.093
0.005 0.031 0.107
-0.001 0.023 0.107
0.001 0.023 0.107
0.001 0.033 0.109
0.001 0.021 0.109
0.003 0.025 0.107
0.007 0.027 0.111
0.013 0.031 0.105
-0.001 0.033 0.097
0.001 0.021 0.097
0.015 0.035 0.105
0.023 0.037 0.103
0.015 0.037 0.099
0.025 0.039 0.097
0.027 0.041 0.097
0.021 0.039 0.101
0.023 0.039 0.097
0.015 0.029 0.105
0.017 0.027 0.105
0.017 0.031 0.105
0.019 0.031 0.105
0.025 0.033 0.105
0.027 0.033 0.103
0.021 0.033 0.105
0.019 0.037 0.103
0.015 0.035 0.105
0.019 0.037 0.103
0.027 0.039 0.085
0.033 0.031 0.067
0.027 0.035 0.101
0.029 0.039 0.099
0.031 0.041 0.099
0.031 0.041 0.099
0.029 0.037 0.101
0.031 0.039 0.101
0.033 0.035 0.105
0.037 0.041 0.103
0.005 0.033 0.089
0.013 0.035 0.089
0.005 0.033 0.091
0.001 0.033 0.095
0.007 0.035 0.097
0.013 0.037 0.095
0.019 0.037 0.087
0.031 0.039 0.085
0.025 0.041 0.095
0.029 0.043 0.097
0.025 0.041 0.095
0.021 0.039 0.101
0.025 0.039 0.097
0.031 0.043 0.097
0.031 0.043 0.099
0.031 0.043 0.097
0.035 0.043 0.097
0.039 0.041 0.089
0.037 0.045 0.099
0.035 0.041 0.085
0.037 0.043 0.085
0.039 0.043 0.087
0.045 0.043 0.085
0.029 0.041 0.099
0.033 0.041 0.101
0.031 0.043 0.099
0.033 0.041 0.101
0.037 0.043 0.103
0.039 0.045 0.101
0.045 0.039 0.093
0.035 0.043 0.097
-0.001 0.019 0.111
0.003 0.021 0.109
0.011 0.023 0.111
0.003 0.025 0.105
0.005 0.025 0.107
0.011 0.031 0.105
0.001 0.019 0.109
0.001 0.023 0.109
0.001 0.019 0.109
0.007 0.025 0.113
0.013 0.025 0.107
0.007 0.025 0.115
0.005 0.025 0.107
0.009 0.029 0.105
0.015 0.031 0.105
0.021 0.025 0.105
0.019 0.017 0.103
0.027 0.033 0.105
0.029 0.031 0.105
0.019 0.027 0.105
0.017 0.029 0.105
0.025 0.029 0.105
0.035 0.027 0.101
0.001 0.033 0.101
0.013 0.035 0.101
0.005 0.033 0.107
0.001 0.033 0.109
0.017 0.035 0.103
0.029 0.039 0.099
0.027 0.033 0.105
0.029 0.033 0.103
0.031 0.037 0.103
0.027 0.033 0.105
0.039 0.041 0.105
0.037 0.037 0.107
0.033 0.039 0.103
0.039 0.041 0.105
0.039 0.039 0.105
0.041 0.037 0.105
0.037 0.043 0.103
0.041 0.039 0.105
