-0.031 -0.005 0.087
-0.031 -0.001 0.085
-0.029 -0.005 0.089
-0.015 -0.013 0.087
-0.015 -0.007 0.091
-0.023 0.003 0.091
-0.017 0.005 0.091
-0.009 0.001 0.089
-0.013 0.007 0.093
-0.013 0.007 0.093
-0.031 -0.023 0.073
-0.031 -0.029 0.069
-0.031 -0.033 0.065
-0.019 -0.033 0.053
-0.021 -0.037 0.055
-0.029 -0.029 0.069
-0.027 -0.019 0.083
-0.029 -0.027 0.069
-0.027 -0.033 0.063
-0.029 -0.027 0.069
-0.021 -0.035 0.055
-0.015 -0.033 0.047
-0.023 -0.039 0.053
-0.029 -0.033 0.065
-0.029 -0.029 0.069
-0.027 -0.035 0.061
-0.029 -0.011 0.093
-0.029 -0.005 0.089
-0.029 -0.003 0.089
-0.031 -0.017 0.089
-0.031 -0.003 0.065
-0.031 -0.001 0.063
-0.035 -0.003 0.041
-0.035 -0.023 0.085
-0.035 -0.021 0.081
-0.031 -0.001 0.085
-0.029 -0.015 0.089
-0.027 -0.005 0.091
-0.017 -0.001 0.095
-0.027 -0.015 0.089
-0.017 -0.015 0.087
-0.021 -0.005 0.095
-0.017 -0.003 0.093
-0.009 -0.019 0.061
-0.009 -0.003 0.089
-0.007 -0.017 0.053
-0.011 -0.017 0.071
-0.013 -0.025 0.063
-0.013 -0.021 0.071
-0.007 -0.021 0.061
-0.013 -0.011 0.087
-0.007 -0.005 0.085
-0.003 -0.023 0.051
-0.025 0.003 0.089
-0.017 0.003 0.093
-0.019 0.001 0.095
-0.025 0.005 0.087
-0.023 0.007 0.083
-0.021 0.009 0.083
-0.021 -0.001 0.095
-0.029 0.001 0.059
-0.029 0.001 0.059
-0.009 0.005 0.091
-0.009 0.005 0.091
-0.003 0.001 0.083
-0.003 -0.003 0.077
-0.013 0.015 0.113
-0.009 0.007 0.091
-0.005 0.009 0.087
-0.005 -0.005 0.077
-0.011 0.015 0.113
-0.007 0.003 0.089
-0.023 -0.031 0.057
-0.021 -0.031 0.053
-0.023 -0.031 0.057
-0.023 -0.005 0.095
-0.023 -0.021 0.079
-0.025 -0.015 0.089
-0.027 -0.017 0.087
-0.025 -0.007 0.095
-0.029 -0.011 0.093
-0.027 -0.011 0.093
-0.021 -0.011 0.091
-0.007 -0.027 0.061
-0.007 -0.029 0.061
-0.011 -0.017 0.071
-0.009 -0.019 0.065
-0.009 -0.019 0.065
-0.005 -0.017 0.051
-0.005 -0.023 0.059
-0.013 -0.025 0.063
-0.009 -0.025 0.065
-0.005 -0.029 0.061
-0.011 -0.019 0.071
-0.011 -0.019 0.071
-0.005 -0.021 0.057
-0.025 0.001 0.091
-0.029 -0.001 0.087
-0.027 -0.007 0.093
-0.029 -0.007 0.091
-0.009 -0.003 0.089
-0.013 -0.001 0.091
-0.005 -0.001 0.085
-0.011 0.005 0.093
-0.011 0.003 0.091
-0.011 0.015 0.113
-0.015 -0.003 0.091
-0.013 0.007 0.093
-0.015 0.003 0.095
-0.043 -0.033 0.085
-0.043 -0.035 0.087
-0.039 -0.035 0.087
-0.039 -0.035 0.087
-0.033 -0.025 0.087
-0.035 -0.023 0.085
-0.033 -0.009 0.087
-0.033 -0.007 0.087
-0.033 -0.007 0.087
-0.031 -0.001 0.085
-0.033 -0.005 0.085
-0.031 -0.005 0.087
-0.041 -0.031 0.085
-0.041 -0.031 0.085
-0.035 -0.029 0.087
-0.037 -0.023 0.085
-0.035 -0.021 0.081
-0.031 -0.017 0.089
-0.035 -0.015 0.081
-0.031 -0.013 0.089
-0.035 -0.011 0.081
-0.035 -0.009 0.083
-0.033 -0.005 0.085
-0.021 -0.011 0.091
-0.019 -0.011 0.091
-0.017 -0.013 0.089
-0.017 -0.011 0.089
-0.027 -0.017 0.087
-0.025 -0.017 0.087
-0.027 -0.017 0.087
-0.021 -0.019 0.083
-0.011 -0.021 0.071
-0.019 -0.001 0.095
-0.017 -0.011 0.089
-0.029 -0.001 0.087
-0.027 0.001 0.089
-0.019 -0.001 0.095
-0.019 0.001 0.095
-0.015 -0.003 0.091
-0.003 0.003 0.083
-0.031 -0.015 0.089
-0.019 -0.013 0.089
-0.029 -0.005 0.089
-0.031 -0.013 0.089
-0.027 -0.015 0.089
-0.025 -0.011 0.093
-0.025 -0.009 0.095
-0.023 -0.005 0.095
-0.021 -0.005 0.095
-0.023 -0.001 0.093
-0.019 -0.003 0.095
-0.017 -0.001 0.095
-0.015 -0.013 0.087
-0.007 -0.003 0.087
-0.005 -0.001 0.085
-0.013 -0.009 0.089
-0.015 -0.003 0.091
-0.013 -0.003 0.091
-0.011 -0.003 0.091
0.001 0.011 0.103
0.009 0.015 0.109
0.011 0.013 0.109
0.013 0.015 0.107
0.015 0.015 0.107
0.001 0.001 0.077
-0.001 0.031 0.041
-0.001 0.033 0.037
-0.033 0.003 0.041
-0.037 0.005 0.037
-0.031 0.007 0.041
-0.033 0.001 0.041
-0.033 0.005 0.041
-0.017 0.011 0.085
-0.017 0.013 0.079
-0.031 0.001 0.043
-0.027 0.005 0.045
-0.025 0.003 0.053
-0.027 0.007 0.045
-0.021 0.009 0.079
-0.013 0.011 0.087
-0.013 0.013 0.083
-0.001 0.021 0.087
-0.003 0.015 0.073
-0.003 0.019 0.091
-0.013 0.011 0.087
-0.015 0.011 0.085
-0.005 0.021 0.109
-0.003 0.019 0.111
-0.005 0.021 0.109
-0.007 0.019 0.111
-0.009 0.015 0.079
-0.007 0.017 0.075
-0.003 0.019 0.091
-0.005 0.031 0.097
-0.005 0.029 0.041
-0.007 0.027 0.041
-0.003 0.029 0.043
-0.017 0.011 0.085
-0.019 0.009 0.085
-0.021 0.009 0.085
-0.021 0.009 0.085
-0.017 0.009 0.087
-0.019 0.007 0.089
-0.007 0.019 0.111
-0.005 0.015 0.111
-0.007 0.007 0.089
-0.015 0.013 0.079
-0.013 0.017 0.071
-0.007 0.029 0.103
-0.005 0.029 0.103
-0.005 0.025 0.053
-0.005 0.029 0.103
-0.001 0.033 0.037
-0.017 0.007 0.089
-0.017 0.007 0.089
-0.017 0.011 0.085
-0.023 0.003 0.091
-0.019 0.007 0.089
-0.021 0.007 0.087
-0.017 0.013 0.079
-0.017 0.011 0.085
-0.017 0.013 0.079
-0.011 0.017 0.073
-0.001 0.023 0.107
-0.019 0.009 0.087
-0.017 0.011 0.085
-0.017 0.011 0.085
-0.017 0.003 0.093
-0.001 0.009 0.103
-0.015 0.009 0.087
-0.003 0.009 0.083
-0.009 0.001 0.089
-0.015 0.003 0.095
-0.001 0.021 0.093
-0.001 0.031 0.099
-0.005 0.031 0.097
-0.003 0.029 0.103
-0.007 0.019 0.111
0.007 0.021 0.109
0.005 0.025 0.115
0.009 0.027 0.111
0.009 0.027 0.109
0.011 0.017 0.107
0.011 0.027 0.107
0.001 0.033 0.109
0.003 0.035 0.107
0.001 0.029 0.041
0.003 0.033 0.043
0.021 0.035 0.103
0.021 0.039 0.101
0.023 0.037 0.103
0.025 0.031 0.105
0.001 0.021 0.109
0.007 0.017 0.101
-0.001 0.025 0.097
0.001 0.023 0.109
-0.001 0.027 0.101
0.003 0.013 0.101
0.011 0.015 0.109
0.009 0.015 0.109
0.009 0.015 0.105
0.017 0.019 0.105
0.013 0.023 0.107
0.025 0.021 0.103
0.013 0.025 0.107
0.017 0.029 0.105
0.017 0.025 0.105
0.023 0.023 0.105
0.019 0.023 0.105
0.021 0.027 0.105
0.019 0.019 0.103
0.019 0.017 0.103
0.021 0.023 0.105
0.023 0.021 0.103
0.023 0.021 0.103
0.025 0.023 0.105
0.009 0.031 0.103
0.003 0.031 0.043
-0.001 0.033 0.097
0.003 0.033 0.089
0.013 0.035 0.103
0.021 0.031 0.105
0.023 0.031 0.105
0.025 0.041 0.095
0.005 0.013 0.103
0.009 0.015 0.107
0.011 0.017 0.105
0.007 0.027 0.111
0.003 0.013 0.101
0.007 0.017 0.101
0.005 0.025 0.115
0.015 0.019 0.105
0.015 0.023 0.105
0.019 0.021 0.105
0.017 0.021 0.105
0.019 0.021 0.105
0.015 0.023 0.105
0.015 0.025 0.105
0.025 0.025 0.105
0.007 0.033 0.105
0.001 0.033 0.101
0.005 0.035 0.105
0.007 0.035 0.105
0.001 0.031 0.107
0.005 0.031 0.107
0.001 0.027 0.101
0.009 0.031 0.103
0.009 0.029 0.105
0.009 0.029 0.105
0.011 0.035 0.103
0.009 0.033 0.105
0.009 0.035 0.103
0.011 0.035 0.103
0.017 0.027 0.105
0.023 0.029 0.105
0.025 0.027 0.105
0.021 0.027 0.105
0.035 0.007 0.045
0.027 0.031 0.105
0.027 0.033 0.105
0.027 0.031 0.105
0.027 0.031 0.105
0.027 0.027 0.105
0.027 0.029 0.105
0.031 0.037 0.103
0.031 0.037 0.103
0.031 0.037 0.103
0.005 0.037 0.037
0.007 0.035 0.049
0.011 0.039 0.053
0.017 0.039 0.057
0.021 0.041 0.055
0.025 0.041 0.095
0.019 0.043 0.051
0.023 0.045 0.041
0.019 0.043 0.051
0.029 0.045 0.035
0.025 0.045 0.039
0.017 0.041 0.055
0.027 0.041 0.053
0.019 0.049 0.039
0.017 0.049 0.039
0.009 0.035 0.051
0.009 0.033 0.051
0.013 0.033 0.061
0.013 0.039 0.053
0.013 0.035 0.055
0.011 0.037 0.053
0.013 0.039 0.053
0.013 0.037 0.055
0.015 0.035 0.073
0.031 0.039 0.059
0.029 0.041 0.057
0.019 0.037 0.069
0.023 0.039 0.065
0.031 0.039 0.063
0.027 0.041 0.059
0.029 0.041 0.057
0.031 0.039 0.063
0.031 0.039 0.063
0.035 0.039 0.053
0.031 0.041 0.099
0.029 0.043 0.097
0.029 0.041 0.099
0.003 0.009 0.103
0.003 0.011 0.103
0.001 0.021 0.109
0.001 0.019 0.109
0.001 0.019 0.109
0.001 0.023 0.109
0.007 0.027 0.111
0.005 0.031 0.107
0.003 0.033 0.109
0.005 0.033 0.107
0.009 0.033 0.105
0.009 0.035 0.099
0.007 0.035 0.105
0.003 0.025 0.107
0.001 0.023 0.105
0.003 0.025 0.105
0.011 0.025 0.111
0.003 0.031 0.107
0.003 0.031 0.107
0.001 0.033 0.109
0.003 0.031 0.107
0.005 0.033 0.107
0.019 0.027 0.105
0.023 0.029 0.105
0.027 0.031 0.105
0.025 0.031 0.105
0.025 0.037 0.103
0.017 0.025 0.105
0.019 0.035 0.103
0.017 0.035 0.103
0.025 0.031 0.105
0.005 0.015 0.101
0.005 0.013 0.103
0.009 0.015 0.109
0.011 0.023 0.111
0.003 0.033 0.109
0.007 0.035 0.105
0.001 0.031 0.107
0.003 0.021 0.109
0.019 0.021 0.105
0.029 0.025 0.103
0.025 0.023 0.105
0.023 0.025 0.105
0.025 0.027 0.105
0.021 0.033 0.105
0.027 0.031 0.105
0.019 0.019 0.103
0.021 0.021 0.105
0.025 0.027 0.105
0.027 0.027 0.105
0.025 0.025 0.105
0.021 0.027 0.105
0.021 0.029 0.105
0.025 0.029 0.105
0.029 0.033 0.103
0.029 0.029 0.103
0.029 0.035 0.101
0.031 0.027 0.099
0.039 0.031 0.105
0.041 0.033 0.105
0.035 0.035 0.107
0.037 0.027 0.101
0.035 0.031 0.105
0.015 0.035 0.073
0.013 0.037 0.099
0.017 0.037 0.087
0.019 0.037 0.069
0.025 0.041 0.095
0.023 0.039 0.103
0.003 0.035 0.107
0.007 0.035 0.103
0.011 0.035 0.103
0.011 0.035 0.101
0.009 0.035 0.103
0.013 0.037 0.099
0.017 0.037 0.101
0.027 0.035 0.101
0.027 0.039 0.097
0.029 0.041 0.099
0.019 0.035 0.103
0.019 0.039 0.101
0.021 0.037 0.103
0.021 0.035 0.103
0.031 0.035 0.103
0.025 0.033 0.105
0.027 0.035 0.101
0.027 0.037 0.099
0.031 0.041 0.099
0.029 0.039 0.099
0.031 0.039 0.101
0.033 0.037 0.105
0.037 0.045 0.101
0.033 0.043 0.099
0.043 0.043 0.087
0.045 0.039 0.093
0.033 0.043 0.099
0.001 0.011 0.103
0.003 0.011 0.103
0.007 0.011 0.103
0.011 0.015 0.109
0.011 0.015 0.109
0.015 0.015 0.107
0.011 0.015 0.109
0.017 0.015 0.105
0.003 0.025 0.107
0.007 0.021 0.109
0.013 0.021 0.105
0.003 0.025 0.107
0.003 0.027 0.101
0.009 0.023 0.113
0.005 0.025 0.113
0.009 0.027 0.111
0.011 0.027 0.109
0.013 0.025 0.107
0.011 0.029 0.105
0.029 0.029 0.103
0.017 0.025 0.105
0.021 0.027 0.105
0.019 0.031 0.105
0.037 0.027 0.101
0.035 0.031 0.105
0.035 0.031 0.105
0.043 0.031 0.105
0.007 0.035 0.105
0.015 0.033 0.105
0.013 0.035 0.103
0.005 0.035 0.105
0.021 0.035 0.103
0.017 0.037 0.103
0.025 0.035 0.103
0.027 0.037 0.099
0.039 0.035 0.105
0.039 0.037 0.105
0.041 0.033 0.105
0.037 0.033 0.107
0.037 0.033 0.107
0.033 0.037 0.105
0.035 0.037 0.107
0.035 0.039 0.105
