-0.007 0.029 0.089
0.007 0.035 0.105
0.005 0.035 0.099
0.001 0.033 0.095
0.003 0.033 0.095
0.013 0.035 0.101
0.015 0.037 0.097
0.003 0.033 0.089
-0.007 0.019 0.065
-0.005 0.021 0.063
0.011 0.035 0.089
-0.011 0.009 0.089
-0.011 0.007 0.091
-0.007 0.019 0.111
0.013 0.029 0.105
0.005 0.025 0.113
-0.009 0.009 0.089
0.009 0.025 0.113
0.015 0.027 0.105
-0.001 0.019 0.111
0.007 0.025 0.115
0.007 0.023 0.115
-0.003 0.019 0.111
0.005 0.025 0.115
0.007 0.025 0.115
-0.005 0.015 0.111
0.001 0.017 0.109
-0.015 -0.007 0.091
-0.001 0.009 0.103
-0.001 0.031 0.101
-0.017 0.013 0.069
-0.011 0.009 0.091
-0.027 0.003 0.047
-0.031 -0.001 0.047
-0.027 0.003 0.053
-0.027 0.003 0.049
-0.027 0.003 0.051
-0.027 0.003 0.055
-0.017 0.005 0.091
0.003 0.035 0.107
0.011 0.035 0.103
-0.007 0.011 0.089
0.007 0.027 0.107
-0.003 0.031 0.101
0.007 0.035 0.103
0.003 0.035 0.107
0.007 0.035 0.105
0.017 0.035 0.103
0.021 0.037 0.103
0.015 0.035 0.105
0.021 0.037 0.103
0.021 0.039 0.101
0.021 0.039 0.101
0.015 0.031 0.105
0.013 0.031 0.105
0.013 0.029 0.105
0.019 0.025 0.105
0.017 0.029 0.105
0.011 0.031 0.105
0.013 0.031 0.105
0.021 0.033 0.105
0.019 0.035 0.103
0.019 0.033 0.105
-0.011 0.017 0.069
-0.011 0.017 0.069
0.003 0.033 0.091
0.003 0.033 0.087
0.007 0.035 0.097
-0.013 0.017 0.065
-0.013 0.017 0.063
-0.021 0.005 0.047
-0.009 0.019 0.059
-0.005 0.021 0.063
-0.007 0.029 0.093
-0.017 0.013 0.075
-0.007 0.029 0.093
-0.017 0.013 0.075
0.007 0.033 0.085
0.019 0.039 0.095
0.021 0.039 0.101
0.021 0.039 0.095
0.011 0.035 0.085
0.011 0.035 0.089
0.017 0.037 0.085
0.013 0.035 0.089
0.019 0.039 0.095
0.019 0.037 0.089
0.019 0.039 0.095
0.009 0.035 0.103
0.019 0.037 0.103
0.013 0.037 0.095
0.001 0.023 0.109
0.007 0.025 0.113
-0.003 0.029 0.103
-0.005 0.021 0.109
-0.007 0.019 0.109
-0.005 0.019 0.111
-0.017 0.009 0.087
-0.009 0.011 0.087
0.013 0.027 0.107
0.017 0.023 0.105
0.019 0.023 0.105
0.015 0.017 0.107
0.011 0.025 0.111
0.009 0.023 0.113
0.009 0.025 0.113
0.009 0.027 0.111
-0.005 0.029 0.101
0.005 0.033 0.107
-0.029 -0.001 0.063
0.009 0.035 0.103
0.009 0.033 0.105
0.009 0.035 0.103
0.009 0.033 0.105
0.011 0.035 0.097
0.011 0.035 0.101
0.009 0.035 0.099
0.007 0.035 0.101
0.007 0.031 0.105
0.005 0.031 0.107
0.007 0.035 0.105
-0.035 -0.023 0.085
-0.035 -0.029 0.087
-0.013 0.015 0.113
-0.019 0.005 0.091
-0.027 -0.003 0.091
-0.023 0.003 0.091
-0.039 -0.023 0.081
-0.025 -0.007 0.095
-0.031 -0.017 0.089
-0.011 0.017 0.113
-0.023 -0.001 0.093
-0.031 -0.007 0.089
-0.029 -0.009 0.091
-0.023 -0.005 0.095
-0.027 0.003 0.081
-0.039 -0.025 0.085
-0.039 -0.027 0.087
-0.035 -0.023 0.085
-0.037 -0.027 0.087
-0.033 -0.025 0.087
-0.029 -0.011 0.093
-0.007 0.017 0.113
-0.009 0.017 0.113
-0.015 0.005 0.091
-0.005 0.019 0.111
0.001 0.023 0.109
-0.001 0.019 0.111
-0.011 0.017 0.113
-0.005 0.017 0.111
-0.003 0.017 0.111
-0.001 0.019 0.111
0.007 0.023 0.115
0.011 0.023 0.111
0.009 0.025 0.113
0.011 0.025 0.111
0.003 0.025 0.107
0.003 0.023 0.109
-0.019 0.011 0.081
-0.019 0.009 0.085
-0.009 0.027 0.103
0.001 0.033 0.107
-0.011 0.009 0.087
-0.009 0.027 0.103
0.005 0.033 0.107
0.011 0.031 0.105
0.001 0.021 0.109
-0.007 0.011 0.089
0.005 0.025 0.111
0.007 0.027 0.111
0.005 0.025 0.113
-0.015 -0.007 0.091
-0.015 -0.009 0.091
-0.027 0.001 0.089
-0.025 -0.007 0.095
-0.027 -0.009 0.093
-0.019 -0.011 0.091
-0.021 -0.011 0.091
-0.009 0.015 0.113
-0.009 0.017 0.113
-0.013 -0.009 0.089
-0.013 -0.007 0.091
-0.011 -0.005 0.089
0.027 0.039 0.097
0.029 0.041 0.099
0.023 0.039 0.097
0.025 0.039 0.097
0.031 0.043 0.099
0.029 0.043 0.097
0.035 0.041 0.089
0.017 0.033 0.105
-0.001 0.033 0.035
-0.031 0.007 0.041
-0.011 0.017 0.057
-0.005 0.021 0.061
-0.009 0.019 0.061
-0.027 0.005 0.045
-0.027 0.007 0.045
-0.025 0.007 0.045
-0.023 0.007 0.043
-0.025 0.007 0.045
-0.027 0.003 0.051
-0.009 0.019 0.063
-0.003 0.021 0.061
0.003 0.025 0.053
0.003 0.027 0.075
0.013 0.033 0.077
0.013 0.035 0.085
0.005 0.029 0.049
-0.001 0.031 0.041
-0.003 0.029 0.043
-0.023 0.005 0.053
-0.009 0.019 0.067
-0.001 0.031 0.087
0.001 0.033 0.097
0.003 0.033 0.093
0.001 0.033 0.093
0.013 0.035 0.089
0.011 0.035 0.089
-0.007 0.019 0.067
0.003 0.033 0.095
0.001 0.033 0.089
-0.009 0.019 0.067
-0.009 0.017 0.069
-0.005 0.021 0.059
0.001 0.023 0.057
-0.005 0.025 0.053
-0.005 0.021 0.057
-0.001 0.021 0.059
-0.001 0.021 0.061
0.005 0.029 0.075
-0.001 0.031 0.101
-0.007 0.029 0.103
-0.005 0.031 0.097
0.003 0.033 0.101
0.009 0.035 0.095
0.013 0.031 0.105
-0.003 0.031 0.099
0.003 0.033 0.093
-0.025 0.005 0.085
-0.023 0.007 0.087
-0.023 0.005 0.089
-0.023 0.007 0.087
-0.021 0.009 0.085
-0.017 0.005 0.091
0.007 0.027 0.111
-0.013 0.009 0.089
-0.009 0.011 0.087
0.007 0.031 0.105
0.009 0.029 0.105
-0.013 0.009 0.089
0.001 0.023 0.105
-0.003 0.031 0.091
0.001 0.033 0.099
0.003 0.035 0.107
0.001 0.033 0.099
-0.005 0.017 0.111
-0.003 0.029 0.103
0.003 0.033 0.109
-0.007 0.029 0.103
0.001 0.023 0.109
-0.007 0.017 0.113
0.017 0.037 0.065
0.021 0.037 0.065
0.029 0.037 0.067
0.013 0.041 0.047
0.017 0.041 0.055
0.019 0.043 0.051
0.029 0.039 0.059
0.027 0.041 0.053
0.027 0.041 0.047
0.037 0.017 0.043
0.021 0.035 0.073
0.015 0.035 0.073
0.025 0.039 0.083
0.027 0.037 0.069
0.023 0.041 0.093
0.037 0.043 0.085
0.037 0.041 0.087
0.031 0.033 0.069
0.035 0.041 0.087
0.039 0.043 0.087
0.035 0.033 0.063
0.037 0.027 0.057
0.035 0.035 0.061
0.037 0.033 0.057
0.035 0.029 0.061
0.035 0.041 0.087
0.037 0.041 0.087
0.035 0.041 0.089
0.037 0.041 0.089
0.041 0.043 0.087
0.021 0.039 0.061
0.013 0.041 0.053
0.017 0.043 0.051
0.021 0.041 0.049
0.009 0.033 0.051
0.009 0.037 0.051
0.027 0.041 0.059
0.029 0.041 0.057
0.035 0.039 0.053
0.021 0.037 0.097
0.021 0.039 0.101
0.021 0.037 0.097
0.027 0.041 0.097
0.027 0.041 0.095
0.025 0.039 0.097
0.027 0.041 0.097
0.023 0.041 0.093
0.035 0.041 0.089
0.035 0.041 0.089
0.027 0.039 0.085
0.031 0.039 0.085
0.039 0.041 0.089
0.039 0.041 0.089
0.025 0.039 0.085
0.015 0.035 0.065
0.017 0.037 0.087
0.017 0.037 0.087
0.019 0.037 0.085
0.019 0.035 0.073
0.019 0.033 0.075
0.027 0.039 0.085
0.029 0.039 0.085
0.029 0.039 0.085
0.037 0.041 0.089
0.041 0.043 0.087
0.045 0.043 0.085
0.045 0.043 0.085
0.037 0.013 0.043
0.041 0.013 0.041
0.041 0.013 0.041
0.041 0.015 0.037
0.041 0.013 0.041
0.039 0.009 0.045
0.041 0.007 0.043
0.037 0.009 0.045
0.045 0.043 0.083
0.039 0.031 0.049
0.037 0.035 0.053
0.039 0.029 0.051
0.037 0.019 0.039
0.037 0.019 0.041
0.037 0.033 0.045
0.037 0.033 0.041
0.039 0.017 0.041
0.037 0.031 0.051
0.039 0.029 0.051
0.039 0.031 0.049
0.037 0.025 0.053
0.037 0.031 0.053
0.039 0.043 0.083
0.037 0.031 0.059
0.017 0.043 0.051
0.011 0.039 0.053
0.011 0.041 0.045
0.015 0.043 0.051
0.013 0.041 0.045
0.011 0.041 0.045
0.023 0.041 0.045
0.021 0.043 0.041
0.019 0.041 0.041
0.027 0.041 0.041
0.029 0.041 0.043
0.019 0.049 0.039
0.023 0.047 0.041
0.027 0.045 0.037
0.019 0.043 0.051
0.023 0.041 0.045
0.017 0.041 0.043
0.027 0.041 0.043
0.017 0.051 0.035
0.021 0.049 0.039
0.009 0.035 0.051
0.011 0.035 0.053
0.013 0.037 0.055
0.013 0.037 0.055
0.017 0.039 0.057
0.015 0.041 0.055
0.031 0.041 0.053
0.017 0.039 0.057
0.023 0.039 0.065
0.025 0.039 0.065
0.025 0.039 0.061
0.025 0.039 0.065
0.031 0.037 0.065
0.035 0.037 0.041
0.035 0.035 0.039
0.037 0.035 0.043
0.035 0.037 0.043
0.037 0.037 0.049
0.035 0.037 0.057
0.033 0.035 0.063
0.017 0.033 0.105
0.017 0.037 0.097
0.015 0.037 0.099
0.017 0.037 0.099
0.015 0.033 0.105
0.011 0.035 0.087
0.017 0.039 0.093
0.015 0.037 0.093
0.017 0.037 0.083
0.017 0.037 0.095
0.007 0.033 0.085
0.009 0.033 0.083
0.009 0.033 0.087
0.029 0.043 0.097
0.037 0.045 0.099
0.035 0.043 0.095
0.027 0.039 0.097
0.029 0.041 0.099
0.021 0.037 0.085
0.023 0.041 0.095
0.015 0.035 0.105
0.021 0.035 0.103
0.017 0.029 0.105
0.011 0.027 0.109
0.013 0.025 0.107
0.025 0.033 0.105
0.023 0.035 0.103
0.007 0.035 0.095
0.013 0.035 0.087
0.017 0.039 0.093
0.009 0.029 0.105
0.005 0.027 0.103
0.007 0.035 0.105
0.025 0.033 0.105
0.037 0.039 0.105
0.025 0.037 0.099
0.025 0.041 0.095
0.037 0.041 0.103
0.029 0.031 0.105
0.031 0.029 0.101
0.029 0.033 0.103
0.043 0.037 0.093
0.041 0.043 0.103
0.041 0.041 0.103
0.039 0.031 0.089
0.021 0.037 0.065
0.029 0.035 0.069
0.027 0.037 0.067
0.013 0.035 0.087
0.033 0.043 0.095
0.035 0.043 0.095
0.023 0.041 0.095
0.021 0.039 0.095
0.027 0.041 0.097
0.021 0.039 0.093
0.019 0.039 0.095
0.025 0.039 0.097
0.029 0.041 0.099
0.029 0.043 0.097
0.027 0.037 0.099
0.029 0.041 0.099
0.033 0.043 0.099
0.039 0.045 0.101
0.037 0.041 0.087
0.043 0.043 0.087
0.041 0.037 0.091
0.037 0.037 0.089
0.035 0.043 0.101
0.043 0.037 0.093
0.005 0.013 0.103
0.015 0.019 0.105
0.013 0.017 0.107
0.009 0.015 0.107
0.013 0.017 0.107
0.007 0.027 0.111
0.007 0.027 0.105
0.003 0.035 0.107
0.005 0.025 0.115
0.005 0.025 0.109
0.009 0.025 0.113
0.011 0.023 0.111
0.013 0.031 0.105
0.023 0.025 0.105
0.027 0.025 0.105
0.027 0.027 0.105
0.025 0.025 0.105
0.023 0.025 0.105
0.027 0.025 0.105
0.029 0.025 0.103
0.027 0.029 0.105
0.031 0.033 0.103
0.029 0.031 0.105
0.021 0.025 0.105
0.021 0.029 0.105
0.007 0.025 0.115
0.005 0.025 0.115
0.037 0.027 0.101
0.039 0.025 0.101
0.043 0.031 0.105
0.003 0.033 0.097
0.015 0.037 0.101
0.017 0.037 0.103
0.005 0.033 0.107
0.007 0.035 0.105
0.023 0.039 0.101
0.017 0.037 0.103
0.031 0.037 0.103
0.027 0.033 0.105
0.035 0.041 0.101
0.037 0.041 0.103
0.041 0.041 0.103
0.039 0.043 0.103
0.041 0.037 0.105
0.033 0.039 0.103
0.041 0.039 0.105
0.039 0.045 0.101
0.039 0.043 0.103
0.039 0.035 0.105
0.041 0.039 0.105
