-0.027 -0.005 0.033
-0.007 -0.033 0.039
-0.031 -0.003 0.037
-0.017 -0.005 0.039
-0.027 -0.007 0.041
-0.021 -0.007 0.047
-0.001 -0.029 0.053
-0.023 -0.005 0.051
-0.013 -0.013 0.057
-0.009 -0.013 0.055
-0.005 -0.011 0.055
-0.013 -0.015 0.063
-0.001 -0.025 0.075
-0.001 -0.027 0.077
-0.005 -0.023 0.075
-0.009 -0.019 0.071
-0.011 -0.017 0.085
-0.027 -0.007 0.089
-0.005 -0.013 0.093
-0.019 -0.001 0.097
-0.021 -0.003 0.107
0.015 -0.035 0.033
0.017 -0.035 0.035
0.001 -0.033 0.041
0.009 -0.033 0.043
0.019 -0.035 0.037
0.025 -0.037 0.063
0.035 -0.033 0.049
0.005 -0.035 0.039
0.007 -0.035 0.037
0.001 -0.033 0.043
0.009 -0.033 0.041
0.023 -0.029 0.043
0.019 -0.023 0.047
-0.007 -0.027 0.043
-0.005 -0.017 0.043
-0.005 -0.023 0.047
-0.007 -0.025 0.045
-0.005 -0.025 0.049
-0.003 -0.027 0.051
0.005 -0.033 0.049
0.005 -0.031 0.055
0.007 -0.031 0.053
-0.003 -0.027 0.055
0.005 -0.033 0.049
0.009 -0.033 0.057
0.027 -0.023 0.051
0.017 -0.033 0.063
0.021 -0.035 0.065
0.021 -0.035 0.065
-0.003 -0.025 0.057
0.001 -0.029 0.065
0.005 -0.033 0.063
0.001 -0.029 0.065
0.003 -0.033 0.069
0.023 -0.031 0.041
0.035 -0.033 0.047
0.017 -0.035 0.077
0.029 -0.043 0.077
0.023 -0.039 0.081
0.025 -0.039 0.083
0.031 -0.043 0.083
0.021 -0.037 0.069
0.011 -0.035 0.079
0.005 -0.033 0.085
0.003 -0.031 0.073
0.001 -0.025 0.091
-0.033 -0.003 0.035
-0.037 0.007 0.041
-0.037 0.007 0.039
-0.041 0.015 0.055
-0.041 0.023 0.053
-0.027 -0.007 0.037
-0.011 -0.007 0.043
-0.013 -0.007 0.045
-0.015 -0.011 0.051
-0.039 0.007 0.037
-0.035 0.005 0.041
-0.027 0.001 0.047
-0.025 0.007 0.053
-0.031 0.013 0.055
-0.021 0.001 0.061
-0.031 0.013 0.059
-0.027 0.013 0.059
-0.019 -0.009 0.065
-0.039 0.025 0.061
-0.029 0.005 0.047
-0.035 0.015 0.069
-0.035 0.015 0.067
-0.033 0.011 0.075
-0.037 0.017 0.085
-0.039 0.019 0.093
-0.021 0.009 0.065
-0.029 0.005 0.075
-0.031 0.009 0.075
-0.013 -0.015 0.077
-0.033 0.011 0.071
-0.031 0.013 0.081
-0.029 0.003 0.083
-0.031 0.007 0.081
-0.027 -0.007 0.089
-0.015 0.003 0.091
-0.013 0.001 0.095
-0.011 0.001 0.095
-0.009 -0.001 0.095
-0.025 -0.007 0.097
-0.033 0.003 0.091
-0.035 0.011 0.089
-0.039 0.033 0.089
-0.041 0.027 0.097
-0.043 0.033 0.097
-0.039 0.025 0.091
-0.033 0.001 0.107
-0.027 -0.009 0.101
-0.033 0.001 0.107
-0.025 0.003 0.107
-0.011 0.001 0.099
-0.027 -0.005 0.103
-0.019 0.003 0.109
-0.033 0.021 0.105
-0.041 0.033 0.101
-0.009 -0.003 0.039
0.001 -0.009 0.047
0.001 -0.009 0.043
0.005 -0.007 0.047
-0.011 0.029 0.049
-0.015 0.011 0.057
-0.001 0.001 0.051
0.001 0.001 0.065
0.005 -0.007 0.079
-0.003 0.001 0.079
0.003 -0.003 0.077
-0.001 0.003 0.069
-0.001 -0.005 0.087
-0.003 -0.007 0.089
-0.009 0.001 0.089
-0.007 -0.007 0.087
-0.011 -0.003 0.083
-0.021 0.027 0.103
0.009 0.003 0.039
0.021 -0.001 0.033
0.031 -0.011 0.041
0.009 -0.015 0.061
0.037 -0.027 0.061
0.009 -0.005 0.041
0.013 -0.009 0.051
0.033 -0.013 0.045
0.025 -0.003 0.051
0.009 -0.001 0.039
0.015 -0.005 0.041
0.015 -0.003 0.047
0.027 -0.009 0.039
0.017 0.001 0.037
0.027 -0.003 0.033
0.023 -0.003 0.043
0.019 -0.003 0.041
0.013 -0.015 0.053
0.005 -0.017 0.065
0.031 -0.005 0.055
0.031 -0.023 0.059
0.023 -0.005 0.059
0.029 -0.005 0.057
0.035 -0.015 0.035
0.035 -0.015 0.035
0.037 -0.017 0.035
0.041 -0.019 0.043
0.041 -0.023 0.051
0.035 -0.017 0.049
0.039 -0.021 0.053
0.035 -0.025 0.061
0.023 -0.031 0.071
0.027 -0.031 0.071
0.023 -0.031 0.073
0.033 -0.037 0.081
0.029 -0.035 0.085
0.035 -0.039 0.085
0.005 -0.007 0.075
0.003 -0.005 0.075
0.001 -0.001 0.073
0.005 -0.005 0.077
0.023 -0.009 0.065
0.015 -0.021 0.089
0.009 -0.015 0.091
0.009 -0.015 0.091
0.005 -0.009 0.087
-0.011 0.041 0.043
-0.005 0.033 0.041
-0.007 0.039 0.039
0.001 0.021 0.033
-0.029 0.033 0.033
-0.021 0.035 0.047
-0.029 0.037 0.059
-0.037 0.033 0.061
-0.007 0.037 0.045
-0.007 0.041 0.043
-0.001 0.013 0.045
-0.007 0.039 0.035
-0.001 0.011 0.049
-0.005 0.009 0.059
-0.017 0.023 0.061
-0.011 0.025 0.053
-0.035 0.037 0.045
-0.035 0.037 0.047
-0.035 0.037 0.055
-0.037 0.035 0.059
-0.027 0.037 0.039
-0.027 0.037 0.039
-0.019 0.035 0.047
-0.021 0.037 0.045
-0.029 0.037 0.053
-0.029 0.037 0.059
-0.035 0.031 0.067
-0.029 0.035 0.089
-0.017 0.021 0.069
-0.017 0.005 0.069
-0.017 0.015 0.069
-0.023 0.021 0.079
-0.011 0.005 0.069
-0.017 0.021 0.069
-0.029 0.029 0.071
-0.023 0.029 0.069
-0.021 0.027 0.071
-0.019 0.023 0.073
-0.015 0.019 0.087
-0.009 0.003 0.087
-0.025 0.041 0.085
-0.025 0.037 0.085
-0.023 0.035 0.085
-0.023 0.033 0.087
-0.023 0.037 0.097
-0.021 0.033 0.097
-0.023 0.033 0.095
-0.021 0.027 0.091
-0.031 0.047 0.083
-0.033 0.049 0.085
-0.033 0.045 0.091
-0.039 0.033 0.093
-0.023 0.035 0.083
-0.029 0.037 0.101
-0.031 0.025 0.105
-0.031 0.035 0.105
-0.039 0.039 0.099
-0.031 0.043 0.105
-0.021 0.021 0.105
-0.015 0.011 0.109
-0.019 0.021 0.101
-0.025 0.037 0.101
-0.021 0.027 0.099
-0.037 0.041 0.105
0.035 -0.035 0.055
0.035 -0.035 0.057
0.037 -0.029 0.061
0.029 -0.007 0.059
0.025 -0.009 0.065
0.019 -0.015 0.047
0.031 -0.007 0.057
0.029 -0.009 0.061
0.021 -0.011 0.071
0.001 -0.009 0.069
0.021 -0.013 0.069
0.019 -0.019 0.079
0.019 -0.023 0.083
0.015 -0.017 0.087
0.011 -0.013 0.087
0.011 -0.025 0.091
0.015 -0.023 0.089
0.007 -0.021 0.093
-0.027 -0.005 0.089
-0.003 -0.001 0.081
-0.003 -0.003 0.083
0.025 -0.035 0.035
0.041 -0.025 0.043
0.041 -0.023 0.043
0.035 -0.035 0.053
0.021 -0.035 0.035
0.031 -0.033 0.069
0.035 -0.035 0.053
0.039 -0.029 0.057
0.039 -0.031 0.047
0.041 -0.023 0.051
0.037 -0.031 0.061
0.039 -0.025 0.039
0.037 -0.031 0.045
0.039 -0.017 0.041
0.029 -0.005 0.049
0.029 -0.005 0.047
0.029 -0.007 0.045
0.025 -0.005 0.039
0.031 -0.011 0.041
0.035 -0.029 0.063
0.035 -0.023 0.059
0.031 -0.031 0.067
0.039 -0.027 0.057
0.033 -0.027 0.063
0.029 -0.009 0.059
0.027 -0.013 0.061
0.023 -0.011 0.067
0.027 -0.011 0.061
0.025 -0.011 0.063
0.041 -0.029 0.047
0.041 -0.023 0.041
0.037 -0.015 0.039
0.035 -0.013 0.041
0.037 -0.025 0.059
0.037 -0.031 0.061
0.027 -0.035 0.073
0.031 -0.035 0.081
0.035 -0.041 0.083
0.031 -0.035 0.087
0.021 -0.023 0.073
0.019 -0.021 0.079
0.027 -0.029 0.069
0.019 -0.019 0.065
0.017 -0.017 0.079
0.003 -0.003 0.075
0.021 -0.013 0.071
0.017 -0.031 0.089
0.017 -0.029 0.087
0.011 -0.029 0.093
0.007 -0.009 0.081
-0.003 0.003 0.043
-0.003 0.003 0.041
-0.003 0.009 0.055
-0.009 0.017 0.053
-0.007 0.013 0.055
-0.009 0.017 0.053
-0.017 0.019 0.057
-0.007 0.013 0.055
-0.017 0.015 0.069
-0.021 0.027 0.069
-0.001 0.001 0.055
0.029 -0.003 0.055
0.001 0.015 0.043
-0.005 0.025 0.043
-0.005 0.029 0.039
-0.003 0.021 0.041
-0.003 0.025 0.039
-0.005 0.021 0.047
-0.021 0.013 0.059
-0.003 0.005 0.065
-0.015 0.029 0.057
-0.023 0.031 0.067
-0.005 0.029 0.043
-0.013 0.033 0.047
-0.005 0.035 0.037
-0.007 0.037 0.041
-0.007 0.039 0.037
-0.007 0.037 0.041
-0.021 0.021 0.079
-0.021 0.027 0.093
-0.017 0.019 0.095
-0.017 0.011 0.071
-0.001 0.001 0.077
-0.021 0.021 0.079
-0.017 0.003 0.081
-0.017 0.001 0.087
-0.011 0.009 0.091
-0.011 0.007 0.087
-0.009 0.005 0.089
-0.015 0.015 0.091
-0.021 0.029 0.087
-0.021 0.029 0.087
-0.015 0.017 0.095
-0.017 0.021 0.089
-0.017 0.021 0.097
-0.021 0.023 0.093
-0.015 0.017 0.087
-0.025 0.031 0.069
-0.021 0.029 0.089
-0.035 0.047 0.091
-0.029 0.047 0.087
-0.021 0.007 0.109
-0.021 0.019 0.105
-0.019 0.005 0.107
-0.023 0.011 0.109
-0.013 0.013 0.099
-0.015 0.013 0.103
-0.031 0.029 0.105
-0.031 0.035 0.103
-0.029 0.033 0.101
0.005 0.015 0.035
0.001 0.021 0.037
-0.025 -0.005 0.033
0.005 -0.033 0.049
-0.001 -0.029 0.047
0.003 -0.031 0.051
-0.021 -0.005 0.037
-0.021 -0.007 0.041
0.009 -0.031 0.049
0.005 -0.033 0.059
-0.017 -0.011 0.053
-0.011 -0.011 0.053
0.015 -0.035 0.073
0.013 -0.035 0.079
-0.005 -0.025 0.087
-0.017 -0.005 0.107
0.021 -0.035 0.035
0.009 -0.035 0.037
0.017 -0.035 0.037
0.019 -0.033 0.039
0.021 -0.033 0.039
0.013 -0.027 0.047
0.031 -0.031 0.037
0.031 -0.031 0.041
0.029 -0.031 0.045
0.035 -0.035 0.057
0.035 -0.035 0.057
0.033 -0.035 0.061
0.035 -0.035 0.057
0.037 -0.033 0.057
0.005 -0.031 0.053
0.015 -0.029 0.055
0.017 -0.027 0.053
0.017 -0.027 0.055
0.005 -0.033 0.061
0.009 -0.033 0.059
0.015 -0.033 0.061
0.025 -0.039 0.071
0.033 -0.035 0.059
0.029 -0.037 0.063
0.025 -0.037 0.067
0.025 -0.037 0.065
0.023 -0.039 0.069
0.019 -0.035 0.069
0.033 -0.029 0.065
0.031 -0.007 0.051
0.037 -0.027 0.061
0.031 -0.009 0.057
0.039 -0.023 0.037
0.039 -0.029 0.043
0.041 -0.027 0.053
0.041 -0.029 0.049
0.041 -0.027 0.053
0.039 -0.031 0.057
0.037 -0.031 0.059
0.037 -0.031 0.061
0.005 -0.035 0.073
0.033 -0.043 0.079
0.025 -0.039 0.085
0.035 -0.043 0.087
0.029 -0.041 0.073
0.033 -0.033 0.067
0.031 -0.043 0.075
0.015 -0.035 0.081
0.017 -0.031 0.089
0.017 -0.033 0.087
0.017 -0.023 0.087
0.005 -0.025 0.093
0.011 -0.025 0.093
-0.001 -0.029 0.057
0.013 -0.033 0.061
-0.031 0.007 0.049
-0.013 -0.015 0.063
-0.035 0.007 0.047
-0.035 0.009 0.051
-0.031 0.007 0.049
-0.017 -0.013 0.069
-0.029 0.007 0.069
-0.013 -0.017 0.079
0.003 -0.031 0.055
0.011 -0.033 0.057
0.017 -0.033 0.065
0.023 -0.039 0.071
0.023 -0.039 0.081
0.025 -0.041 0.081
0.029 -0.043 0.079
-0.019 -0.009 0.059
0.021 -0.039 0.073
0.011 -0.035 0.079
0.007 -0.033 0.081
0.015 -0.035 0.081
0.015 -0.035 0.079
0.009 -0.035 0.083
0.009 -0.029 0.091
0.031 -0.043 0.077
0.031 -0.043 0.083
0.009 -0.031 0.089
-0.015 -0.013 0.079
-0.025 0.003 0.073
-0.001 -0.025 0.091
-0.027 -0.007 0.101
-0.023 -0.001 0.091
-0.021 0.003 0.101
-0.023 0.003 0.101
-0.011 -0.019 0.083
-0.025 0.003 0.075
-0.021 -0.001 0.083
0.003 -0.023 0.093
-0.007 -0.013 0.093
-0.017 0.001 0.089
-0.017 0.001 0.091
-0.009 0.003 0.089
-0.007 -0.001 0.095
-0.019 0.001 0.095
-0.013 0.001 0.095
-0.013 0.003 0.099
-0.015 0.003 0.097
-0.023 0.001 0.097
0.005 -0.027 0.091
0.005 -0.025 0.093
-0.013 0.015 0.095
-0.013 -0.011 0.113
-0.013 -0.011 0.113
-0.023 0.005 0.109
-0.019 0.003 0.097
-0.021 0.011 0.105
-0.023 0.005 0.109
-0.031 0.035 0.105
-0.017 0.011 0.107
-0.023 0.035 0.099
0.027 -0.041 0.075
0.035 -0.035 0.059
