-0.015 -0.005 0.039
-0.013 -0.009 0.047
-0.017 -0.009 0.049
-0.005 -0.015 0.065
-0.029 -0.007 0.097
-0.027 -0.009 0.097
-0.019 -0.007 0.109
0.031 -0.037 0.063
-0.005 -0.037 0.037
0.009 -0.031 0.049
0.027 -0.031 0.043
0.009 -0.033 0.045
0.001 -0.031 0.051
0.005 -0.031 0.053
-0.003 -0.027 0.055
0.001 -0.027 0.067
0.005 -0.033 0.067
0.033 -0.033 0.049
0.003 -0.033 0.077
0.023 -0.037 0.065
0.001 -0.029 0.073
0.003 -0.033 0.081
0.005 -0.035 0.071
0.007 -0.027 0.093
0.003 -0.023 0.095
0.007 -0.029 0.091
0.017 -0.033 0.083
0.015 -0.033 0.087
-0.023 -0.007 0.039
-0.051 0.017 0.035
-0.051 0.019 0.037
-0.041 0.013 0.037
-0.035 0.011 0.053
-0.015 -0.007 0.043
-0.017 -0.009 0.047
-0.023 0.003 0.055
-0.025 -0.001 0.051
-0.013 -0.015 0.063
-0.017 -0.011 0.067
-0.019 -0.009 0.065
-0.039 0.027 0.063
-0.029 0.005 0.047
-0.031 0.011 0.053
-0.039 0.023 0.065
-0.035 0.015 0.073
-0.037 0.021 0.085
-0.039 0.017 0.093
-0.025 0.001 0.079
-0.019 0.003 0.073
-0.019 0.001 0.075
-0.031 0.001 0.087
-0.029 -0.007 0.089
-0.027 -0.009 0.097
-0.035 0.005 0.097
-0.037 0.015 0.097
-0.019 0.001 0.099
-0.025 0.005 0.105
-0.037 0.019 0.103
-0.039 0.019 0.101
-0.011 -0.007 0.043
-0.017 -0.009 0.047
-0.003 -0.033 0.041
-0.005 -0.031 0.041
0.005 -0.029 0.089
0.003 -0.013 0.091
0.003 -0.025 0.091
0.023 -0.013 0.047
0.031 -0.039 0.087
0.011 -0.031 0.089
0.021 -0.015 0.045
0.009 -0.035 0.083
0.017 -0.007 0.053
0.031 -0.009 0.057
0.041 -0.027 0.049
0.039 -0.031 0.055
0.031 -0.041 0.085
0.035 -0.043 0.087
0.021 -0.023 0.073
0.019 -0.021 0.083
0.007 -0.015 0.091
0.015 -0.031 0.089
0.007 -0.027 0.093
0.001 0.019 0.037
-0.023 0.005 0.115
-0.023 0.005 0.115
-0.023 0.005 0.113
-0.013 -0.011 0.113
0.001 -0.001 0.069
-0.001 0.003 0.069
-0.019 0.019 0.103
-0.025 0.021 0.105
-0.019 0.023 0.101
-0.023 0.007 0.115
-0.023 0.009 0.113
-0.031 0.003 0.103
-0.013 -0.001 0.081
-0.011 0.005 0.101
-0.011 0.009 0.101
-0.021 0.015 0.105
-0.013 0.013 0.107
-0.015 -0.005 0.111
-0.021 0.023 0.103
-0.031 0.035 0.105
-0.033 0.035 0.105
-0.031 0.043 0.105
-0.027 0.047 0.085
-0.031 0.007 0.105
-0.027 0.001 0.101
-0.027 0.027 0.105
-0.023 0.025 0.105
0.003 0.009 0.041
0.001 0.011 0.047
-0.001 -0.011 0.043
0.007 -0.005 0.047
-0.009 0.009 0.059
-0.001 -0.011 0.049
0.001 0.001 0.069
0.025 -0.003 0.035
0.027 -0.011 0.035
0.019 -0.005 0.045
0.021 -0.003 0.041
0.005 -0.007 0.039
0.011 0.003 0.039
0.015 0.001 0.037
0.019 -0.003 0.041
0.015 -0.017 0.057
0.007 -0.011 0.053
0.031 -0.007 0.057
0.035 -0.025 0.061
0.007 -0.017 0.065
0.005 -0.007 0.079
0.013 -0.015 0.085
-0.015 0.039 0.041
-0.037 0.035 0.057
-0.001 0.023 0.035
-0.021 0.029 0.067
-0.015 0.041 0.037
-0.025 0.037 0.041
-0.007 0.041 0.043
-0.033 0.025 0.073
-0.031 0.041 0.097
-0.031 0.039 0.089
-0.027 0.023 0.077
-0.025 0.027 0.073
-0.021 0.031 0.095
-0.021 0.029 0.089
-0.031 0.029 0.105
-0.019 0.005 0.109
-0.025 0.013 0.107
-0.009 0.003 0.103
-0.021 0.021 0.105
-0.023 0.009 0.113
-0.025 0.009 0.113
-0.031 0.039 0.105
0.015 -0.005 0.051
0.001 0.001 0.059
-0.001 0.003 0.055
-0.003 0.003 0.073
0.009 -0.017 0.091
-0.001 -0.005 0.085
0.001 -0.011 0.091
0.033 -0.013 0.037
0.033 -0.019 0.031
0.033 -0.017 0.031
0.023 -0.029 0.063
0.035 -0.015 0.047
0.023 -0.009 0.065
0.005 -0.011 0.055
0.021 -0.005 0.057
0.021 -0.009 0.065
0.031 -0.007 0.057
0.037 -0.023 0.035
0.025 -0.033 0.081
0.035 -0.043 0.085
0.009 -0.011 0.079
0.019 -0.027 0.081
0.007 -0.009 0.087
0.011 -0.013 0.081
-0.003 0.025 0.037
-0.007 0.037 0.045
-0.001 0.013 0.047
0.001 0.007 0.043
-0.003 0.027 0.041
-0.003 0.031 0.037
-0.021 0.013 0.061
-0.015 0.021 0.055
-0.025 0.037 0.055
-0.009 0.043 0.043
-0.023 0.031 0.067
-0.025 0.031 0.069
-0.023 0.033 0.095
-0.015 0.013 0.085
-0.029 0.041 0.089
-0.021 0.025 0.103
-0.011 0.009 0.099
-0.021 0.029 0.097
-0.027 0.041 0.101
0.003 0.015 0.039
-0.007 0.007 0.065
-0.007 0.005 0.067
-0.007 0.005 0.069
-0.005 0.009 0.059
-0.007 0.009 0.059
-0.021 0.031 0.087
-0.019 0.027 0.089
-0.017 0.021 0.095
-0.033 0.019 0.105
-0.017 -0.003 0.111
-0.003 0.013 0.047
0.005 -0.009 0.073
0.015 -0.017 0.071
0.019 -0.013 0.073
0.033 -0.025 0.061
0.021 -0.005 0.047
0.013 -0.015 0.059
-0.001 0.005 0.061
0.025 -0.005 0.059
0.009 -0.011 0.087
0.013 -0.027 0.091
0.031 -0.035 0.085
-0.001 -0.001 0.081
0.013 -0.017 0.071
0.009 -0.015 0.091
0.001 -0.021 0.095
0.017 -0.019 0.083
-0.033 0.037 0.045
-0.013 0.037 0.043
-0.015 0.041 0.035
-0.041 0.031 0.047
-0.041 0.031 0.051
-0.049 0.027 0.035
-0.049 0.025 0.037
-0.037 0.035 0.045
-0.037 0.035 0.043
-0.033 0.035 0.063
-0.009 0.027 0.051
-0.013 0.037 0.043
-0.007 0.041 0.043
-0.033 0.033 0.065
-0.019 0.023 0.073
-0.023 0.031 0.067
-0.021 0.031 0.063
-0.019 0.027 0.065
-0.031 0.037 0.041
-0.035 0.039 0.105
-0.025 0.037 0.087
-0.017 0.021 0.071
-0.019 0.029 0.083
-0.025 0.039 0.097
-0.017 0.023 0.097
-0.027 0.039 0.089
-0.021 0.031 0.087
-0.033 0.047 0.089
-0.027 0.047 0.085
-0.039 0.039 0.105
-0.023 0.017 0.105
-0.017 0.017 0.105
-0.043 0.041 0.101
-0.001 0.023 0.035
-0.001 0.023 0.039
-0.001 0.013 0.045
0.025 -0.011 0.065
0.017 -0.021 0.085
-0.017 -0.001 0.089
-0.025 -0.003 0.095
-0.019 -0.001 0.095
0.001 -0.015 0.093
0.041 -0.023 0.049
0.037 -0.033 0.057
0.035 -0.033 0.063
0.039 -0.031 0.049
0.037 -0.019 0.051
0.039 -0.019 0.041
0.035 -0.029 0.063
0.027 -0.031 0.071
0.037 -0.025 0.059
0.011 -0.013 0.055
0.013 -0.015 0.059
0.041 -0.021 0.049
0.035 -0.041 0.081
0.033 -0.037 0.085
0.031 -0.035 0.083
0.031 -0.039 0.087
0.017 -0.017 0.079
0.011 -0.013 0.081
0.023 -0.011 0.067
0.017 -0.031 0.089
0.011 -0.027 0.093
-0.003 0.023 0.041
-0.011 0.015 0.055
-0.009 0.023 0.051
-0.007 0.027 0.037
-0.005 0.019 0.047
-0.019 0.011 0.069
-0.015 0.027 0.057
-0.007 0.033 0.045
-0.015 0.019 0.091
-0.019 0.021 0.093
-0.019 0.023 0.091
-0.019 0.007 0.071
-0.001 0.001 0.073
-0.007 0.001 0.095
-0.017 0.021 0.099
-0.017 0.019 0.097
-0.029 0.031 0.089
-0.037 0.049 0.093
-0.013 0.011 0.109
-0.033 0.003 0.109
-0.009 0.003 0.103
-0.011 0.007 0.103
0.017 0.001 0.037
0.011 0.001 0.039
0.015 0.007 0.037
-0.009 -0.025 0.043
-0.031 -0.001 0.041
-0.005 -0.015 0.043
-0.031 -0.003 0.089
-0.033 0.001 0.091
-0.029 -0.005 0.093
-0.005 -0.027 0.039
-0.001 -0.029 0.047
-0.033 0.003 0.043
-0.029 -0.001 0.043
-0.033 0.003 0.043
-0.025 0.003 0.051
-0.001 -0.029 0.051
-0.003 -0.027 0.055
-0.003 -0.023 0.057
-0.001 -0.023 0.061
0.001 -0.021 0.063
0.003 -0.033 0.071
0.001 -0.031 0.085
0.001 -0.027 0.073
-0.001 -0.027 0.077
0.003 -0.027 0.069
-0.017 -0.005 0.073
-0.001 -0.019 0.093
-0.043 0.025 0.039
-0.043 0.015 0.051
-0.047 0.025 0.039
-0.033 0.033 0.035
-0.039 0.033 0.053
-0.025 0.007 0.067
-0.039 0.033 0.045
-0.037 0.035 0.059
-0.033 0.011 0.073
-0.041 0.039 0.089
-0.035 0.037 0.089
-0.033 0.027 0.103
-0.035 0.015 0.105
-0.043 0.033 0.097
-0.005 -0.021 0.053
-0.009 -0.015 0.061
-0.005 -0.021 0.073
-0.017 -0.011 0.073
-0.029 -0.007 0.089
-0.029 -0.007 0.093
-0.021 -0.001 0.095
-0.027 -0.009 0.097
0.019 -0.035 0.033
0.003 -0.033 0.063
0.025 -0.037 0.063
0.007 -0.035 0.037
0.003 -0.035 0.041
0.019 -0.023 0.047
0.019 -0.023 0.047
0.001 -0.031 0.051
0.001 -0.031 0.057
0.007 -0.033 0.057
0.005 -0.031 0.053
0.019 -0.033 0.065
0.015 -0.033 0.061
0.033 -0.033 0.043
0.041 -0.029 0.047
0.035 -0.033 0.051
0.013 -0.037 0.073
0.029 -0.039 0.087
0.003 -0.031 0.075
0.015 -0.035 0.069
0.003 -0.033 0.077
0.013 -0.035 0.083
-0.029 -0.005 0.035
-0.021 -0.005 0.039
-0.035 0.005 0.041
-0.049 0.017 0.039
-0.033 0.009 0.051
-0.029 0.005 0.045
-0.009 0.001 0.033
-0.017 -0.003 0.037
-0.005 0.005 0.035
-0.007 -0.007 0.045
-0.021 0.005 0.059
-0.037 0.007 0.043
-0.035 0.015 0.059
-0.033 0.005 0.045
-0.025 -0.005 0.041
-0.033 0.009 0.051
-0.031 0.007 0.049
-0.021 -0.007 0.043
-0.009 -0.017 0.069
-0.017 -0.001 0.081
-0.021 0.005 0.069
-0.029 0.007 0.069
-0.021 -0.001 0.083
-0.021 -0.001 0.091
-0.031 -0.001 0.087
-0.009 -0.001 0.097
-0.027 -0.009 0.097
-0.025 0.003 0.105
-0.041 0.037 0.103
-0.009 -0.029 0.039
-0.027 -0.003 0.031
-0.001 -0.029 0.047
-0.023 -0.007 0.045
0.001 -0.033 0.043
-0.021 -0.007 0.049
-0.009 -0.015 0.061
0.017 -0.033 0.039
0.013 -0.033 0.061
0.017 -0.033 0.039
0.025 -0.035 0.033
0.025 -0.033 0.037
0.021 -0.023 0.045
0.011 -0.029 0.053
0.013 -0.029 0.053
0.021 -0.037 0.071
0.007 -0.033 0.085
0.011 -0.037 0.071
0.021 -0.037 0.081
-0.043 0.015 0.035
-0.039 0.009 0.045
-0.027 -0.007 0.037
-0.027 -0.007 0.037
-0.041 0.015 0.055
-0.025 -0.005 0.047
-0.017 -0.011 0.057
0.007 -0.033 0.061
0.001 -0.031 0.061
0.003 -0.031 0.057
-0.003 -0.027 0.047
0.007 -0.033 0.041
0.007 -0.033 0.043
-0.027 0.005 0.073
-0.025 0.007 0.069
-0.001 -0.019 0.071
-0.009 -0.019 0.073
-0.029 -0.007 0.089
-0.025 -0.005 0.093
-0.019 -0.001 0.093
-0.027 -0.005 0.091
-0.027 -0.005 0.087
-0.025 -0.005 0.093
-0.023 0.003 0.103
-0.027 -0.009 0.097
-0.043 0.027 0.039
-0.029 0.039 0.051
-0.037 0.029 0.067
-0.039 0.019 0.095
-0.039 0.043 0.091
-0.037 0.037 0.107
-0.013 0.041 0.043
-0.019 0.035 0.047
-0.015 0.031 0.049
-0.027 0.037 0.057
-0.027 0.037 0.057
-0.009 0.035 0.045
-0.015 0.035 0.045
-0.009 0.039 0.045
-0.015 0.031 0.055
-0.015 0.033 0.047
0.023 -0.003 0.041
0.017 0.003 0.037
0.021 -0.003 0.041
0.021 -0.003 0.039
0.027 -0.003 0.047
-0.037 0.047 0.085
0.017 -0.011 0.069
0.019 -0.019 0.077
0.013 -0.015 0.081
-0.003 0.005 0.067
0.021 -0.009 0.067
-0.041 0.021 0.047
-0.049 0.023 0.039
-0.043 0.019 0.051
-0.029 0.037 0.039
-0.019 0.037 0.039
-0.023 0.037 0.047
-0.011 0.043 0.039
-0.017 0.033 0.051
-0.035 0.035 0.059
-0.017 0.033 0.053
-0.033 0.037 0.047
-0.015 0.041 0.035
-0.017 0.033 0.053
-0.025 0.033 0.063
-0.033 0.003 0.091
-0.039 0.025 0.083
-0.035 0.027 0.071
-0.031 0.031 0.069
-0.025 0.021 0.079
-0.021 0.023 0.075
-0.023 0.023 0.077
-0.041 0.031 0.083
-0.043 0.039 0.083
-0.035 0.047 0.091
-0.037 0.045 0.089
-0.031 0.047 0.089
-0.039 0.023 0.103
-0.039 0.041 0.105
-0.031 0.041 0.099
-0.033 0.033 0.097
-0.041 0.041 0.103
