0.007 -0.021 0.093
0.003 -0.011 0.091
0.005 -0.029 0.089
0.003 -0.025 0.091
-0.017 -0.005 0.075
-0.013 -0.003 0.085
-0.007 -0.009 0.091
-0.005 -0.015 0.091
-0.031 -0.003 0.101
-0.015 -0.009 0.113
0.029 -0.021 0.051
0.019 -0.019 0.069
0.037 -0.039 0.087
0.021 -0.023 0.045
0.025 -0.013 0.063
0.027 -0.007 0.061
0.007 -0.033 0.083
0.009 -0.035 0.083
0.019 -0.033 0.085
0.023 -0.009 0.065
0.039 -0.031 0.057
0.039 -0.021 0.053
0.017 -0.035 0.079
0.031 -0.035 0.087
0.031 -0.043 0.083
0.003 -0.031 0.083
-0.013 -0.011 0.113
-0.015 -0.013 0.113
-0.005 0.029 0.045
-0.013 0.027 0.055
-0.023 0.019 0.105
-0.019 0.001 0.093
-0.013 0.011 0.099
-0.013 0.013 0.099
-0.017 0.001 0.089
-0.009 0.001 0.103
-0.031 0.025 0.105
-0.025 0.035 0.099
-0.019 0.005 0.109
-0.009 0.005 0.101
-0.025 0.033 0.099
0.001 -0.017 0.061
0.001 0.001 0.063
-0.005 -0.001 0.081
-0.021 0.021 0.105
-0.021 0.021 0.105
-0.019 0.021 0.103
-0.013 0.011 0.109
-0.015 -0.005 0.111
0.029 -0.011 0.037
0.021 -0.003 0.037
0.015 -0.003 0.045
0.009 0.003 0.039
0.031 -0.011 0.041
0.007 -0.017 0.067
0.013 -0.015 0.057
0.023 -0.011 0.067
0.015 -0.009 0.051
0.039 -0.019 0.049
0.041 -0.023 0.051
0.015 -0.017 0.083
0.031 -0.035 0.083
0.025 -0.033 0.081
0.027 -0.029 0.069
0.003 -0.003 0.071
0.007 -0.011 0.089
-0.011 0.037 0.045
-0.007 0.033 0.045
-0.031 0.047 0.089
-0.005 0.003 0.075
-0.021 0.027 0.069
-0.011 0.011 0.093
-0.023 0.037 0.097
-0.023 0.027 0.091
-0.015 0.017 0.095
-0.031 0.049 0.087
-0.031 0.049 0.085
-0.031 0.049 0.087
-0.029 0.027 0.105
-0.025 0.019 0.105
-0.021 0.021 0.105
-0.031 0.043 0.105
0.013 0.009 0.035
0.031 -0.007 0.053
0.031 -0.009 0.053
0.001 0.011 0.047
-0.001 0.003 0.045
0.023 -0.003 0.045
-0.003 -0.001 0.043
-0.001 -0.005 0.055
0.017 -0.017 0.081
0.011 -0.013 0.087
-0.001 -0.001 0.081
0.029 -0.011 0.033
0.017 -0.023 0.055
0.035 -0.023 0.059
0.035 -0.025 0.061
0.033 -0.023 0.059
0.001 -0.001 0.061
0.029 -0.003 0.049
0.027 -0.009 0.063
0.041 -0.021 0.045
0.031 -0.033 0.069
0.031 -0.035 0.085
0.019 -0.013 0.073
0.003 0.015 0.037
-0.001 0.017 0.041
-0.003 0.023 0.041
0.003 0.015 0.037
-0.003 0.013 0.051
-0.013 0.031 0.051
-0.009 0.041 0.039
-0.007 0.005 0.067
-0.027 0.033 0.067
-0.023 0.029 0.099
-0.023 0.023 0.105
-0.023 0.025 0.105
-0.029 0.037 0.101
0.021 -0.011 0.069
0.017 -0.017 0.081
0.007 -0.017 0.091
0.037 -0.023 0.035
0.035 -0.029 0.039
0.039 -0.029 0.051
0.025 -0.009 0.035
0.031 -0.005 0.051
0.033 -0.031 0.065
0.039 -0.029 0.057
0.027 -0.013 0.055
0.029 -0.009 0.059
0.009 -0.013 0.059
0.029 -0.011 0.051
0.031 -0.035 0.087
0.023 -0.013 0.067
0.021 -0.013 0.071
0.007 -0.021 0.093
0.017 -0.019 0.085
0.005 -0.011 0.089
-0.003 0.033 0.035
-0.001 0.013 0.049
-0.009 0.021 0.051
-0.003 0.005 0.063
-0.019 0.023 0.071
0.001 0.009 0.043
0.001 -0.001 0.057
-0.011 0.023 0.053
-0.015 0.009 0.079
-0.021 0.023 0.077
-0.027 0.029 0.073
-0.015 0.011 0.081
-0.033 0.003 0.109
-0.019 0.005 0.107
-0.019 0.003 0.109
-0.023 0.007 0.113
-0.027 0.035 0.101
0.029 -0.035 0.055
0.035 -0.035 0.059
0.037 -0.033 0.059
0.039 -0.031 0.053
0.013 -0.015 0.061
0.011 -0.013 0.087
0.015 -0.035 0.035
0.037 -0.031 0.045
0.039 -0.023 0.037
0.025 -0.005 0.035
0.041 -0.021 0.045
0.009 -0.031 0.053
0.039 -0.029 0.053
0.039 -0.029 0.053
0.041 -0.025 0.051
0.027 -0.013 0.057
0.037 -0.027 0.039
0.039 -0.021 0.037
0.041 -0.021 0.047
0.011 -0.035 0.065
0.027 -0.035 0.073
0.033 -0.031 0.065
0.029 -0.031 0.069
0.011 -0.025 0.091
0.017 -0.017 0.081
0.041 -0.023 0.041
-0.009 0.029 0.047
0.025 -0.013 0.063
0.027 -0.013 0.055
-0.019 0.025 0.063
-0.003 0.031 0.033
-0.007 0.037 0.043
0.003 -0.003 0.071
-0.019 0.015 0.067
-0.019 0.019 0.065
-0.017 0.021 0.073
-0.027 0.043 0.087
-0.031 0.001 0.105
-0.009 0.003 0.099
-0.017 0.001 0.109
-0.009 -0.001 0.097
-0.023 0.025 0.105
-0.033 0.041 0.105
-0.023 0.037 0.097
0.003 0.017 0.031
0.025 -0.003 0.039
-0.025 -0.005 0.045
-0.021 -0.007 0.055
-0.007 -0.021 0.087
-0.013 -0.005 0.085
-0.007 -0.013 0.093
-0.001 -0.029 0.059
-0.017 -0.009 0.049
-0.017 -0.011 0.057
-0.005 -0.019 0.049
-0.003 -0.023 0.059
0.001 -0.029 0.053
-0.003 -0.015 0.055
0.023 -0.037 0.083
-0.003 -0.027 0.083
-0.033 -0.001 0.037
-0.047 0.017 0.039
-0.043 0.019 0.049
-0.029 -0.001 0.043
-0.021 0.005 0.057
-0.025 0.009 0.053
-0.031 0.011 0.063
-0.019 0.005 0.063
-0.033 0.013 0.065
-0.037 0.025 0.069
-0.041 0.031 0.049
-0.029 -0.007 0.087
-0.029 0.023 0.077
-0.033 0.001 0.093
-0.031 -0.003 0.095
-0.033 0.005 0.091
-0.029 -0.005 0.101
-0.041 0.043 0.089
-0.041 0.035 0.089
-0.043 0.029 0.095
-0.035 0.013 0.103
-0.023 0.001 0.109
-0.043 0.035 0.101
-0.041 0.033 0.101
-0.021 -0.003 0.059
-0.019 -0.009 0.067
-0.019 -0.005 0.069
-0.031 -0.001 0.085
-0.031 -0.001 0.089
-0.013 -0.013 0.083
-0.003 -0.017 0.037
-0.029 -0.005 0.041
-0.003 -0.025 0.053
-0.029 -0.001 0.043
-0.001 -0.025 0.061
-0.021 0.003 0.057
-0.019 -0.003 0.065
0.027 -0.039 0.087
-0.017 -0.007 0.075
-0.013 -0.009 0.081
-0.011 -0.013 0.085
0.001 -0.021 0.093
-0.035 0.005 0.033
-0.039 0.007 0.035
-0.041 0.011 0.037
-0.041 0.019 0.055
-0.039 0.009 0.047
-0.019 0.001 0.063
-0.041 0.023 0.055
-0.035 0.007 0.093
-0.039 0.019 0.093
-0.031 0.011 0.065
-0.031 0.007 0.075
-0.037 0.029 0.067
-0.043 0.037 0.085
-0.027 0.011 0.107
-0.043 0.017 0.041
-0.031 -0.003 0.037
-0.017 -0.007 0.043
-0.017 -0.011 0.061
-0.003 -0.013 0.063
-0.027 -0.009 0.095
-0.013 -0.013 0.083
-0.007 -0.019 0.089
0.005 -0.035 0.039
0.019 -0.025 0.043
0.023 -0.023 0.047
0.003 -0.033 0.067
0.011 -0.037 0.075
-0.001 -0.015 0.067
0.013 -0.037 0.071
0.019 -0.035 0.077
0.005 -0.033 0.069
0.013 -0.037 0.071
0.011 -0.037 0.073
0.023 -0.037 0.067
0.029 -0.043 0.079
0.007 -0.033 0.087
0.027 -0.039 0.087
0.033 -0.043 0.083
0.023 -0.041 0.079
0.001 -0.031 0.083
0.011 -0.029 0.093
-0.007 -0.005 0.043
-0.039 0.009 0.039
-0.045 0.019 0.039
-0.019 -0.007 0.049
-0.017 -0.011 0.057
-0.005 -0.013 0.059
-0.017 -0.009 0.075
-0.019 -0.009 0.061
-0.007 -0.015 0.065
-0.009 -0.021 0.075
-0.013 -0.017 0.075
-0.037 0.017 0.087
-0.029 0.009 0.065
-0.021 0.005 0.069
-0.019 -0.001 0.085
-0.033 0.003 0.105
-0.033 0.001 0.109
-0.027 0.005 0.103
-0.031 0.001 0.107
-0.041 0.037 0.103
-0.007 -0.033 0.041
-0.027 -0.005 0.043
-0.007 -0.029 0.045
-0.009 -0.017 0.069
-0.025 -0.003 0.087
-0.025 -0.005 0.093
0.023 -0.035 0.035
0.005 -0.035 0.039
0.013 -0.033 0.041
0.015 -0.035 0.037
0.009 -0.035 0.039
0.023 -0.023 0.047
0.029 -0.031 0.051
0.017 -0.031 0.061
0.017 -0.033 0.065
0.035 -0.035 0.055
0.029 -0.041 0.085
0.005 -0.031 0.087
0.013 -0.031 0.087
0.003 -0.031 0.083
-0.033 -0.003 0.033
-0.017 -0.003 0.037
-0.035 0.005 0.043
-0.047 0.015 0.037
-0.037 0.005 0.037
-0.043 0.015 0.041
-0.021 -0.005 0.039
-0.037 0.017 0.065
-0.035 0.015 0.069
-0.035 0.007 0.095
-0.037 0.017 0.085
-0.037 0.011 0.095
-0.021 -0.001 0.083
-0.017 -0.001 0.087
-0.033 0.001 0.093
-0.019 -0.001 0.089
-0.041 0.023 0.095
-0.027 0.007 0.111
-0.011 0.001 0.101
-0.023 0.003 0.103
-0.027 -0.009 0.101
-0.033 0.003 0.105
0.007 -0.033 0.043
-0.003 -0.035 0.039
-0.021 -0.007 0.051
-0.013 -0.017 0.077
-0.011 -0.019 0.081
0.027 -0.033 0.031
0.019 -0.035 0.035
0.023 -0.033 0.039
0.021 -0.027 0.041
0.031 -0.035 0.067
0.005 -0.033 0.067
0.007 -0.035 0.069
0.011 -0.029 0.091
0.007 -0.025 0.095
0.021 -0.037 0.081
-0.037 0.005 0.035
-0.027 -0.007 0.035
-0.031 0.005 0.045
0.005 -0.035 0.039
0.005 -0.033 0.047
0.011 -0.033 0.043
-0.015 -0.011 0.055
-0.029 -0.001 0.085
-0.007 -0.023 0.085
-0.007 -0.023 0.087
-0.027 -0.009 0.101
-0.021 -0.003 0.107
-0.025 0.005 0.103
-0.039 0.025 0.061
-0.037 0.017 0.065
-0.015 -0.013 0.079
-0.017 -0.005 0.073
-0.033 0.011 0.071
-0.035 0.009 0.093
-0.035 0.007 0.095
0.001 -0.029 0.037
-0.005 -0.023 0.045
-0.005 -0.023 0.047
-0.039 0.035 0.051
-0.041 0.027 0.059
-0.041 0.031 0.049
-0.039 0.033 0.053
-0.039 0.035 0.053
-0.035 0.015 0.061
-0.031 0.011 0.065
-0.017 -0.013 0.067
-0.033 0.033 0.065
-0.017 -0.009 0.073
-0.033 0.009 0.087
-0.039 0.019 0.095
-0.041 0.013 0.047
-0.049 0.025 0.037
-0.041 0.015 0.053
-0.039 0.021 0.063
-0.037 0.021 0.067
-0.013 0.041 0.043
-0.025 0.037 0.053
-0.043 0.033 0.097
-0.033 0.015 0.075
-0.041 0.031 0.083
-0.033 0.017 0.077
-0.037 0.019 0.085
-0.039 0.027 0.091
-0.041 0.039 0.099
-0.035 0.025 0.071
-0.023 0.025 0.105
-0.021 0.025 0.103
-0.027 0.039 0.089
-0.033 0.043 0.101
-0.021 0.033 0.085
-0.027 0.029 0.103
-0.003 0.005 0.065
-0.025 0.027 0.105
-0.019 0.005 0.101
-0.007 -0.017 0.089
-0.031 0.003 0.107
0.011 -0.005 0.047
0.027 -0.003 0.045
0.013 -0.015 0.059
0.021 -0.007 0.059
0.023 -0.005 0.061
0.025 -0.007 0.061
0.025 -0.007 0.063
0.027 -0.011 0.061
0.037 -0.021 0.055
0.029 -0.005 0.057
-0.001 -0.015 0.093
0.029 -0.035 0.079
-0.003 -0.011 0.091
-0.001 -0.007 0.089
0.011 -0.013 0.083
0.021 -0.009 0.067
-0.043 0.041 0.087
-0.011 0.029 0.049
-0.005 0.013 0.051
-0.021 0.035 0.051
-0.037 0.025 0.101
-0.023 0.037 0.097
-0.029 0.029 0.103
-0.041 0.039 0.089
-0.025 0.035 0.087
-0.035 0.023 0.103
-0.039 0.035 0.103
-0.029 0.011 0.105
-0.031 0.021 0.105
-0.027 0.039 0.101
0.003 0.015 0.041
-0.041 0.027 0.039
-0.025 0.035 0.057
-0.043 0.045 0.083
-0.043 0.043 0.087
-0.041 0.023 0.095
-0.043 0.035 0.095
-0.037 0.049 0.091
-0.013 0.031 0.051
0.013 -0.005 0.049
-0.021 0.037 0.045
-0.013 0.041 0.043
-0.015 0.039 0.043
0.019 -0.005 0.049
0.021 -0.005 0.053
0.023 -0.005 0.057
0.019 -0.005 0.045
0.023 -0.005 0.057
-0.021 0.021 0.079
0.013 -0.017 0.089
-0.007 0.005 0.071
-0.039 0.045 0.085
-0.023 0.023 0.077
0.017 -0.011 0.067
-0.029 0.037 0.095
-0.023 0.029 0.093
0.003 -0.009 0.089
-0.037 0.029 0.035
-0.041 0.029 0.045
-0.041 0.025 0.055
-0.027 0.035 0.037
-0.011 0.037 0.045
-0.015 0.029 0.057
-0.019 0.035 0.045
-0.013 0.041 0.035
-0.011 0.041 0.043
-0.039 0.025 0.085
-0.027 0.029 0.071
-0.037 0.049 0.093
-0.033 0.029 0.095
-0.029 0.039 0.095
-0.029 0.035 0.095
-0.041 0.045 0.087
-0.039 0.043 0.091
-0.037 0.047 0.085
-0.043 0.041 0.103
