-0.025 -0.003 0.031
-0.009 -0.031 0.039
-0.019 -0.007 0.045
-0.005 -0.019 0.049
-0.019 -0.009 0.051
-0.017 -0.009 0.071
-0.005 -0.025 0.087
-0.011 -0.009 0.087
-0.011 -0.013 0.085
-0.007 -0.031 0.041
0.013 -0.035 0.037
0.003 -0.033 0.063
0.027 -0.035 0.059
0.023 -0.033 0.037
0.027 -0.031 0.041
0.001 -0.033 0.043
0.009 -0.033 0.043
0.007 -0.031 0.051
0.011 -0.029 0.051
-0.001 -0.025 0.063
0.009 -0.033 0.057
0.027 -0.027 0.055
-0.001 -0.027 0.059
0.003 -0.033 0.065
0.007 -0.035 0.065
0.003 -0.031 0.069
0.003 -0.033 0.073
0.003 -0.029 0.067
0.033 -0.033 0.047
0.029 -0.031 0.049
0.025 -0.037 0.063
0.027 -0.037 0.065
0.019 -0.035 0.077
0.017 -0.033 0.083
0.001 -0.027 0.073
0.017 -0.035 0.071
0.013 -0.035 0.081
0.007 -0.035 0.079
-0.005 -0.025 0.085
0.001 -0.023 0.093
-0.027 -0.007 0.037
-0.023 -0.005 0.035
-0.037 0.007 0.039
-0.037 0.007 0.045
-0.037 0.005 0.035
-0.033 0.001 0.039
-0.043 0.017 0.041
-0.035 0.015 0.059
-0.041 0.029 0.055
-0.031 -0.001 0.041
-0.021 -0.007 0.051
-0.019 -0.009 0.057
-0.037 0.009 0.051
-0.031 0.013 0.055
-0.037 0.007 0.049
-0.023 0.007 0.055
-0.037 0.025 0.087
-0.017 0.001 0.077
-0.015 -0.001 0.077
-0.025 0.003 0.073
-0.033 0.013 0.075
-0.031 0.007 0.081
-0.027 -0.009 0.095
-0.013 0.003 0.091
-0.035 0.011 0.089
-0.033 0.003 0.089
-0.035 0.007 0.093
-0.029 -0.005 0.101
-0.039 0.045 0.091
-0.031 0.001 0.103
-0.021 0.003 0.103
-0.021 -0.003 0.107
-0.043 0.031 0.099
-0.037 0.019 0.103
-0.011 -0.005 0.039
-0.005 -0.019 0.047
-0.017 -0.007 0.045
-0.011 0.031 0.047
-0.007 0.031 0.047
-0.017 0.033 0.053
0.001 -0.011 0.037
-0.001 -0.011 0.043
-0.009 0.013 0.055
-0.011 0.015 0.055
-0.015 0.007 0.063
-0.009 0.003 0.075
0.001 -0.007 0.089
-0.001 -0.011 0.091
-0.019 0.021 0.093
-0.003 -0.005 0.085
0.001 -0.011 0.091
-0.015 -0.005 0.109
0.029 -0.011 0.033
0.033 -0.017 0.031
0.021 -0.003 0.045
0.015 -0.003 0.043
0.013 -0.003 0.041
0.017 -0.005 0.041
0.033 -0.013 0.043
0.023 -0.003 0.045
0.023 -0.003 0.041
0.019 -0.003 0.041
0.029 -0.003 0.049
0.005 -0.015 0.061
0.017 -0.011 0.063
0.017 -0.011 0.065
0.023 -0.029 0.061
0.023 -0.029 0.063
0.029 -0.025 0.057
0.019 -0.009 0.063
0.017 -0.005 0.051
0.027 -0.003 0.051
0.027 -0.003 0.053
0.023 -0.007 0.061
0.017 -0.011 0.063
0.039 -0.021 0.039
0.019 -0.021 0.081
0.013 -0.015 0.087
0.007 -0.009 0.081
0.021 -0.011 0.069
0.003 -0.005 0.069
0.001 0.001 0.069
0.005 -0.019 0.093
0.011 -0.015 0.089
0.003 -0.005 0.081
-0.015 0.039 0.043
-0.011 0.043 0.043
-0.013 0.041 0.035
-0.043 0.027 0.039
-0.023 0.037 0.053
-0.043 0.027 0.039
-0.035 0.037 0.045
-0.025 0.033 0.065
-0.015 0.039 0.043
-0.005 0.025 0.037
-0.001 0.013 0.045
-0.017 0.039 0.039
-0.005 0.023 0.045
-0.019 0.009 0.059
-0.019 0.007 0.061
-0.023 0.033 0.061
-0.017 0.023 0.061
-0.019 0.023 0.063
-0.015 0.029 0.057
-0.035 0.037 0.043
-0.025 0.037 0.045
-0.003 0.033 0.035
-0.007 0.039 0.035
-0.033 0.031 0.069
-0.027 0.039 0.089
-0.019 0.023 0.073
-0.029 0.029 0.071
-0.009 0.003 0.087
-0.011 0.007 0.093
-0.017 0.025 0.085
-0.023 0.037 0.097
-0.023 0.033 0.095
-0.027 0.045 0.085
-0.025 0.041 0.085
-0.031 0.035 0.105
-0.023 0.025 0.105
-0.017 0.019 0.103
-0.027 0.013 0.107
-0.013 0.011 0.103
-0.015 0.011 0.109
-0.023 0.029 0.103
-0.019 0.021 0.101
-0.023 0.009 0.113
-0.023 0.007 0.115
-0.039 0.039 0.097
-0.039 0.039 0.099
-0.025 0.039 0.101
0.003 0.015 0.041
0.003 0.019 0.033
0.035 -0.015 0.047
0.003 0.013 0.043
0.031 -0.009 0.049
-0.001 0.007 0.049
0.013 -0.005 0.049
0.001 -0.001 0.059
-0.001 0.003 0.069
0.003 -0.005 0.081
0.003 -0.005 0.081
-0.007 0.001 0.079
0.009 -0.015 0.091
-0.009 0.005 0.093
-0.009 0.003 0.095
-0.009 0.005 0.095
-0.009 0.005 0.095
0.033 -0.013 0.037
0.039 -0.019 0.037
0.037 -0.019 0.035
0.041 -0.019 0.043
0.035 -0.013 0.039
0.031 -0.017 0.049
0.037 -0.017 0.049
0.041 -0.021 0.045
0.035 -0.015 0.047
0.013 -0.003 0.039
0.009 -0.001 0.039
0.025 -0.007 0.041
0.033 -0.019 0.051
0.033 -0.027 0.063
0.001 -0.003 0.061
0.031 -0.009 0.057
0.031 -0.007 0.057
0.041 -0.027 0.045
0.021 -0.029 0.077
0.027 -0.033 0.079
0.027 -0.033 0.081
0.019 -0.019 0.075
0.003 -0.011 0.071
0.007 -0.009 0.079
0.005 -0.005 0.077
0.003 -0.007 0.087
0.011 -0.013 0.083
0.001 -0.015 0.093
-0.007 0.031 0.047
-0.011 0.033 0.045
-0.017 0.031 0.057
-0.019 0.025 0.065
-0.027 0.033 0.065
-0.003 0.003 0.039
0.003 0.017 0.037
0.003 0.015 0.037
-0.001 0.005 0.047
0.001 0.013 0.045
-0.003 0.033 0.035
-0.001 0.013 0.049
-0.019 0.021 0.061
-0.017 0.027 0.059
-0.007 0.041 0.041
-0.007 0.035 0.045
-0.021 0.035 0.053
-0.017 0.033 0.053
-0.025 0.031 0.069
-0.019 0.023 0.089
-0.023 0.031 0.089
-0.023 0.031 0.089
-0.015 0.011 0.077
-0.017 0.003 0.075
-0.007 0.005 0.067
-0.029 0.031 0.069
-0.021 0.027 0.071
-0.015 0.017 0.083
-0.009 0.003 0.091
-0.023 0.031 0.089
-0.025 0.041 0.085
-0.031 0.049 0.087
-0.023 0.019 0.105
-0.011 0.009 0.101
-0.015 0.015 0.107
-0.011 0.007 0.101
-0.011 0.007 0.101
-0.017 0.019 0.103
0.037 -0.031 0.061
0.037 -0.023 0.057
0.015 -0.017 0.053
0.025 -0.011 0.063
0.019 -0.017 0.047
0.029 -0.009 0.059
0.031 -0.005 0.055
0.019 -0.013 0.073
0.023 -0.011 0.067
0.019 -0.011 0.071
0.017 -0.027 0.087
0.015 -0.019 0.087
0.009 -0.013 0.089
0.005 -0.007 0.083
0.013 -0.027 0.091
0.001 -0.007 0.089
-0.027 -0.009 0.103
-0.025 -0.001 0.097
-0.013 -0.011 0.113
0.037 -0.025 0.037
0.041 -0.021 0.045
0.041 -0.027 0.051
0.031 -0.007 0.049
0.031 -0.011 0.057
0.025 -0.003 0.035
0.035 -0.025 0.061
0.017 -0.019 0.059
0.033 -0.029 0.065
0.035 -0.027 0.061
0.031 -0.005 0.055
0.027 -0.011 0.061
0.025 -0.011 0.063
0.041 -0.025 0.043
0.039 -0.017 0.043
0.037 -0.025 0.059
0.031 -0.035 0.087
0.031 -0.035 0.087
0.029 -0.035 0.071
0.031 -0.035 0.081
0.031 -0.035 0.081
0.027 -0.033 0.087
0.037 -0.043 0.079
0.037 -0.041 0.087
0.021 -0.029 0.075
0.021 -0.025 0.073
0.019 -0.021 0.077
0.021 -0.025 0.079
0.013 -0.025 0.089
0.013 -0.027 0.091
0.009 -0.011 0.085
-0.001 0.003 0.045
-0.001 0.003 0.051
-0.009 0.015 0.053
-0.013 0.017 0.055
-0.015 0.021 0.055
-0.013 0.009 0.061
-0.019 0.021 0.063
-0.001 0.019 0.041
-0.005 0.027 0.043
-0.001 0.023 0.039
-0.005 0.029 0.039
-0.003 0.027 0.041
-0.005 0.029 0.041
-0.019 0.009 0.067
-0.001 0.001 0.053
-0.015 0.017 0.055
-0.015 0.031 0.055
-0.017 0.033 0.053
-0.007 0.037 0.041
-0.007 0.037 0.045
-0.005 0.033 0.039
-0.007 0.037 0.037
-0.025 0.035 0.061
-0.019 0.019 0.079
-0.013 0.013 0.093
-0.013 0.015 0.095
-0.003 0.001 0.079
-0.015 0.015 0.077
-0.003 0.003 0.073
-0.015 0.015 0.085
-0.009 0.005 0.093
-0.015 0.015 0.099
-0.017 0.021 0.091
-0.035 0.047 0.091
-0.025 0.037 0.085
-0.027 0.001 0.101
-0.023 0.021 0.105
-0.009 0.003 0.103
-0.009 0.001 0.101
-0.029 0.033 0.101
-0.027 0.035 0.101
-0.035 0.039 0.105
0.011 0.003 0.039
0.017 0.001 0.037
-0.003 -0.033 0.041
-0.025 -0.005 0.033
0.009 -0.033 0.059
0.011 -0.035 0.061
0.007 -0.035 0.075
-0.009 -0.021 0.077
-0.005 -0.025 0.079
0.011 -0.029 0.091
-0.001 -0.025 0.091
0.001 -0.023 0.093
-0.001 -0.017 0.095
-0.025 -0.001 0.097
0.017 -0.035 0.037
0.017 -0.033 0.039
0.029 -0.037 0.061
0.037 -0.033 0.051
0.033 -0.031 0.039
0.023 -0.029 0.043
0.031 -0.033 0.045
0.015 -0.025 0.047
0.017 -0.025 0.051
0.027 -0.035 0.059
0.031 -0.037 0.063
0.027 -0.037 0.063
0.033 -0.035 0.065
0.017 -0.035 0.067
0.027 -0.037 0.063
0.023 -0.039 0.069
0.035 -0.027 0.061
0.031 -0.009 0.055
0.035 -0.041 0.075
0.029 -0.009 0.061
0.035 -0.045 0.081
0.017 -0.035 0.081
0.029 -0.043 0.081
0.015 -0.033 0.085
0.017 -0.033 0.087
0.017 -0.033 0.087
0.015 -0.031 0.089
0.013 -0.031 0.089
0.011 -0.019 0.091
0.019 -0.021 0.083
0.013 -0.029 0.091
-0.035 0.003 0.039
-0.035 0.005 0.045
-0.033 0.007 0.047
-0.017 -0.013 0.063
-0.033 0.013 0.061
-0.011 -0.019 0.075
0.005 -0.033 0.057
0.019 -0.029 0.057
0.017 -0.031 0.059
0.015 -0.033 0.061
0.021 -0.039 0.073
-0.007 -0.019 0.071
0.003 -0.033 0.081
0.013 -0.035 0.079
0.017 -0.035 0.079
0.011 -0.031 0.089
0.019 -0.035 0.081
0.015 -0.033 0.083
0.019 -0.033 0.085
0.025 -0.039 0.083
-0.025 0.003 0.073
-0.023 0.001 0.079
-0.025 -0.003 0.091
-0.025 -0.003 0.095
-0.025 -0.003 0.093
-0.019 0.001 0.093
0.005 -0.033 0.083
-0.003 -0.027 0.087
-0.001 -0.027 0.089
-0.025 0.001 0.081
0.009 -0.029 0.091
-0.023 0.001 0.095
-0.011 0.001 0.095
-0.017 0.001 0.091
-0.017 0.003 0.095
-0.009 0.003 0.099
-0.011 0.011 0.089
-0.017 0.007 0.101
-0.017 0.001 0.107
-0.009 0.005 0.095
-0.031 0.001 0.105
-0.031 0.007 0.105
-0.015 -0.013 0.113
-0.019 -0.007 0.109
-0.021 0.001 0.099
-0.017 -0.009 0.113
-0.017 -0.003 0.107
-0.009 -0.001 0.103
-0.009 0.005 0.101
-0.013 0.011 0.103
0.027 -0.033 0.055
-0.009 -0.023 0.043
-0.013 -0.015 0.061
-0.017 -0.011 0.053
-0.025 -0.005 0.051
-0.025 -0.003 0.051
-0.021 -0.007 0.061
-0.013 -0.015 0.061
-0.011 -0.019 0.075
-0.019 -0.005 0.069
-0.029 0.003 0.081
-0.033 0.001 0.089
-0.023 -0.001 0.107
-0.009 -0.029 0.039
0.001 -0.031 0.063
-0.009 -0.029 0.037
-0.003 -0.013 0.039
-0.007 -0.027 0.045
-0.005 -0.025 0.049
-0.001 -0.013 0.037
-0.029 -0.001 0.043
-0.025 -0.001 0.045
-0.027 0.003 0.045
-0.025 0.003 0.051
-0.003 -0.021 0.055
-0.019 -0.009 0.059
-0.019 -0.009 0.067
-0.021 0.001 0.061
-0.021 0.001 0.061
-0.019 -0.001 0.063
-0.005 -0.015 0.045
-0.017 -0.011 0.055
-0.001 -0.017 0.057
0.001 -0.031 0.081
0.001 -0.031 0.083
0.003 -0.025 0.071
-0.017 -0.011 0.071
-0.009 -0.021 0.075
-0.007 -0.023 0.081
-0.019 -0.001 0.079
-0.039 0.007 0.035
-0.049 0.015 0.037
-0.049 0.023 0.039
-0.049 0.019 0.039
-0.039 0.023 0.041
-0.041 0.029 0.055
-0.039 0.023 0.061
-0.039 0.023 0.063
-0.039 0.027 0.063
-0.039 0.031 0.063
-0.041 0.019 0.053
-0.039 0.025 0.041
-0.041 0.021 0.049
-0.041 0.021 0.051
-0.021 0.001 0.059
-0.037 0.019 0.065
-0.037 0.033 0.039
-0.019 0.037 0.035
-0.017 0.039 0.035
-0.043 0.029 0.095
-0.031 0.003 0.083
-0.035 0.015 0.083
-0.037 0.015 0.093
-0.037 0.017 0.097
-0.039 0.023 0.091
-0.041 0.027 0.093
-0.043 0.039 0.085
-0.035 0.003 0.107
-0.039 0.023 0.041
-0.039 0.021 0.045
