0.003 -0.013 0.059
-0.007 -0.007 0.087
-0.005 -0.011 0.093
0.001 -0.017 0.095
-0.021 0.003 0.109
0.027 -0.003 0.047
0.023 -0.005 0.061
0.027 -0.003 0.055
0.019 -0.021 0.083
0.007 -0.011 0.089
-0.023 0.029 0.069
-0.027 0.045 0.085
-0.019 0.025 0.069
-0.021 0.027 0.071
-0.013 0.031 0.053
-0.019 0.005 0.107
-0.029 0.039 0.101
0.001 0.013 0.045
-0.023 -0.007 0.043
-0.019 -0.009 0.057
-0.009 -0.013 0.055
0.015 -0.033 0.039
0.007 -0.033 0.047
0.001 -0.031 0.055
0.019 -0.027 0.055
0.027 -0.031 0.043
0.011 -0.035 0.065
-0.017 -0.003 0.037
-0.043 0.017 0.041
-0.041 0.025 0.049
-0.023 -0.005 0.051
-0.023 0.011 0.055
-0.023 0.011 0.055
-0.031 0.011 0.053
-0.035 0.011 0.085
-0.033 0.005 0.089
-0.039 0.023 0.097
-0.035 0.017 0.073
-0.035 0.007 0.099
-0.039 0.027 0.085
-0.043 0.031 0.095
-0.033 0.003 0.105
-0.023 0.001 0.109
-0.035 0.013 0.103
-0.035 0.011 0.103
0.007 -0.033 0.041
0.003 -0.033 0.067
0.017 -0.033 0.087
0.003 -0.035 0.037
0.031 -0.033 0.047
0.041 -0.029 0.047
0.039 -0.023 0.037
0.035 -0.043 0.085
0.031 -0.039 0.073
0.027 -0.031 0.043
0.037 -0.033 0.049
0.037 -0.033 0.049
0.009 -0.031 0.055
0.033 -0.035 0.059
0.017 -0.031 0.089
0.025 -0.039 0.069
0.029 -0.037 0.069
0.033 -0.043 0.083
-0.021 0.033 0.085
-0.009 0.001 0.101
-0.013 0.011 0.103
-0.013 -0.013 0.083
-0.009 -0.017 0.087
-0.027 -0.005 0.103
-0.009 -0.017 0.087
-0.001 -0.015 0.095
-0.027 -0.001 0.099
0.019 -0.027 0.083
0.035 -0.035 0.061
0.021 -0.007 0.061
0.017 -0.021 0.087
0.041 -0.023 0.051
0.037 -0.019 0.051
0.037 -0.027 0.061
0.009 -0.035 0.073
0.029 -0.035 0.087
0.003 -0.005 0.081
0.007 -0.015 0.091
-0.023 0.009 0.111
-0.021 0.009 0.109
-0.009 0.019 0.051
-0.005 0.015 0.047
-0.025 0.001 0.053
-0.011 0.001 0.103
-0.007 0.013 0.055
-0.023 0.007 0.115
-0.029 0.007 0.103
-0.017 0.001 0.091
-0.033 0.009 0.105
-0.015 0.009 0.109
0.013 0.003 0.037
0.017 0.003 0.037
0.003 0.019 0.035
-0.001 -0.003 0.051
-0.007 0.017 0.049
-0.007 0.009 0.059
0.003 -0.005 0.083
0.033 -0.013 0.033
0.007 -0.011 0.053
0.007 -0.013 0.059
0.023 -0.005 0.057
0.033 -0.015 0.033
0.003 -0.019 0.067
-0.029 0.037 0.039
0.001 0.015 0.041
-0.001 0.023 0.037
-0.039 0.033 0.055
-0.007 0.041 0.043
-0.021 0.033 0.097
-0.025 0.039 0.097
-0.023 0.035 0.083
-0.019 0.025 0.067
-0.021 0.033 0.085
-0.039 0.047 0.087
-0.031 0.035 0.105
-0.025 0.039 0.101
0.005 0.017 0.033
-0.001 0.001 0.047
0.037 -0.017 0.049
0.025 -0.007 0.063
0.031 -0.005 0.053
0.029 -0.007 0.061
0.039 -0.023 0.039
0.041 -0.021 0.041
0.029 -0.035 0.081
0.001 -0.001 0.067
0.019 -0.021 0.083
0.005 0.013 0.035
-0.007 0.037 0.045
-0.019 0.025 0.065
-0.009 0.017 0.053
-0.023 0.037 0.045
-0.033 0.037 0.053
-0.003 0.001 0.079
-0.017 0.021 0.073
-0.015 0.017 0.093
-0.025 0.041 0.081
-0.015 0.017 0.105
-0.025 0.031 0.099
0.017 0.003 0.035
-0.035 0.037 0.055
-0.023 0.031 0.089
-0.005 -0.013 0.093
-0.001 0.013 0.049
0.001 0.011 0.047
-0.003 0.011 0.053
0.013 -0.015 0.065
0.021 -0.007 0.061
0.029 -0.005 0.061
0.027 -0.031 0.073
0.015 -0.017 0.069
0.013 -0.015 0.077
-0.037 0.035 0.059
-0.037 0.029 0.067
-0.033 0.031 0.069
-0.035 0.035 0.039
-0.035 0.047 0.089
-0.015 0.019 0.087
-0.027 0.041 0.087
0.031 -0.027 0.065
0.031 -0.027 0.065
0.005 -0.011 0.073
0.003 -0.007 0.073
0.017 -0.017 0.071
0.019 -0.025 0.083
0.041 -0.027 0.049
0.037 -0.033 0.053
0.037 -0.019 0.051
0.031 -0.009 0.051
0.031 -0.009 0.049
0.033 -0.037 0.085
0.033 -0.037 0.083
0.037 -0.039 0.087
0.033 -0.037 0.085
-0.003 0.003 0.039
0.001 0.009 0.045
-0.025 0.033 0.065
-0.005 0.031 0.045
-0.011 0.007 0.095
-0.019 0.023 0.089
-0.017 0.001 0.081
-0.019 0.027 0.087
-0.029 0.035 0.089
-0.023 0.031 0.067
-0.025 0.037 0.087
-0.029 0.039 0.089
-0.019 0.005 0.109
-0.017 -0.011 0.059
-0.017 -0.007 0.075
0.003 -0.031 0.053
-0.011 -0.011 0.085
-0.005 -0.015 0.091
-0.003 -0.015 0.095
-0.003 -0.015 0.095
0.003 -0.017 0.093
0.001 -0.031 0.057
0.021 -0.039 0.079
0.007 -0.033 0.087
0.007 -0.023 0.095
-0.015 -0.009 0.113
-0.035 0.011 0.053
-0.045 0.021 0.041
-0.041 0.017 0.055
-0.031 0.011 0.105
-0.041 0.023 0.093
-0.039 0.021 0.101
-0.033 0.005 0.087
-0.027 -0.005 0.103
-0.027 -0.003 0.101
-0.017 0.011 0.105
-0.019 0.013 0.105
-0.043 0.033 0.097
-0.041 0.033 0.101
0.021 -0.027 0.073
0.021 -0.025 0.069
0.019 -0.027 0.081
0.013 -0.015 0.083
0.029 -0.007 0.045
0.039 -0.029 0.053
0.039 -0.029 0.053
0.027 -0.011 0.051
0.027 -0.011 0.053
0.041 -0.025 0.045
0.035 -0.043 0.075
0.033 -0.043 0.083
0.031 -0.035 0.069
0.041 -0.027 0.051
0.041 -0.027 0.049
0.041 -0.023 0.043
0.023 -0.003 0.037
0.025 -0.005 0.039
-0.007 0.025 0.047
-0.021 0.015 0.065
-0.013 0.015 0.095
0.021 -0.013 0.069
-0.015 0.019 0.085
-0.037 0.041 0.091
-0.017 -0.001 0.109
-0.009 0.001 0.097
-0.019 0.025 0.099
-0.021 0.033 0.097
-0.023 0.035 0.099
-0.033 -0.003 0.033
-0.017 -0.009 0.049
-0.003 -0.027 0.053
-0.017 -0.011 0.061
-0.017 -0.013 0.069
-0.017 -0.011 0.063
-0.017 -0.005 0.073
-0.031 -0.003 0.097
-0.007 -0.029 0.043
0.003 -0.033 0.043
-0.007 -0.033 0.041
-0.005 -0.021 0.047
-0.005 -0.017 0.047
-0.001 -0.015 0.057
0.007 -0.035 0.069
0.003 -0.017 0.063
0.003 -0.031 0.069
0.023 -0.041 0.077
0.011 -0.033 0.083
-0.031 0.003 0.043
-0.035 0.003 0.039
-0.033 -0.001 0.037
-0.025 -0.003 0.045
-0.043 0.013 0.039
-0.043 0.015 0.049
-0.021 0.009 0.063
-0.035 0.017 0.071
-0.041 0.029 0.053
-0.029 0.003 0.081
-0.023 0.001 0.081
-0.031 0.009 0.073
-0.035 0.023 0.071
-0.037 0.013 0.099
-0.035 0.033 0.105
-0.031 -0.003 0.037
-0.025 -0.003 0.049
-0.025 -0.001 0.047
-0.001 -0.029 0.053
-0.027 0.001 0.083
-0.031 -0.003 0.101
0.003 -0.031 0.065
-0.001 -0.027 0.059
-0.001 -0.023 0.035
-0.003 -0.023 0.037
-0.029 -0.005 0.041
-0.027 0.003 0.045
-0.019 0.001 0.063
0.003 -0.031 0.069
-0.049 0.015 0.037
-0.039 0.007 0.035
-0.049 0.021 0.039
-0.019 0.003 0.063
-0.039 0.021 0.093
-0.041 0.027 0.093
-0.027 0.005 0.071
-0.033 0.013 0.067
-0.033 0.005 0.095
-0.041 0.027 0.097
-0.035 0.007 0.099
-0.027 -0.009 0.097
0.017 -0.029 0.043
0.027 -0.037 0.069
0.011 -0.035 0.067
0.029 -0.037 0.069
0.027 -0.041 0.079
0.025 -0.035 0.087
0.027 -0.041 0.075
0.015 -0.033 0.083
-0.039 0.007 0.035
-0.023 -0.007 0.039
-0.021 -0.007 0.061
-0.031 0.011 0.063
-0.015 -0.015 0.073
-0.009 -0.021 0.075
-0.035 0.007 0.093
-0.031 -0.003 0.089
-0.037 0.011 0.095
-0.041 0.027 0.097
-0.029 0.023 0.105
-0.041 0.029 0.099
-0.037 0.033 0.105
-0.033 0.037 0.107
-0.027 -0.005 0.043
-0.021 -0.007 0.043
-0.019 -0.009 0.065
-0.017 -0.009 0.111
0.015 -0.025 0.049
0.017 -0.033 0.063
0.025 -0.033 0.059
0.031 -0.031 0.041
0.037 -0.031 0.043
0.005 -0.033 0.079
-0.001 -0.025 0.075
0.009 -0.029 0.091
-0.019 -0.005 0.039
-0.005 -0.017 0.047
-0.021 -0.005 0.039
-0.021 -0.007 0.041
-0.029 0.011 0.061
-0.017 -0.011 0.065
-0.029 -0.003 0.043
-0.037 0.017 0.085
-0.019 0.001 0.077
-0.025 0.001 0.079
-0.037 0.015 0.101
-0.025 -0.003 0.031
0.001 -0.033 0.043
-0.023 -0.007 0.045
-0.005 -0.025 0.085
-0.025 -0.003 0.087
-0.009 -0.021 0.081
0.005 -0.033 0.083
-0.019 -0.007 0.109
0.001 -0.033 0.043
0.021 -0.023 0.045
0.031 -0.033 0.047
0.031 -0.033 0.047
0.003 -0.031 0.051
0.013 -0.025 0.049
0.021 -0.011 0.053
0.037 -0.027 0.039
0.023 -0.039 0.071
0.015 -0.035 0.065
0.001 -0.031 0.081
-0.007 -0.035 0.035
-0.035 0.005 0.043
-0.029 -0.003 0.043
0.005 -0.035 0.039
0.011 -0.033 0.041
-0.021 -0.007 0.053
0.003 -0.031 0.047
-0.013 -0.011 0.051
-0.029 0.009 0.067
-0.035 0.011 0.083
-0.027 0.003 0.079
-0.005 -0.025 0.083
-0.021 -0.001 0.083
-0.025 -0.003 0.089
-0.025 -0.007 0.097
-0.019 -0.005 0.107
-0.009 -0.001 0.101
-0.013 0.001 0.095
-0.021 0.001 0.099
0.017 -0.031 0.041
-0.015 -0.015 0.067
-0.019 -0.005 0.069
-0.015 -0.015 0.073
-0.009 -0.021 0.075
-0.021 -0.005 0.109
-0.003 -0.015 0.051
0.003 -0.019 0.065
0.001 -0.031 0.077
0.003 -0.023 0.069
-0.003 -0.027 0.085
0.003 -0.027 0.091
0.005 -0.023 0.095
-0.033 0.015 0.057
-0.043 0.015 0.051
-0.033 0.009 0.051
-0.035 0.015 0.061
-0.021 -0.007 0.061
-0.019 0.005 0.063
-0.031 -0.001 0.085
-0.035 0.015 0.067
-0.037 0.013 0.095
-0.033 0.001 0.095
-0.033 0.001 0.089
-0.025 -0.007 0.097
-0.013 0.001 0.095
-0.033 0.003 0.103
-0.035 0.013 0.103
-0.037 0.017 0.099
-0.035 0.029 0.101
-0.009 -0.025 0.043
-0.005 -0.023 0.049
-0.025 -0.005 0.053
-0.023 -0.003 0.053
-0.025 -0.003 0.051
-0.019 -0.005 0.065
-0.041 0.011 0.045
-0.025 -0.005 0.045
-0.041 0.011 0.049
-0.041 0.021 0.055
-0.039 0.033 0.049
-0.037 0.017 0.061
-0.037 0.017 0.061
-0.017 -0.009 0.075
-0.019 0.033 0.033
-0.049 0.023 0.037
-0.041 0.031 0.053
-0.039 0.031 0.039
-0.017 0.033 0.047
-0.021 0.001 0.061
-0.037 0.035 0.057
-0.035 0.037 0.051
-0.019 0.037 0.043
-0.025 0.035 0.061
-0.037 0.017 0.087
-0.039 0.025 0.091
-0.033 0.007 0.089
-0.037 0.025 0.087
-0.039 0.033 0.089
-0.039 0.023 0.103
-0.033 0.015 0.105
-0.045 0.037 0.101
0.013 -0.033 0.085
-0.003 -0.027 0.087
0.011 -0.031 0.089
-0.027 -0.007 0.101
0.027 -0.031 0.041
0.035 -0.035 0.061
0.029 -0.007 0.045
0.027 -0.041 0.083
0.033 -0.041 0.087
0.011 -0.027 0.093
0.009 -0.017 0.091
0.007 -0.029 0.091
0.003 -0.029 0.089
-0.003 -0.025 0.089
-0.017 0.019 0.075
-0.009 0.005 0.095
-0.023 0.007 0.113
-0.009 -0.011 0.091
-0.013 -0.011 0.111
-0.021 0.031 0.097
-0.035 0.033 0.105
-0.029 0.009 0.105
-0.013 0.013 0.107
-0.017 -0.007 0.113
0.009 -0.005 0.041
0.011 -0.003 0.043
0.011 -0.005 0.047
0.015 -0.015 0.081
0.001 -0.003 0.079
0.029 -0.009 0.061
-0.003 -0.009 0.089
0.015 -0.021 0.089
0.003 -0.019 0.095
-0.041 0.017 0.055
-0.021 0.035 0.047
-0.037 0.039 0.105
-0.023 0.029 0.099
-0.007 0.005 0.067
-0.025 0.039 0.101
-0.033 0.025 0.105
-0.039 0.039 0.105
-0.041 0.025 0.047
-0.035 0.027 0.071
-0.043 0.033 0.097
-0.025 0.009 0.113
-0.017 0.033 0.055
-0.019 0.035 0.047
0.015 -0.005 0.049
0.031 -0.011 0.039
0.023 -0.009 0.063
0.013 -0.017 0.071
-0.047 0.025 0.037
-0.035 0.035 0.041
-0.029 0.037 0.041
-0.013 0.035 0.045
-0.025 0.029 0.071
-0.019 0.023 0.073
-0.029 0.041 0.097
-0.031 0.049 0.085
-0.029 0.047 0.085
