-0.007 -0.033 0.039
-0.027 -0.007 0.035
-0.025 -0.005 0.049
-0.023 -0.005 0.049
-0.009 -0.013 0.057
-0.027 -0.007 0.089
-0.013 -0.015 0.083
-0.013 -0.005 0.081
-0.009 -0.009 0.089
-0.031 -0.003 0.099
-0.007 -0.031 0.041
0.013 -0.035 0.063
0.027 -0.035 0.057
0.005 -0.033 0.049
-0.003 -0.029 0.045
-0.003 -0.027 0.049
0.001 -0.031 0.047
-0.001 -0.029 0.055
0.011 -0.029 0.051
0.013 -0.035 0.063
-0.001 -0.023 0.061
0.007 -0.035 0.069
0.007 -0.035 0.071
0.023 -0.041 0.079
0.001 -0.029 0.073
0.003 -0.031 0.083
0.009 -0.035 0.083
0.007 -0.031 0.089
0.005 -0.027 0.091
0.009 -0.031 0.089
-0.029 -0.005 0.035
-0.033 0.005 0.045
-0.035 0.001 0.037
-0.035 0.005 0.041
-0.039 0.011 0.041
-0.051 0.017 0.035
-0.049 0.015 0.037
-0.039 0.009 0.037
-0.049 0.017 0.039
-0.041 0.027 0.041
-0.041 0.025 0.049
-0.041 0.023 0.057
-0.029 -0.001 0.043
-0.035 0.005 0.043
-0.023 -0.001 0.057
-0.031 0.013 0.059
-0.029 0.011 0.061
-0.021 -0.005 0.063
-0.019 -0.007 0.067
-0.031 0.011 0.063
-0.023 0.011 0.061
-0.041 0.015 0.053
-0.033 0.013 0.067
-0.033 0.003 0.095
-0.039 0.027 0.083
-0.025 0.003 0.073
-0.027 0.007 0.069
-0.031 0.005 0.083
-0.035 0.013 0.089
-0.033 0.003 0.091
-0.037 0.013 0.097
-0.043 0.035 0.095
-0.037 0.023 0.069
-0.039 0.017 0.093
-0.035 0.005 0.097
-0.037 0.019 0.097
-0.033 0.021 0.105
-0.025 0.005 0.107
-0.029 0.023 0.105
-0.043 0.031 0.099
-0.033 0.027 0.103
-0.017 -0.011 0.053
-0.013 -0.011 0.083
0.001 -0.015 0.093
0.003 -0.027 0.091
-0.019 -0.003 0.067
0.005 -0.017 0.091
-0.005 -0.023 0.089
-0.003 -0.019 0.091
-0.017 -0.001 0.087
-0.015 -0.005 0.111
-0.015 -0.013 0.113
0.033 -0.039 0.087
0.033 -0.021 0.055
0.013 -0.035 0.037
0.011 -0.035 0.037
0.019 -0.021 0.073
0.017 -0.011 0.071
0.027 -0.013 0.045
0.031 -0.013 0.045
0.015 -0.033 0.087
0.013 -0.017 0.089
0.017 -0.019 0.085
0.023 -0.013 0.067
0.029 -0.011 0.057
0.041 -0.021 0.049
0.037 -0.015 0.045
0.033 -0.033 0.067
0.033 -0.043 0.083
0.031 -0.039 0.087
0.029 -0.035 0.087
0.025 -0.039 0.085
0.035 -0.045 0.081
0.007 -0.031 0.089
0.021 -0.029 0.071
0.031 -0.029 0.067
0.011 -0.015 0.089
0.011 -0.023 0.091
0.003 -0.009 0.089
-0.011 0.011 0.093
-0.013 0.019 0.053
-0.015 -0.009 0.113
-0.021 0.003 0.109
-0.001 -0.001 0.081
-0.015 -0.005 0.111
-0.009 0.001 0.097
-0.013 -0.001 0.081
-0.009 0.001 0.103
0.001 -0.001 0.073
-0.009 0.023 0.051
-0.013 0.039 0.043
-0.013 0.005 0.103
-0.013 0.007 0.103
-0.013 0.013 0.107
-0.017 0.025 0.085
-0.019 0.023 0.101
-0.025 0.015 0.105
-0.013 0.013 0.095
-0.025 0.039 0.101
-0.031 0.005 0.107
-0.031 0.003 0.107
-0.013 0.013 0.107
-0.023 0.005 0.115
-0.019 0.033 0.051
-0.001 0.007 0.049
-0.011 0.011 0.057
-0.001 0.003 0.055
0.001 0.001 0.063
0.001 -0.001 0.075
-0.011 0.001 0.077
-0.019 0.023 0.101
0.027 -0.009 0.037
0.019 -0.003 0.047
0.017 -0.005 0.051
0.009 -0.011 0.053
0.009 -0.011 0.053
0.019 -0.005 0.051
0.035 -0.013 0.043
0.021 -0.003 0.045
0.007 -0.005 0.041
0.015 0.003 0.037
0.007 -0.005 0.047
0.029 -0.003 0.049
0.023 -0.029 0.063
0.031 -0.007 0.055
0.023 -0.005 0.061
0.021 -0.007 0.061
0.029 -0.005 0.061
0.011 -0.013 0.085
0.033 -0.037 0.081
0.011 -0.017 0.071
0.023 -0.031 0.073
0.021 -0.027 0.075
0.021 -0.023 0.079
0.007 -0.009 0.079
0.009 -0.015 0.091
0.005 -0.007 0.085
0.013 -0.015 0.085
-0.023 0.037 0.053
-0.033 0.037 0.045
-0.015 0.031 0.053
-0.005 0.029 0.043
-0.001 0.023 0.039
-0.007 0.041 0.041
-0.005 0.033 0.043
-0.023 0.033 0.059
-0.017 0.027 0.059
-0.003 0.013 0.051
-0.009 0.027 0.051
-0.013 0.029 0.055
-0.035 0.037 0.049
-0.017 0.035 0.045
-0.007 0.039 0.037
-0.007 0.041 0.041
-0.027 0.037 0.059
-0.029 0.037 0.059
-0.029 0.047 0.087
-0.039 0.033 0.093
-0.017 0.021 0.071
-0.015 0.015 0.077
-0.029 0.023 0.077
-0.021 0.033 0.085
-0.019 0.029 0.085
-0.029 0.043 0.103
-0.029 0.043 0.101
-0.021 0.019 0.105
-0.023 0.011 0.111
-0.021 0.027 0.099
-0.037 0.041 0.101
0.003 0.013 0.041
0.027 -0.003 0.043
-0.001 0.003 0.045
-0.001 0.003 0.047
-0.003 0.003 0.041
-0.003 -0.005 0.051
-0.003 0.003 0.071
0.011 -0.019 0.091
0.009 -0.015 0.091
0.003 -0.011 0.091
0.037 -0.017 0.047
0.041 -0.021 0.041
0.041 -0.027 0.053
0.039 -0.031 0.055
0.033 -0.013 0.041
0.037 -0.017 0.049
0.033 -0.017 0.049
0.023 -0.003 0.043
0.029 -0.011 0.043
0.033 -0.015 0.047
0.017 -0.025 0.053
0.003 -0.011 0.051
0.029 -0.003 0.053
0.027 -0.003 0.055
0.029 -0.007 0.061
0.039 -0.023 0.037
0.041 -0.019 0.043
0.021 -0.023 0.071
0.031 -0.031 0.067
0.031 -0.035 0.081
0.009 -0.017 0.073
0.011 -0.019 0.091
0.011 -0.013 0.083
0.003 -0.009 0.089
-0.005 0.031 0.039
0.005 0.013 0.037
-0.003 0.021 0.043
-0.017 0.033 0.049
-0.003 0.027 0.041
-0.005 0.023 0.047
-0.021 0.015 0.059
-0.021 0.015 0.057
-0.021 0.015 0.061
-0.001 0.003 0.053
-0.019 0.021 0.063
-0.007 0.041 0.041
-0.007 0.039 0.043
-0.019 0.021 0.077
-0.019 0.025 0.071
-0.021 0.031 0.095
-0.017 0.021 0.071
-0.023 0.021 0.079
-0.021 0.023 0.075
-0.021 0.021 0.079
-0.015 0.017 0.087
-0.029 0.041 0.089
-0.031 0.049 0.087
-0.031 0.047 0.089
-0.015 0.013 0.103
-0.023 0.031 0.099
-0.029 0.029 0.103
0.003 0.013 0.031
0.017 0.005 0.033
0.003 0.011 0.033
-0.033 0.037 0.053
-0.025 0.035 0.061
-0.007 0.011 0.057
-0.005 0.005 0.069
-0.005 0.003 0.073
-0.011 0.011 0.091
-0.021 0.023 0.077
-0.003 0.001 0.079
-0.019 0.025 0.091
-0.005 -0.009 0.091
-0.017 0.021 0.095
0.007 -0.017 0.067
0.023 -0.011 0.067
0.023 -0.005 0.055
0.021 -0.005 0.053
0.001 0.011 0.047
0.017 -0.003 0.039
0.019 -0.003 0.047
0.001 0.001 0.067
0.015 -0.017 0.059
0.023 -0.009 0.063
0.021 -0.005 0.057
0.005 -0.011 0.051
0.009 -0.011 0.051
0.009 -0.015 0.061
0.009 -0.015 0.065
0.029 -0.003 0.051
0.039 -0.017 0.045
0.037 -0.025 0.059
0.029 -0.029 0.069
0.019 -0.013 0.073
0.007 -0.009 0.081
0.017 -0.017 0.081
-0.015 0.041 0.039
-0.011 0.043 0.039
-0.037 0.035 0.055
-0.043 0.027 0.039
-0.041 0.031 0.055
-0.001 0.015 0.043
-0.001 0.021 0.039
-0.017 0.039 0.041
-0.011 0.043 0.043
-0.005 0.021 0.047
-0.025 0.033 0.065
-0.025 0.041 0.081
-0.015 0.029 0.057
-0.039 0.035 0.051
-0.019 0.037 0.037
-0.027 0.035 0.061
-0.037 0.049 0.091
-0.035 0.031 0.067
-0.029 0.047 0.087
-0.015 0.017 0.101
-0.013 0.013 0.099
-0.027 0.041 0.087
-0.015 0.019 0.085
-0.037 0.049 0.093
-0.039 0.049 0.093
-0.037 0.047 0.093
-0.033 0.009 0.105
-0.037 0.023 0.103
-0.035 0.037 0.107
-0.017 0.017 0.105
-0.025 0.011 0.111
-0.011 0.009 0.101
-0.031 0.039 0.105
-0.031 0.043 0.105
0.003 0.015 0.041
-0.035 0.003 0.039
-0.033 0.003 0.043
-0.001 -0.029 0.057
-0.023 -0.001 0.055
-0.023 -0.001 0.057
-0.013 -0.015 0.081
-0.017 -0.009 0.113
-0.017 -0.009 0.113
-0.009 -0.029 0.037
-0.003 -0.017 0.037
-0.029 -0.005 0.041
-0.001 -0.025 0.059
0.001 -0.025 0.065
-0.009 -0.027 0.037
-0.005 -0.017 0.047
-0.005 -0.019 0.051
-0.005 -0.017 0.051
-0.027 -0.007 0.039
-0.025 -0.005 0.047
-0.023 -0.003 0.055
-0.019 -0.005 0.069
-0.019 0.001 0.063
0.001 -0.025 0.067
0.007 -0.035 0.077
0.021 -0.039 0.079
0.001 -0.029 0.087
-0.017 -0.011 0.071
0.003 -0.027 0.071
-0.049 0.019 0.039
-0.049 0.025 0.035
-0.041 0.011 0.037
-0.049 0.015 0.037
-0.049 0.019 0.039
-0.049 0.025 0.037
-0.029 0.011 0.061
-0.033 0.013 0.065
-0.037 0.033 0.059
-0.037 0.033 0.039
-0.033 0.033 0.035
-0.035 0.033 0.037
-0.039 0.035 0.051
-0.035 0.015 0.071
-0.033 0.013 0.075
-0.037 0.023 0.087
-0.031 0.009 0.081
-0.031 0.009 0.067
-0.029 0.005 0.073
-0.035 0.023 0.073
-0.031 0.003 0.083
-0.037 0.017 0.085
-0.035 0.031 0.089
-0.035 0.033 0.089
-0.041 0.043 0.089
-0.041 0.035 0.085
-0.035 0.011 0.101
-0.035 0.007 0.105
-0.045 0.037 0.099
-0.043 0.041 0.103
-0.041 0.039 0.105
-0.005 -0.029 0.043
-0.019 -0.003 0.037
-0.021 -0.007 0.057
0.001 -0.029 0.075
-0.015 -0.015 0.075
-0.011 -0.019 0.077
-0.005 -0.025 0.083
-0.029 -0.007 0.087
-0.027 -0.009 0.095
0.031 -0.031 0.035
0.007 -0.033 0.047
0.027 -0.031 0.041
0.025 -0.025 0.045
0.025 -0.025 0.045
0.019 -0.027 0.055
0.031 -0.037 0.061
0.017 -0.025 0.051
0.007 -0.035 0.063
0.039 -0.029 0.045
0.035 -0.033 0.051
0.025 -0.039 0.071
0.027 -0.039 0.085
0.021 -0.037 0.071
0.009 -0.035 0.067
0.011 -0.033 0.085
-0.027 -0.007 0.037
-0.031 0.005 0.045
-0.029 -0.005 0.037
-0.017 -0.001 0.033
0.009 -0.033 0.043
0.005 -0.033 0.047
-0.013 -0.011 0.055
-0.009 -0.013 0.055
0.003 -0.031 0.045
-0.009 -0.013 0.055
-0.015 -0.013 0.063
-0.025 0.001 0.085
-0.027 -0.007 0.087
-0.011 -0.017 0.067
-0.007 -0.019 0.073
-0.013 -0.017 0.075
-0.003 -0.025 0.089
-0.017 -0.001 0.081
-0.025 -0.005 0.093
-0.027 -0.007 0.087
-0.023 -0.001 0.089
-0.025 -0.001 0.095
-0.021 0.003 0.103
-0.015 0.007 0.103
-0.031 -0.003 0.095
0.015 -0.033 0.039
0.011 -0.033 0.041
-0.031 0.037 0.047
-0.039 0.035 0.053
-0.045 0.025 0.039
-0.033 0.037 0.049
-0.035 0.035 0.061
-0.037 0.033 0.061
-0.035 0.035 0.061
-0.041 0.045 0.085
-0.025 0.027 0.073
-0.041 0.023 0.095
-0.023 0.029 0.093
-0.033 0.037 0.053
-0.019 0.033 0.049
0.027 -0.027 0.053
0.015 -0.017 0.063
-0.031 0.039 0.049
-0.017 0.031 0.057
0.013 -0.003 0.043
0.015 -0.003 0.047
0.023 -0.003 0.045
-0.021 0.031 0.063
-0.029 0.033 0.067
0.027 -0.025 0.055
0.017 -0.007 0.053
0.021 -0.005 0.055
0.027 -0.003 0.049
0.027 -0.003 0.055
0.027 -0.003 0.047
0.025 -0.003 0.055
-0.027 0.025 0.075
-0.039 0.049 0.091
-0.033 0.049 0.087
-0.019 0.025 0.071
0.017 -0.011 0.067
-0.039 0.047 0.087
0.007 -0.011 0.089
-0.043 0.027 0.039
-0.041 0.031 0.049
-0.021 0.035 0.039
-0.019 0.037 0.035
-0.037 0.033 0.061
-0.029 0.035 0.061
-0.029 0.033 0.065
-0.025 0.033 0.063
-0.023 0.035 0.037
-0.025 0.037 0.039
-0.031 0.037 0.043
-0.013 0.041 0.035
-0.029 0.035 0.063
-0.033 0.031 0.069
-0.043 0.039 0.081
-0.001 0.001 0.075
-0.025 0.031 0.069
-0.037 0.047 0.085
-0.039 0.043 0.091
-0.029 0.037 0.095
-0.041 0.037 0.095
-0.037 0.047 0.087
-0.031 0.047 0.089
-0.029 0.039 0.095
-0.035 0.007 0.099
-0.043 0.033 0.097
-0.033 0.043 0.103
-0.027 0.009 0.107
-0.037 0.041 0.101
-0.033 0.043 0.101
-0.043 0.039 0.099
-0.015 0.039 0.043
-0.011 0.035 0.045
-0.009 0.031 0.047
