0.001 -0.001 0.063
0.001 -0.011 0.091
0.003 -0.009 0.089
-0.001 -0.015 0.095
-0.021 0.007 0.109
0.015 -0.017 0.049
0.035 -0.021 0.055
0.031 -0.005 0.051
0.003 -0.015 0.061
0.011 -0.013 0.053
0.015 -0.005 0.051
0.027 -0.031 0.071
0.027 -0.033 0.083
0.023 -0.033 0.081
0.009 -0.013 0.089
0.019 -0.013 0.073
-0.007 0.025 0.049
-0.027 0.033 0.067
-0.025 0.029 0.071
-0.015 0.019 0.055
-0.019 0.021 0.063
-0.009 0.025 0.051
-0.005 0.023 0.043
-0.005 0.029 0.045
-0.025 0.019 0.105
-0.015 0.009 0.079
-0.017 0.017 0.077
-0.019 0.029 0.083
-0.023 0.033 0.087
-0.007 -0.019 0.071
-0.007 -0.015 0.089
0.001 -0.031 0.045
-0.001 -0.029 0.059
0.011 -0.031 0.055
0.001 -0.031 0.061
0.025 -0.037 0.067
-0.005 -0.019 0.091
-0.017 -0.001 0.033
-0.019 -0.009 0.061
-0.039 0.023 0.061
-0.037 0.017 0.065
-0.023 0.005 0.071
-0.031 0.007 0.079
-0.027 -0.009 0.097
-0.035 0.009 0.093
-0.035 0.009 0.099
-0.035 0.011 0.099
-0.041 0.031 0.083
-0.037 0.033 0.089
-0.003 -0.035 0.033
-0.001 -0.035 0.037
0.011 -0.033 0.041
0.009 -0.031 0.053
0.013 -0.037 0.071
0.025 -0.035 0.031
0.013 -0.035 0.037
0.019 -0.033 0.039
0.029 -0.031 0.043
0.041 -0.029 0.047
0.039 -0.023 0.037
0.041 -0.029 0.047
0.017 -0.035 0.075
0.023 -0.039 0.073
0.031 -0.039 0.087
0.019 -0.033 0.039
0.031 -0.035 0.057
0.017 -0.023 0.051
0.013 -0.035 0.067
0.013 -0.033 0.085
0.017 -0.035 0.067
0.023 -0.037 0.065
-0.007 0.001 0.095
0.013 -0.031 0.089
0.007 -0.027 0.093
0.011 -0.027 0.093
-0.009 0.001 0.103
-0.013 0.013 0.099
-0.007 -0.029 0.045
0.003 -0.025 0.091
0.003 -0.021 0.095
-0.027 -0.005 0.103
0.021 -0.025 0.079
0.031 -0.033 0.069
0.011 -0.019 0.091
0.023 -0.013 0.063
0.035 -0.031 0.063
0.035 -0.029 0.063
0.007 -0.011 0.089
0.003 -0.027 0.091
0.011 -0.021 0.091
0.001 -0.015 0.093
-0.001 -0.001 0.081
-0.021 -0.003 0.109
-0.007 0.019 0.049
-0.011 0.027 0.053
-0.025 0.029 0.103
-0.025 0.037 0.101
-0.033 0.007 0.105
-0.021 0.001 0.109
-0.009 0.003 0.103
-0.023 0.037 0.099
0.001 -0.009 0.047
-0.001 -0.011 0.049
-0.007 0.025 0.047
-0.015 0.007 0.063
0.001 -0.001 0.065
0.003 -0.005 0.083
0.001 0.001 0.069
-0.009 -0.001 0.081
0.031 -0.027 0.063
0.019 -0.003 0.039
0.021 -0.005 0.049
0.017 -0.007 0.053
-0.017 0.039 0.041
-0.023 0.033 0.035
-0.029 0.039 0.049
-0.033 0.037 0.039
-0.037 0.033 0.061
-0.003 0.033 0.035
-0.021 0.033 0.057
-0.017 0.027 0.059
-0.031 0.033 0.067
-0.025 0.027 0.105
-0.021 0.009 0.107
0.003 0.019 0.035
0.003 0.013 0.043
0.001 0.009 0.043
-0.001 -0.001 0.055
-0.009 0.003 0.089
0.023 -0.005 0.037
0.025 -0.005 0.039
0.013 -0.003 0.041
0.017 -0.003 0.045
0.005 -0.011 0.055
0.041 -0.021 0.045
-0.001 0.019 0.041
0.003 0.009 0.039
-0.027 0.037 0.043
-0.015 0.033 0.047
-0.019 0.033 0.051
-0.025 0.031 0.067
-0.011 0.011 0.089
-0.017 0.021 0.097
-0.021 0.029 0.095
-0.011 0.009 0.093
-0.027 0.043 0.087
-0.013 0.011 0.109
-0.029 0.043 0.103
-0.031 0.043 0.105
-0.025 0.039 0.097
-0.023 0.029 0.071
-0.017 0.025 0.085
-0.021 0.027 0.091
-0.019 0.027 0.095
-0.007 0.001 0.095
-0.001 -0.015 0.095
-0.021 0.031 0.095
-0.031 0.021 0.105
-0.031 0.005 0.107
0.005 -0.011 0.053
0.025 -0.009 0.065
0.011 -0.003 0.043
-0.001 0.013 0.047
0.009 -0.003 0.039
0.023 -0.003 0.041
0.029 -0.005 0.059
0.007 -0.011 0.089
0.031 -0.035 0.087
-0.049 0.027 0.035
-0.041 0.031 0.047
-0.009 0.027 0.051
-0.033 0.037 0.039
-0.027 0.037 0.039
-0.039 0.039 0.097
-0.035 0.047 0.093
-0.019 0.029 0.085
-0.019 0.025 0.091
0.003 0.019 0.033
-0.003 -0.013 0.063
0.007 -0.019 0.093
0.035 -0.015 0.047
0.033 -0.033 0.045
0.035 -0.035 0.055
0.035 -0.017 0.049
0.027 -0.003 0.045
0.017 -0.017 0.065
0.035 -0.043 0.085
0.019 -0.019 0.071
0.019 -0.019 0.073
0.003 0.015 0.039
-0.001 0.013 0.049
-0.009 0.019 0.051
-0.009 0.021 0.051
-0.001 0.001 0.049
-0.009 0.033 0.045
-0.007 0.037 0.045
-0.007 0.041 0.043
-0.011 0.007 0.091
-0.009 -0.001 0.103
-0.009 0.005 0.101
-0.017 0.011 0.073
0.003 0.013 0.043
0.017 0.003 0.033
-0.017 -0.007 0.075
-0.015 -0.007 0.113
0.015 -0.033 0.087
0.003 -0.023 0.095
0.003 -0.017 0.093
0.011 -0.019 0.091
0.021 -0.011 0.071
-0.025 -0.001 0.051
-0.027 0.007 0.105
-0.031 -0.003 0.101
-0.033 0.003 0.101
-0.037 0.025 0.103
-0.027 -0.001 0.101
-0.031 -0.003 0.101
-0.019 0.011 0.103
-0.029 0.027 0.105
-0.029 0.037 0.101
-0.019 0.003 0.109
-0.019 0.015 0.105
0.041 -0.025 0.043
0.031 -0.037 0.065
0.037 -0.039 0.087
0.041 -0.025 0.043
0.039 -0.027 0.041
0.031 -0.011 0.057
0.039 -0.019 0.039
0.023 -0.037 0.067
0.035 -0.039 0.083
0.035 -0.043 0.085
0.033 -0.029 0.065
0.011 -0.023 0.091
0.015 -0.025 0.089
0.017 0.005 0.033
-0.001 -0.005 0.055
0.003 0.017 0.037
0.013 -0.015 0.085
0.005 -0.007 0.075
0.007 -0.011 0.089
-0.015 0.013 0.081
-0.027 0.045 0.085
-0.015 0.015 0.103
0.001 -0.031 0.051
0.015 -0.035 0.067
0.001 -0.031 0.085
0.037 -0.025 0.035
0.037 -0.033 0.049
0.009 -0.033 0.043
0.027 -0.033 0.039
0.015 -0.031 0.059
0.019 -0.029 0.057
0.039 -0.027 0.057
0.017 -0.033 0.085
0.003 -0.025 0.091
0.017 -0.035 0.067
0.027 -0.041 0.075
0.007 -0.033 0.085
0.023 -0.039 0.081
-0.025 -0.005 0.095
0.001 -0.023 0.093
0.003 -0.023 0.095
-0.017 0.003 0.095
-0.015 0.009 0.109
-0.029 -0.005 0.041
-0.003 -0.023 0.059
-0.007 -0.025 0.045
-0.003 -0.019 0.057
0.029 -0.031 0.051
0.003 -0.033 0.069
-0.003 -0.019 0.057
-0.003 -0.025 0.055
0.007 -0.035 0.063
0.015 -0.035 0.077
0.005 -0.033 0.085
0.029 -0.043 0.077
0.001 -0.023 0.093
-0.049 0.025 0.033
-0.049 0.017 0.039
-0.047 0.023 0.041
-0.041 0.027 0.045
-0.041 0.025 0.055
-0.039 0.027 0.061
-0.015 -0.003 0.081
-0.039 0.041 0.091
-0.041 0.029 0.099
-0.031 0.001 0.105
-0.043 0.037 0.103
-0.029 0.007 0.051
-0.035 0.001 0.033
-0.009 -0.023 0.041
-0.021 -0.007 0.061
-0.011 -0.019 0.077
-0.031 -0.001 0.095
-0.019 -0.007 0.111
-0.009 -0.031 0.041
-0.003 -0.025 0.057
-0.001 -0.025 0.059
-0.029 -0.005 0.039
-0.029 -0.003 0.043
-0.005 -0.023 0.053
-0.021 -0.007 0.057
0.005 -0.033 0.075
0.003 -0.029 0.089
-0.025 0.001 0.079
-0.009 -0.009 0.091
-0.039 0.019 0.057
-0.037 0.021 0.065
-0.015 0.041 0.039
-0.035 0.037 0.051
-0.033 0.011 0.073
-0.037 0.029 0.087
-0.027 0.003 0.077
-0.037 0.021 0.069
-0.035 0.047 0.089
-0.043 0.037 0.097
-0.037 0.025 0.103
-0.035 0.017 0.069
-0.033 0.003 0.101
-0.035 0.009 0.103
-0.035 0.017 0.103
-0.025 0.011 0.109
-0.043 0.041 0.085
-0.039 0.031 0.087
0.017 -0.017 0.075
-0.039 0.043 0.091
-0.031 0.043 0.105
-0.025 0.011 0.111
-0.033 0.017 0.105
-0.041 0.039 0.105
0.007 -0.019 0.093
-0.015 0.013 0.107
-0.041 0.027 0.047
-0.041 0.015 0.053
-0.041 0.031 0.045
-0.041 0.027 0.041
-0.043 0.021 0.041
-0.035 0.033 0.063
-0.037 0.017 0.059
-0.039 0.047 0.087
-0.023 0.033 0.061
-0.025 0.033 0.065
-0.043 0.033 0.099
-0.035 0.043 0.103
-0.033 0.023 0.105
-0.005 -0.029 0.045
-0.013 -0.017 0.077
-0.003 -0.017 0.093
0.027 -0.035 0.057
0.001 -0.031 0.045
0.011 -0.031 0.047
0.005 -0.035 0.039
0.011 -0.031 0.047
0.015 -0.025 0.047
0.013 -0.035 0.065
0.033 -0.031 0.039
-0.029 -0.005 0.033
-0.013 -0.007 0.045
-0.017 -0.013 0.065
-0.039 0.019 0.057
-0.037 0.017 0.057
-0.027 0.009 0.065
-0.035 0.011 0.089
-0.041 0.023 0.093
-0.019 0.005 0.069
-0.023 0.001 0.079
-0.027 -0.005 0.091
-0.039 0.033 0.087
-0.031 0.009 0.069
-0.035 0.011 0.085
-0.035 0.005 0.097
-0.023 -0.007 0.047
-0.001 -0.029 0.059
-0.005 -0.025 0.049
-0.005 -0.017 0.069
-0.003 -0.027 0.079
-0.007 -0.023 0.085
0.023 -0.035 0.031
0.031 -0.033 0.047
0.017 -0.029 0.043
0.025 -0.035 0.035
0.027 -0.025 0.047
0.009 -0.031 0.055
0.027 -0.035 0.057
0.009 -0.035 0.067
0.009 -0.035 0.073
0.027 -0.037 0.071
-0.031 0.011 0.063
0.005 -0.033 0.041
-0.031 -0.003 0.093
-0.035 0.015 0.081
-0.007 -0.017 0.067
-0.017 -0.001 0.089
-0.031 0.003 0.083
-0.029 -0.007 0.103
-0.009 -0.001 0.095
-0.015 0.003 0.095
-0.005 -0.035 0.037
-0.003 -0.027 0.087
-0.003 -0.017 0.093
-0.029 -0.007 0.101
0.031 -0.037 0.061
-0.001 -0.031 0.043
0.001 -0.023 0.065
-0.001 -0.027 0.079
0.001 -0.031 0.085
0.027 -0.037 0.063
0.021 -0.039 0.079
0.025 -0.041 0.081
0.001 -0.029 0.073
-0.037 0.007 0.043
-0.031 0.011 0.053
-0.043 0.019 0.041
-0.041 0.023 0.051
-0.039 0.009 0.047
-0.037 0.019 0.069
-0.041 0.023 0.095
-0.015 -0.003 0.079
-0.013 0.001 0.095
-0.035 0.013 0.103
-0.039 0.031 0.087
-0.043 0.029 0.095
-0.037 0.029 0.101
-0.023 0.001 0.099
-0.019 -0.007 0.111
-0.009 -0.025 0.043
-0.021 -0.007 0.061
-0.037 0.019 0.069
-0.017 -0.007 0.069
-0.029 0.003 0.081
-0.029 -0.005 0.087
-0.033 0.003 0.093
-0.037 0.019 0.091
-0.017 -0.007 0.113
-0.025 -0.005 0.045
-0.037 0.035 0.059
-0.037 0.021 0.069
-0.039 0.021 0.063
-0.037 0.013 0.097
-0.035 0.009 0.093
-0.043 0.017 0.051
-0.039 0.033 0.043
-0.039 0.033 0.051
-0.031 0.037 0.041
-0.039 0.025 0.061
-0.027 0.035 0.061
-0.039 0.029 0.083
-0.033 0.003 0.087
-0.041 0.045 0.085
-0.041 0.045 0.085
-0.037 0.033 0.105
-0.045 0.037 0.101
-0.033 0.043 0.101
-0.031 0.041 0.099
-0.021 0.021 0.105
-0.019 0.027 0.097
-0.025 0.027 0.105
-0.015 0.013 0.107
-0.005 -0.017 0.091
-0.019 0.013 0.105
0.023 -0.003 0.043
0.001 -0.007 0.089
0.009 -0.013 0.059
0.011 -0.015 0.059
0.021 -0.007 0.061
0.039 -0.017 0.045
0.035 -0.017 0.049
0.025 -0.033 0.081
0.031 -0.037 0.089
0.031 -0.035 0.087
0.017 -0.017 0.071
0.001 -0.001 0.075
0.013 -0.017 0.089
0.009 -0.017 0.091
0.013 -0.015 0.087
-0.041 0.027 0.057
-0.039 0.031 0.061
-0.003 0.011 0.053
-0.031 0.043 0.105
-0.033 0.037 0.107
-0.003 0.003 0.073
-0.037 0.041 0.103
0.015 0.001 0.037
-0.031 0.037 0.053
-0.027 0.021 0.079
-0.027 0.023 0.077
-0.023 0.037 0.051
-0.029 0.029 0.071
0.017 0.005 0.037
0.019 -0.009 0.065
0.013 -0.005 0.049
0.035 -0.013 0.041
0.025 -0.003 0.053
0.019 -0.011 0.067
-0.001 0.003 0.069
-0.029 0.039 0.095
-0.027 0.039 0.095
-0.011 0.011 0.093
-0.045 0.023 0.041
-0.041 0.031 0.051
-0.025 0.037 0.039
-0.017 0.033 0.055
-0.023 0.033 0.061
-0.017 0.039 0.041
-0.035 0.023 0.073
-0.041 0.025 0.093
-0.021 0.025 0.073
-0.039 0.047 0.087
-0.029 0.039 0.095
-0.035 0.005 0.105
-0.025 0.011 0.109
