0.003 -0.009 0.043
-0.003 -0.013 0.047
-0.013 0.031 0.051
-0.001 0.013 0.047
0.001 -0.013 0.055
-0.005 -0.005 0.087
-0.001 -0.005 0.087
-0.017 0.021 0.091
0.023 -0.003 0.041
0.027 -0.009 0.039
0.033 -0.013 0.033
0.029 -0.013 0.031
0.013 -0.015 0.063
0.037 -0.029 0.059
0.019 -0.003 0.041
0.019 -0.003 0.039
0.019 -0.003 0.041
0.017 -0.007 0.053
0.027 -0.003 0.047
0.033 -0.019 0.051
0.031 -0.015 0.047
0.023 -0.003 0.049
0.005 -0.001 0.037
0.007 -0.005 0.047
0.023 -0.003 0.035
0.019 -0.003 0.041
0.019 -0.003 0.047
0.005 -0.015 0.063
0.031 -0.023 0.057
0.021 -0.009 0.063
0.029 -0.025 0.057
0.029 -0.025 0.061
0.021 -0.009 0.063
0.005 -0.015 0.063
0.013 -0.015 0.061
0.019 -0.005 0.049
0.027 -0.003 0.055
0.025 -0.005 0.059
0.039 -0.019 0.037
0.035 -0.025 0.061
0.007 -0.017 0.069
0.011 -0.017 0.071
0.021 -0.011 0.069
0.027 -0.029 0.067
0.017 -0.019 0.085
0.029 -0.035 0.081
0.025 -0.033 0.085
0.033 -0.029 0.065
0.033 -0.039 0.079
0.033 -0.037 0.083
0.037 -0.039 0.087
0.033 -0.037 0.083
0.021 -0.025 0.069
0.001 -0.001 0.065
0.003 -0.005 0.079
0.007 -0.009 0.087
0.013 -0.017 0.089
-0.019 0.037 0.043
-0.021 0.037 0.045
-0.029 0.039 0.045
-0.029 0.039 0.045
-0.039 0.033 0.043
-0.035 0.037 0.043
-0.031 0.037 0.039
-0.033 0.037 0.043
-0.037 0.033 0.061
-0.019 0.037 0.043
-0.019 0.035 0.047
-0.021 0.033 0.055
-0.007 0.039 0.041
-0.003 0.025 0.037
-0.001 0.015 0.043
-0.009 0.043 0.039
-0.007 0.041 0.041
-0.005 0.033 0.041
-0.003 0.031 0.035
-0.017 0.023 0.059
-0.025 0.033 0.065
-0.019 0.009 0.059
-0.013 0.017 0.055
-0.003 0.011 0.053
-0.021 0.029 0.063
-0.033 0.037 0.055
-0.017 0.039 0.037
-0.029 0.039 0.045
-0.025 0.035 0.057
-0.035 0.029 0.069
-0.035 0.031 0.065
-0.033 0.025 0.073
-0.023 0.031 0.099
-0.031 0.023 0.091
-0.023 0.037 0.099
-0.027 0.037 0.089
-0.029 0.043 0.089
-0.031 0.049 0.087
-0.027 0.039 0.097
-0.029 0.039 0.095
-0.029 0.041 0.097
-0.023 0.029 0.069
-0.015 0.015 0.077
-0.017 0.017 0.079
-0.013 0.005 0.067
-0.025 0.033 0.065
-0.019 0.021 0.077
-0.011 0.011 0.089
-0.011 0.009 0.095
-0.011 0.011 0.091
-0.025 0.041 0.085
-0.019 0.029 0.083
-0.017 0.019 0.089
-0.017 0.021 0.089
-0.017 0.021 0.091
-0.021 0.023 0.093
-0.021 0.027 0.091
-0.021 0.031 0.095
-0.041 0.043 0.083
-0.037 0.047 0.085
-0.029 0.045 0.089
-0.041 0.045 0.087
-0.035 0.047 0.091
-0.037 0.049 0.093
-0.025 0.041 0.083
-0.025 0.037 0.087
-0.025 0.043 0.083
-0.029 0.047 0.083
-0.027 0.039 0.095
-0.023 0.029 0.103
-0.029 0.029 0.103
-0.031 0.041 0.099
-0.021 0.021 0.105
-0.017 0.017 0.105
-0.025 0.039 0.097
-0.025 0.029 0.103
-0.021 0.027 0.103
-0.029 0.027 0.105
-0.039 0.041 0.103
-0.033 0.043 0.101
-0.035 0.043 0.105
-0.027 0.041 0.099
-0.021 0.033 0.097
-0.023 0.037 0.099
0.001 0.001 0.063
0.037 -0.033 0.055
0.037 -0.029 0.061
0.029 -0.007 0.061
0.029 -0.005 0.059
0.025 -0.011 0.065
0.025 -0.011 0.065
0.013 -0.015 0.051
0.027 -0.009 0.063
0.001 -0.005 0.063
0.021 -0.013 0.069
0.007 -0.009 0.083
0.001 -0.003 0.079
0.011 -0.027 0.093
-0.025 -0.003 0.095
-0.025 -0.003 0.093
0.009 -0.015 0.091
-0.027 -0.005 0.103
-0.015 -0.009 0.111
-0.015 -0.005 0.111
0.029 -0.033 0.037
0.029 -0.033 0.035
0.041 -0.025 0.051
0.019 -0.035 0.037
0.025 -0.035 0.035
0.037 -0.033 0.057
0.041 -0.027 0.051
0.037 -0.031 0.059
0.039 -0.021 0.053
0.023 -0.013 0.047
0.029 -0.003 0.049
0.027 -0.007 0.043
0.037 -0.017 0.047
0.037 -0.029 0.061
0.031 -0.027 0.065
0.027 -0.031 0.073
0.029 -0.031 0.069
0.037 -0.025 0.059
0.031 -0.029 0.067
0.013 -0.015 0.063
0.007 -0.013 0.059
0.021 -0.013 0.065
0.029 -0.005 0.057
0.029 -0.007 0.061
0.041 -0.025 0.043
0.039 -0.017 0.045
0.027 -0.035 0.073
0.031 -0.035 0.081
0.031 -0.035 0.069
0.033 -0.039 0.077
0.011 -0.033 0.087
0.027 -0.033 0.085
0.035 -0.041 0.075
0.027 -0.031 0.071
0.019 -0.021 0.071
0.019 -0.019 0.069
0.009 -0.025 0.095
0.009 -0.023 0.093
0.013 -0.015 0.083
0.005 -0.015 0.091
0.029 -0.005 0.059
-0.005 0.001 0.037
0.003 0.015 0.037
-0.003 0.009 0.055
-0.009 0.019 0.051
-0.021 0.015 0.059
-0.005 0.003 0.037
-0.001 0.001 0.049
-0.003 0.019 0.043
0.001 0.019 0.037
-0.003 0.005 0.063
-0.005 0.009 0.059
-0.003 0.011 0.051
-0.003 0.009 0.055
-0.001 0.005 0.059
-0.019 0.021 0.063
-0.017 0.031 0.057
-0.011 0.019 0.053
-0.023 0.031 0.067
-0.007 0.037 0.037
-0.013 0.031 0.053
-0.023 0.035 0.055
-0.015 0.013 0.077
-0.017 0.021 0.089
-0.019 0.025 0.091
-0.015 0.015 0.101
-0.017 0.015 0.069
-0.017 0.003 0.079
-0.017 0.001 0.083
-0.009 0.005 0.089
-0.017 0.001 0.087
-0.017 0.021 0.095
-0.017 0.019 0.093
-0.021 0.031 0.095
-0.025 0.035 0.087
-0.029 0.037 0.089
-0.031 0.033 0.089
-0.031 0.037 0.089
-0.025 0.037 0.085
-0.029 0.035 0.089
-0.027 0.039 0.089
-0.021 0.003 0.103
-0.025 0.013 0.107
-0.027 0.015 0.105
-0.019 0.003 0.109
-0.011 0.007 0.099
-0.011 0.007 0.103
-0.027 0.017 0.105
-0.031 0.037 0.103
-0.033 0.041 0.105
-0.027 0.041 0.101
-0.009 -0.029 0.039
-0.003 -0.021 0.037
-0.029 -0.005 0.041
-0.005 -0.017 0.039
-0.005 -0.017 0.051
-0.017 -0.013 0.063
-0.019 -0.009 0.067
-0.017 -0.003 0.071
-0.017 -0.013 0.071
-0.013 -0.017 0.073
-0.015 -0.005 0.077
-0.015 -0.003 0.079
-0.011 -0.019 0.083
-0.029 -0.007 0.095
-0.011 -0.007 0.085
-0.011 -0.007 0.087
-0.019 -0.007 0.111
0.007 -0.035 0.039
0.005 -0.033 0.047
-0.003 -0.027 0.047
0.025 -0.029 0.043
-0.001 -0.029 0.057
-0.001 -0.025 0.059
-0.003 -0.013 0.041
0.005 -0.007 0.039
-0.003 -0.011 0.045
-0.003 -0.011 0.045
-0.003 -0.013 0.047
-0.003 -0.023 0.059
-0.003 -0.019 0.057
-0.003 -0.015 0.053
-0.017 -0.013 0.063
0.001 -0.031 0.051
0.007 -0.031 0.051
-0.003 -0.021 0.059
0.003 -0.033 0.065
0.003 -0.033 0.065
-0.001 -0.023 0.061
0.003 -0.021 0.065
0.007 -0.033 0.061
0.001 -0.027 0.063
0.003 -0.031 0.069
-0.001 -0.015 0.057
-0.001 -0.017 0.057
0.001 -0.015 0.059
0.005 -0.017 0.065
-0.007 -0.019 0.071
-0.011 -0.019 0.075
-0.009 -0.019 0.073
-0.001 -0.029 0.053
0.007 -0.033 0.059
0.017 -0.035 0.079
0.013 -0.035 0.077
0.013 -0.035 0.083
0.029 -0.041 0.085
-0.007 -0.023 0.079
-0.001 -0.027 0.077
-0.001 -0.025 0.075
-0.009 -0.019 0.085
0.001 -0.031 0.085
0.011 -0.029 0.091
0.009 -0.027 0.093
0.009 -0.025 0.095
0.001 -0.021 0.093
-0.035 0.003 0.033
-0.041 0.011 0.047
-0.049 0.023 0.039
-0.049 0.021 0.039
-0.045 0.017 0.039
-0.041 0.017 0.045
-0.041 0.027 0.049
-0.041 0.011 0.051
-0.039 0.017 0.057
-0.035 0.001 0.037
-0.041 0.021 0.047
-0.039 0.011 0.053
-0.037 0.009 0.051
-0.041 0.015 0.055
-0.029 0.013 0.057
-0.037 0.017 0.057
-0.039 0.021 0.059
-0.027 0.009 0.053
-0.021 0.007 0.057
-0.037 0.019 0.067
-0.031 0.011 0.063
-0.037 0.017 0.061
-0.039 0.031 0.043
-0.041 0.031 0.045
-0.041 0.025 0.053
-0.039 0.025 0.061
-0.037 0.029 0.067
-0.039 0.023 0.065
-0.037 0.027 0.069
-0.037 0.017 0.095
-0.031 0.009 0.067
-0.029 0.007 0.071
-0.015 -0.001 0.077
-0.033 0.011 0.075
-0.033 0.015 0.075
-0.031 -0.003 0.089
-0.035 0.013 0.087
-0.033 0.003 0.087
-0.037 0.017 0.091
-0.037 0.015 0.095
-0.039 0.025 0.091
-0.039 0.021 0.093
-0.035 0.009 0.093
-0.039 0.031 0.085
-0.041 0.041 0.089
-0.041 0.025 0.093
-0.037 0.027 0.099
-0.035 0.005 0.099
-0.039 0.019 0.101
-0.027 0.009 0.109
-0.027 0.009 0.111
-0.027 0.009 0.107
-0.035 0.005 0.105
-0.027 0.009 0.111
-0.033 0.029 0.103
-0.025 0.019 0.105
-0.043 0.037 0.103
-0.039 0.031 0.101
-0.031 0.007 0.047
-0.023 -0.007 0.047
-0.023 -0.007 0.047
-0.023 -0.007 0.047
-0.023 -0.005 0.053
-0.021 -0.007 0.053
-0.005 -0.025 0.049
-0.023 -0.007 0.041
-0.009 -0.003 0.039
-0.003 -0.027 0.055
-0.011 -0.007 0.043
-0.003 -0.027 0.051
-0.001 -0.027 0.061
-0.023 -0.003 0.055
-0.013 -0.011 0.055
-0.015 -0.013 0.059
-0.011 -0.017 0.067
-0.007 -0.021 0.075
-0.017 -0.009 0.075
-0.013 -0.015 0.083
-0.001 -0.023 0.091
-0.021 -0.001 0.085
-0.019 -0.001 0.087
-0.009 -0.015 0.087
-0.029 -0.007 0.103
-0.017 -0.009 0.109
0.019 -0.033 0.039
0.013 -0.031 0.045
0.009 -0.033 0.045
0.005 -0.035 0.039
-0.001 -0.033 0.041
0.017 -0.029 0.043
0.027 -0.029 0.043
0.007 -0.033 0.045
0.013 -0.029 0.055
0.017 -0.033 0.063
0.005 -0.033 0.049
0.007 -0.031 0.049
0.001 -0.031 0.061
0.005 -0.035 0.073
0.013 -0.035 0.067
0.017 -0.033 0.063
0.007 -0.035 0.065
0.007 -0.035 0.065
0.011 -0.035 0.065
-0.001 -0.015 0.067
0.023 -0.039 0.069
0.015 -0.035 0.079
0.033 -0.029 0.037
0.033 -0.031 0.039
0.033 -0.033 0.049
0.039 -0.031 0.047
0.039 -0.031 0.049
0.029 -0.035 0.059
0.035 -0.033 0.063
0.009 -0.035 0.065
0.011 -0.037 0.071
0.011 -0.035 0.077
0.021 -0.037 0.069
0.021 -0.037 0.071
0.031 -0.039 0.087
0.003 -0.033 0.073
0.017 -0.035 0.077
0.001 -0.027 0.089
-0.001 -0.027 0.089
0.017 -0.035 0.081
0.015 -0.033 0.087
0.015 -0.031 0.089
0.019 -0.033 0.083
0.017 -0.033 0.087
0.005 -0.025 0.093
0.005 -0.023 0.095
-0.025 -0.007 0.039
-0.027 -0.007 0.041
-0.027 0.001 0.049
-0.039 0.009 0.043
-0.041 0.011 0.039
-0.045 0.017 0.039
-0.041 0.011 0.051
-0.039 0.009 0.051
-0.041 0.013 0.053
-0.041 0.013 0.053
-0.003 -0.009 0.057
-0.021 -0.007 0.055
-0.015 -0.011 0.053
-0.029 0.005 0.049
-0.031 0.011 0.053
-0.021 -0.007 0.061
-0.019 -0.009 0.067
-0.019 -0.009 0.067
-0.015 -0.015 0.071
-0.011 -0.017 0.073
-0.037 0.017 0.067
-0.037 0.019 0.069
-0.011 -0.019 0.075
-0.015 -0.015 0.075
-0.009 -0.021 0.077
-0.023 0.011 0.063
-0.025 0.003 0.075
-0.033 0.001 0.089
-0.035 0.007 0.095
-0.035 0.011 0.085
-0.037 0.013 0.099
-0.037 0.015 0.101
-0.021 0.003 0.071
-0.019 0.003 0.071
-0.021 0.005 0.069
-0.021 0.003 0.073
-0.021 0.001 0.079
-0.019 -0.001 0.081
-0.019 -0.001 0.081
-0.019 -0.001 0.089
-0.025 -0.003 0.089
-0.031 -0.001 0.087
-0.031 -0.003 0.089
-0.015 0.005 0.093
-0.015 0.005 0.093
-0.019 -0.001 0.095
-0.031 -0.003 0.101
-0.031 0.001 0.105
-0.021 -0.001 0.105
-0.041 0.033 0.085
-0.033 0.001 0.101
-0.043 0.039 0.087
-0.033 0.001 0.101
-0.039 0.023 0.097
-0.039 0.023 0.103
-0.031 -0.001 0.085
-0.027 0.001 0.101
-0.039 0.021 0.101
-0.027 0.007 0.109
-0.027 0.007 0.111
-0.011 0.001 0.099
-0.011 0.001 0.101
-0.029 0.023 0.105
-0.039 0.037 0.105
-0.033 0.037 0.107
-0.001 -0.029 0.059
