-0.027 -0.007 0.035
-0.019 -0.007 0.049
-0.005 -0.017 0.051
-0.005 -0.019 0.071
-0.003 -0.017 0.069
-0.019 -0.007 0.067
-0.017 -0.001 0.079
-0.015 -0.015 0.073
-0.031 -0.003 0.095
0.027 -0.037 0.061
0.003 -0.035 0.037
0.005 -0.033 0.045
0.015 -0.033 0.041
-0.003 -0.027 0.051
0.007 -0.033 0.047
0.005 -0.033 0.049
0.005 -0.031 0.053
0.001 -0.029 0.053
0.005 -0.033 0.059
0.029 -0.031 0.051
0.027 -0.033 0.055
0.027 -0.029 0.055
-0.003 -0.023 0.055
-0.001 -0.029 0.059
0.003 -0.033 0.063
0.003 -0.031 0.067
0.031 -0.033 0.045
0.017 -0.035 0.067
0.023 -0.039 0.071
0.023 -0.041 0.077
0.023 -0.041 0.079
0.001 -0.031 0.081
0.021 -0.037 0.069
0.005 -0.033 0.075
0.005 -0.033 0.077
0.009 -0.035 0.077
-0.005 -0.021 0.073
0.001 -0.029 0.073
0.001 -0.031 0.085
0.005 -0.031 0.087
0.003 -0.031 0.087
-0.039 0.009 0.037
-0.049 0.015 0.037
-0.037 0.011 0.053
-0.041 0.021 0.053
-0.041 0.023 0.053
-0.041 0.023 0.057
-0.011 -0.005 0.039
-0.033 0.005 0.045
-0.015 -0.015 0.067
-0.017 -0.013 0.067
-0.021 -0.005 0.063
-0.029 0.011 0.063
-0.041 0.019 0.045
-0.039 0.009 0.051
-0.027 0.005 0.051
-0.025 0.009 0.053
-0.031 0.013 0.055
-0.031 0.013 0.061
-0.043 0.029 0.095
-0.025 0.001 0.079
-0.015 -0.007 0.079
-0.023 0.001 0.079
-0.033 0.017 0.075
-0.033 0.011 0.071
-0.031 0.009 0.079
-0.031 0.005 0.083
-0.029 -0.001 0.085
-0.029 -0.005 0.099
-0.035 0.011 0.091
-0.037 0.029 0.087
-0.043 0.039 0.087
-0.041 0.037 0.089
-0.035 0.015 0.105
-0.023 0.001 0.105
-0.035 0.003 0.105
-0.035 0.015 0.105
-0.045 0.037 0.101
-0.037 0.031 0.103
-0.039 0.019 0.101
-0.015 -0.005 0.041
-0.005 -0.025 0.047
0.003 -0.031 0.087
0.005 -0.031 0.087
0.003 -0.027 0.091
-0.009 -0.015 0.087
0.007 -0.019 0.093
-0.001 -0.027 0.089
-0.027 -0.007 0.089
-0.009 -0.011 0.091
-0.027 -0.005 0.103
0.011 -0.037 0.071
0.017 -0.035 0.081
0.009 -0.031 0.089
0.017 -0.033 0.087
0.021 -0.025 0.065
0.009 -0.021 0.091
0.005 -0.001 0.037
0.009 -0.017 0.091
0.013 -0.005 0.049
0.019 -0.009 0.065
0.029 -0.029 0.069
0.025 -0.033 0.087
0.005 -0.011 0.089
0.005 -0.009 0.087
0.025 -0.005 0.059
0.029 -0.011 0.059
0.025 -0.007 0.063
0.041 -0.025 0.045
0.041 -0.027 0.049
0.035 -0.021 0.055
0.035 -0.043 0.087
0.007 -0.033 0.087
0.005 -0.029 0.089
0.021 -0.023 0.079
0.013 -0.031 0.089
0.017 -0.023 0.087
0.033 -0.029 0.065
-0.015 0.001 0.077
-0.003 -0.007 0.089
-0.017 -0.001 0.109
-0.019 0.007 0.101
-0.019 0.001 0.109
-0.023 0.013 0.107
-0.023 0.005 0.109
-0.023 0.005 0.115
-0.015 0.025 0.055
-0.009 0.019 0.051
-0.005 0.015 0.047
-0.001 0.019 0.041
-0.013 0.037 0.043
-0.007 0.039 0.037
-0.019 0.027 0.089
-0.025 0.015 0.105
-0.015 0.017 0.105
-0.009 0.003 0.103
-0.035 0.031 0.103
-0.031 0.035 0.103
-0.029 0.045 0.089
-0.033 0.017 0.105
-0.041 0.029 0.099
-0.023 0.005 0.115
-0.013 0.011 0.109
-0.013 0.013 0.107
0.011 0.001 0.039
0.005 0.011 0.039
-0.001 -0.003 0.051
-0.001 -0.011 0.045
-0.003 0.005 0.065
-0.013 0.003 0.073
-0.013 0.001 0.075
-0.013 -0.001 0.077
-0.013 0.011 0.085
-0.013 0.013 0.093
-0.001 -0.001 0.081
-0.005 -0.009 0.091
-0.021 0.023 0.103
0.015 0.007 0.037
0.013 -0.003 0.045
0.015 -0.003 0.043
0.029 -0.003 0.051
0.019 0.001 0.035
0.029 -0.011 0.043
0.023 -0.005 0.061
0.029 -0.025 0.061
0.031 -0.023 0.059
0.005 -0.009 0.049
0.015 -0.005 0.051
0.021 -0.007 0.059
0.037 -0.015 0.037
0.041 -0.021 0.047
0.039 -0.021 0.051
0.031 -0.033 0.069
0.023 -0.031 0.073
0.035 -0.039 0.087
0.003 -0.019 0.067
0.013 -0.015 0.079
0.003 -0.005 0.069
0.025 -0.009 0.065
0.009 -0.011 0.081
0.005 -0.007 0.083
-0.019 0.037 0.039
-0.015 0.041 0.035
-0.021 0.035 0.047
-0.025 0.035 0.059
-0.007 0.041 0.043
-0.003 0.025 0.039
-0.001 0.015 0.043
-0.021 0.033 0.059
-0.023 0.033 0.059
-0.001 0.005 0.055
-0.011 0.015 0.055
-0.011 0.007 0.063
-0.005 0.035 0.035
-0.033 0.029 0.071
-0.023 0.037 0.099
-0.029 0.041 0.099
-0.021 0.025 0.073
-0.019 0.021 0.077
-0.001 0.003 0.067
-0.019 0.021 0.075
-0.023 0.025 0.075
-0.015 0.017 0.085
-0.017 0.021 0.087
-0.019 0.025 0.091
-0.019 0.021 0.093
-0.037 0.047 0.085
-0.033 0.049 0.087
-0.023 0.033 0.095
-0.027 0.013 0.107
-0.021 0.009 0.109
-0.017 0.021 0.099
-0.025 0.027 0.105
-0.015 0.017 0.099
-0.023 0.035 0.097
0.003 0.019 0.031
0.001 0.013 0.045
-0.003 -0.003 0.047
-0.001 -0.011 0.063
0.005 -0.011 0.075
0.003 -0.003 0.071
0.001 -0.001 0.073
-0.009 0.003 0.095
-0.011 -0.003 0.085
-0.009 0.005 0.099
0.031 -0.027 0.065
0.037 -0.029 0.059
0.031 -0.011 0.037
0.035 -0.015 0.035
0.031 -0.017 0.049
0.019 -0.001 0.037
0.013 -0.003 0.045
0.027 -0.009 0.037
0.027 -0.011 0.041
0.017 -0.005 0.051
0.027 -0.003 0.053
0.031 -0.031 0.067
0.031 -0.037 0.079
0.029 -0.035 0.077
0.029 -0.035 0.083
0.031 -0.035 0.085
0.035 -0.043 0.075
0.017 -0.017 0.071
0.019 -0.013 0.073
0.025 -0.029 0.065
0.023 -0.009 0.065
0.011 -0.023 0.091
0.011 -0.021 0.091
0.005 -0.007 0.081
0.001 0.019 0.037
0.001 0.021 0.037
-0.007 0.035 0.033
-0.011 0.023 0.053
-0.007 0.039 0.043
-0.019 0.035 0.047
-0.017 0.025 0.057
-0.027 0.033 0.065
0.001 0.021 0.037
-0.003 0.013 0.049
-0.003 0.013 0.047
-0.003 0.033 0.035
-0.005 0.031 0.045
-0.015 0.019 0.055
-0.009 0.009 0.059
-0.007 0.009 0.059
-0.019 0.029 0.061
-0.013 0.031 0.051
-0.009 0.041 0.037
-0.029 0.039 0.047
-0.021 0.033 0.059
-0.017 0.017 0.075
-0.027 0.033 0.067
-0.013 0.013 0.087
-0.011 0.007 0.089
-0.015 0.017 0.087
-0.021 0.031 0.083
-0.019 0.029 0.085
-0.023 0.031 0.089
-0.015 0.019 0.087
-0.025 0.041 0.083
-0.029 0.041 0.089
-0.029 0.041 0.097
-0.037 0.049 0.093
-0.029 0.045 0.089
-0.011 0.009 0.101
-0.023 0.033 0.099
-0.029 0.043 0.101
0.003 0.009 0.041
-0.009 0.011 0.057
-0.025 0.035 0.061
-0.021 0.025 0.073
-0.007 0.007 0.061
-0.005 0.009 0.057
-0.003 0.005 0.067
-0.017 0.021 0.095
-0.011 0.007 0.085
-0.015 0.017 0.097
-0.015 -0.005 0.111
0.017 -0.003 0.045
0.003 0.013 0.043
0.011 0.003 0.039
0.009 -0.011 0.053
0.013 -0.003 0.043
0.015 -0.003 0.047
0.021 -0.005 0.055
0.017 -0.007 0.053
0.015 -0.003 0.037
0.025 -0.003 0.041
-0.003 0.003 0.069
0.009 -0.013 0.059
-0.003 0.003 0.073
0.011 -0.013 0.055
-0.001 0.005 0.061
0.027 -0.003 0.051
0.031 -0.005 0.055
0.027 -0.033 0.085
0.031 -0.035 0.085
0.017 -0.011 0.071
0.001 -0.013 0.091
0.013 -0.015 0.087
0.007 -0.023 0.095
-0.021 0.035 0.049
-0.019 0.037 0.039
-0.039 0.031 0.061
-0.041 0.027 0.053
-0.049 0.023 0.039
-0.047 0.025 0.039
-0.041 0.031 0.053
-0.031 0.037 0.059
-0.009 0.021 0.051
-0.029 0.035 0.037
-0.031 0.031 0.069
-0.033 0.037 0.043
-0.033 0.035 0.063
-0.009 0.043 0.043
-0.037 0.049 0.091
-0.037 0.049 0.091
-0.037 0.049 0.093
-0.037 0.027 0.069
-0.037 0.025 0.069
-0.039 0.047 0.093
-0.037 0.033 0.095
-0.037 0.049 0.093
-0.033 0.023 0.089
-0.039 0.039 0.099
-0.025 0.037 0.087
-0.021 0.031 0.087
-0.021 0.025 0.073
-0.021 0.027 0.091
-0.037 0.023 0.103
-0.033 0.003 0.109
-0.023 0.015 0.105
-0.029 0.011 0.105
-0.029 0.013 0.105
-0.023 0.031 0.099
-0.029 -0.001 0.043
-0.003 -0.013 0.043
-0.025 -0.005 0.047
-0.001 -0.027 0.061
-0.003 -0.023 0.059
-0.017 -0.013 0.069
-0.005 -0.025 0.083
-0.033 0.001 0.089
-0.031 -0.001 0.089
-0.017 -0.007 0.113
-0.003 -0.017 0.037
-0.001 -0.027 0.057
0.003 -0.027 0.037
-0.017 -0.011 0.053
-0.005 -0.017 0.043
-0.005 -0.019 0.051
-0.003 -0.013 0.039
-0.025 -0.005 0.053
-0.025 -0.005 0.051
-0.003 -0.025 0.053
-0.015 -0.013 0.059
-0.017 -0.011 0.065
-0.023 0.001 0.055
-0.005 -0.019 0.051
-0.001 -0.017 0.059
0.001 -0.021 0.063
-0.001 -0.019 0.061
0.003 -0.025 0.071
-0.007 -0.023 0.081
-0.017 -0.007 0.075
0.003 -0.031 0.087
-0.011 -0.011 0.085
-0.051 0.017 0.037
-0.017 0.033 0.031
-0.033 0.031 0.033
-0.043 0.015 0.051
-0.043 0.019 0.051
-0.037 0.007 0.047
-0.037 0.033 0.039
-0.041 0.031 0.049
-0.041 0.029 0.051
-0.041 0.011 0.051
-0.033 0.013 0.063
-0.039 0.017 0.057
-0.029 0.011 0.061
-0.017 0.009 0.059
-0.039 0.031 0.059
-0.039 0.025 0.065
-0.033 0.033 0.065
-0.017 0.039 0.033
-0.035 0.037 0.045
-0.031 0.037 0.059
-0.033 0.013 0.065
-0.037 0.023 0.087
-0.041 0.031 0.083
-0.037 0.027 0.087
-0.039 0.029 0.085
-0.033 0.013 0.069
-0.029 0.005 0.075
-0.037 0.023 0.081
-0.033 0.003 0.087
-0.033 0.003 0.093
-0.033 0.009 0.083
-0.035 0.013 0.089
-0.037 0.023 0.087
-0.037 0.019 0.091
-0.043 0.037 0.085
-0.043 0.043 0.085
-0.039 0.041 0.091
-0.037 0.043 0.093
-0.043 0.037 0.097
-0.033 0.001 0.101
-0.035 0.003 0.107
-0.035 0.009 0.103
-0.045 0.037 0.099
-0.039 0.037 0.105
-0.039 0.041 0.105
-0.041 0.011 0.049
-0.001 -0.035 0.037
-0.027 -0.007 0.039
-0.003 -0.035 0.039
-0.005 -0.029 0.045
-0.003 -0.027 0.049
-0.003 -0.027 0.053
-0.001 -0.029 0.055
0.001 -0.031 0.061
-0.017 -0.011 0.055
0.003 -0.031 0.055
-0.013 -0.015 0.061
-0.009 -0.017 0.069
0.003 -0.033 0.073
0.001 -0.027 0.089
-0.029 -0.007 0.087
-0.027 -0.009 0.095
-0.011 -0.019 0.081
-0.009 -0.019 0.087
-0.003 -0.027 0.079
0.023 -0.035 0.031
0.025 -0.035 0.031
0.033 -0.021 0.031
0.009 -0.035 0.035
0.027 -0.033 0.039
0.027 -0.037 0.063
0.035 -0.035 0.059
0.027 -0.025 0.047
0.013 -0.031 0.043
0.015 -0.027 0.045
0.023 -0.023 0.047
0.025 -0.023 0.047
0.029 -0.031 0.047
0.003 -0.031 0.055
0.017 -0.027 0.055
0.033 -0.033 0.051
0.035 -0.023 0.033
0.033 -0.033 0.045
0.041 -0.027 0.045
0.007 -0.035 0.077
0.031 -0.043 0.075
0.029 -0.043 0.081
0.029 -0.037 0.069
0.023 -0.039 0.071
0.009 -0.035 0.065
0.013 -0.035 0.077
0.015 -0.033 0.087
-0.025 -0.005 0.033
0.003 -0.035 0.037
-0.031 -0.003 0.033
-0.033 0.003 0.043
-0.025 -0.005 0.041
0.009 -0.031 0.047
-0.009 -0.029 0.037
0.003 -0.035 0.039
-0.023 -0.005 0.053
-0.019 -0.009 0.055
-0.017 -0.011 0.053
-0.007 -0.015 0.063
-0.007 -0.013 0.057
-0.017 -0.009 0.047
-0.003 -0.025 0.057
-0.029 0.009 0.065
-0.027 0.005 0.071
-0.029 -0.007 0.093
-0.029 -0.003 0.091
-0.025 0.001 0.081
-0.029 0.003 0.083
-0.031 -0.003 0.091
-0.011 -0.017 0.071
-0.019 -0.009 0.065
-0.029 0.003 0.079
-0.001 -0.027 0.089
-0.019 -0.001 0.083
-0.017 -0.001 0.087
-0.029 -0.007 0.093
-0.017 0.005 0.099
-0.015 0.005 0.101
-0.029 -0.007 0.097
0.011 -0.033 0.041
