0.005 -0.005 0.077
-0.001 0.003 0.069
0.029 -0.023 0.053
0.019 -0.005 0.051
0.039 -0.017 0.045
0.041 -0.023 0.045
0.023 -0.031 0.067
0.031 -0.037 0.079
0.027 -0.033 0.081
0.007 -0.009 0.083
0.009 -0.015 0.075
0.001 -0.001 0.069
-0.001 0.023 0.037
-0.023 0.027 0.073
-0.023 0.035 0.085
-0.015 0.021 0.055
-0.017 0.031 0.057
-0.027 0.037 0.039
-0.027 0.037 0.043
-0.025 0.027 0.105
-0.027 0.023 0.105
-0.029 0.027 0.105
-0.017 0.015 0.071
-0.021 0.029 0.097
-0.021 0.031 0.083
-0.039 0.047 0.093
-0.023 0.017 0.105
-0.023 0.013 0.107
-0.015 0.015 0.101
-0.025 0.029 0.103
-0.039 0.041 0.105
0.007 0.003 0.037
-0.007 -0.033 0.039
-0.011 -0.005 0.041
-0.011 -0.007 0.045
0.011 -0.033 0.039
0.015 -0.035 0.035
0.003 -0.035 0.041
0.025 -0.031 0.059
0.009 -0.035 0.067
0.027 -0.029 0.043
0.019 -0.035 0.077
0.003 -0.033 0.073
0.015 -0.033 0.085
-0.045 0.015 0.039
-0.015 -0.011 0.051
-0.027 0.001 0.049
-0.025 -0.005 0.053
-0.019 -0.001 0.065
-0.033 0.015 0.059
-0.035 0.015 0.065
-0.031 0.003 0.083
-0.031 -0.003 0.093
-0.035 0.015 0.089
-0.043 0.031 0.099
-0.023 -0.001 0.107
-0.037 0.035 0.107
0.005 -0.033 0.049
0.009 -0.033 0.059
-0.019 -0.001 0.097
0.019 -0.035 0.031
0.037 -0.033 0.057
0.037 -0.033 0.059
0.033 -0.027 0.035
0.037 -0.021 0.035
0.017 -0.035 0.069
0.033 -0.043 0.083
-0.005 -0.029 0.043
0.007 -0.033 0.043
0.007 -0.033 0.047
0.023 -0.033 0.039
0.037 -0.033 0.051
0.017 -0.027 0.043
0.031 -0.037 0.063
0.007 -0.035 0.079
0.037 -0.043 0.079
0.017 -0.033 0.085
0.035 -0.043 0.085
0.031 -0.037 0.089
-0.013 0.013 0.101
-0.017 -0.009 0.075
-0.003 -0.033 0.041
-0.019 -0.009 0.067
0.003 -0.027 0.091
0.007 -0.019 0.093
0.003 -0.019 0.095
-0.009 -0.011 0.091
0.029 -0.009 0.061
0.021 -0.025 0.079
0.021 -0.029 0.079
0.007 -0.031 0.089
-0.015 0.007 0.103
-0.025 0.017 0.105
-0.025 0.011 0.111
-0.023 -0.001 0.057
-0.007 0.019 0.049
-0.029 0.019 0.105
-0.017 0.001 0.081
0.001 0.001 0.071
-0.011 0.001 0.103
-0.011 0.009 0.101
-0.017 0.017 0.105
-0.027 0.037 0.101
-0.031 0.003 0.107
-0.031 0.005 0.107
-0.025 0.009 0.113
0.001 0.011 0.047
0.003 -0.013 0.057
-0.001 0.007 0.053
-0.015 0.003 0.069
-0.005 -0.009 0.089
-0.013 -0.011 0.113
0.027 -0.003 0.051
0.009 0.003 0.039
0.005 -0.015 0.063
0.029 -0.029 0.067
0.025 -0.033 0.075
0.021 -0.023 0.069
0.023 -0.009 0.065
0.003 -0.005 0.083
-0.013 0.041 0.043
-0.029 0.037 0.041
0.001 0.013 0.045
-0.015 0.021 0.055
-0.017 0.023 0.061
-0.039 0.033 0.055
-0.019 0.037 0.041
-0.017 0.023 0.087
-0.015 0.015 0.099
-0.001 0.005 0.059
-0.001 0.001 0.053
-0.001 0.003 0.059
0.011 -0.013 0.079
0.003 -0.007 0.071
-0.005 0.003 0.075
0.037 -0.015 0.039
0.021 -0.003 0.039
0.027 -0.003 0.033
0.017 -0.023 0.051
0.021 -0.009 0.065
0.029 -0.035 0.077
0.033 -0.037 0.081
0.037 -0.041 0.087
0.021 -0.011 0.071
0.011 -0.019 0.091
0.003 0.009 0.041
-0.005 0.015 0.047
-0.013 0.023 0.033
0.001 0.021 0.035
-0.003 0.033 0.035
-0.007 0.039 0.041
-0.023 0.027 0.073
-0.021 0.033 0.097
-0.011 0.009 0.091
-0.027 0.045 0.083
-0.027 0.047 0.085
-0.031 0.039 0.089
-0.027 0.039 0.089
-0.031 0.043 0.091
-0.023 0.029 0.103
-0.011 0.017 0.053
-0.007 0.003 0.075
0.033 -0.023 0.059
0.019 -0.007 0.053
0.021 -0.005 0.047
-0.005 0.001 0.077
0.015 -0.017 0.059
0.035 -0.013 0.039
0.017 -0.017 0.079
0.027 -0.029 0.067
-0.017 0.039 0.035
-0.039 0.033 0.047
-0.009 0.027 0.051
-0.021 0.037 0.045
-0.015 0.037 0.043
-0.035 0.047 0.089
-0.029 0.041 0.089
-0.011 0.011 0.093
-0.029 0.033 0.089
-0.021 0.027 0.099
-0.033 0.033 0.065
-0.043 0.045 0.085
-0.037 0.019 0.103
-0.019 0.027 0.097
0.037 -0.031 0.061
0.009 -0.011 0.085
-0.007 -0.007 0.089
0.031 -0.031 0.035
0.037 -0.017 0.049
0.023 -0.005 0.037
0.035 -0.023 0.059
0.033 -0.025 0.061
0.031 -0.007 0.057
0.031 -0.007 0.049
0.029 -0.011 0.059
0.039 -0.023 0.037
0.031 -0.035 0.069
0.017 -0.017 0.067
0.017 -0.017 0.079
-0.003 0.031 0.035
-0.007 0.019 0.049
-0.007 0.011 0.055
-0.011 0.025 0.053
-0.021 0.011 0.061
0.001 0.013 0.045
-0.007 0.029 0.045
0.001 0.001 0.065
-0.003 0.033 0.035
-0.009 0.043 0.043
-0.017 0.021 0.095
-0.019 0.023 0.099
-0.027 0.037 0.089
-0.021 0.031 0.097
-0.013 0.007 0.103
-0.023 0.037 0.099
-0.025 0.039 0.099
0.017 0.001 0.037
0.001 0.019 0.037
0.005 -0.033 0.045
0.039 -0.029 0.045
0.037 -0.043 0.079
0.021 -0.023 0.069
0.013 -0.027 0.091
-0.013 -0.011 0.113
0.035 -0.031 0.045
0.041 -0.023 0.049
0.039 -0.019 0.049
0.037 -0.025 0.035
0.029 -0.005 0.047
0.033 -0.029 0.065
0.037 -0.027 0.059
0.037 -0.031 0.061
0.013 -0.037 0.073
0.029 -0.037 0.073
0.035 -0.041 0.075
0.021 -0.025 0.073
0.021 -0.013 0.067
0.011 -0.019 0.091
0.037 -0.015 0.045
0.029 -0.011 0.051
-0.019 0.017 0.063
0.039 -0.017 0.041
0.003 0.015 0.037
-0.019 0.027 0.063
-0.019 0.027 0.061
-0.011 0.029 0.053
-0.017 0.027 0.059
-0.013 0.013 0.087
-0.021 0.015 0.065
-0.017 0.021 0.069
0.017 -0.019 0.083
-0.009 0.001 0.093
-0.017 0.021 0.089
-0.017 0.019 0.095
-0.015 0.017 0.087
-0.019 -0.001 0.105
-0.021 0.021 0.105
0.025 -0.003 0.039
0.005 0.015 0.033
-0.009 -0.025 0.043
-0.017 -0.013 0.065
-0.009 -0.021 0.079
-0.003 -0.021 0.091
-0.031 -0.003 0.089
-0.001 -0.033 0.041
-0.007 -0.025 0.045
-0.003 -0.011 0.045
-0.003 -0.013 0.049
0.003 -0.019 0.065
0.001 -0.031 0.061
0.003 -0.019 0.065
-0.013 -0.017 0.079
-0.015 -0.011 0.079
-0.037 0.007 0.049
-0.041 0.029 0.055
-0.037 0.019 0.065
-0.037 0.021 0.085
-0.031 0.007 0.079
-0.017 0.001 0.073
-0.037 0.017 0.081
-0.037 0.039 0.089
-0.033 0.025 0.105
-0.031 -0.001 0.101
-0.033 0.027 0.105
-0.039 0.033 0.103
-0.003 -0.015 0.051
-0.019 -0.009 0.063
-0.019 -0.007 0.065
-0.019 -0.001 0.067
-0.031 -0.001 0.095
-0.003 -0.025 0.057
-0.029 -0.001 0.043
-0.027 0.001 0.049
-0.025 0.001 0.053
-0.017 -0.013 0.067
-0.017 -0.007 0.075
-0.001 -0.027 0.089
-0.001 -0.025 0.091
-0.041 0.017 0.045
-0.027 0.001 0.047
-0.041 0.025 0.045
-0.029 0.005 0.075
-0.043 0.041 0.087
-0.039 0.043 0.091
-0.005 -0.033 0.039
-0.003 -0.027 0.047
-0.025 -0.005 0.035
-0.001 -0.029 0.059
-0.017 -0.011 0.061
0.011 -0.035 0.033
0.015 -0.035 0.035
0.025 -0.037 0.063
0.025 -0.031 0.041
0.007 -0.035 0.065
0.025 -0.035 0.061
0.001 -0.029 0.065
0.015 -0.029 0.057
0.029 -0.033 0.039
0.021 -0.035 0.065
0.019 -0.035 0.069
-0.003 -0.027 0.079
0.003 -0.031 0.085
-0.031 -0.003 0.037
-0.007 0.005 0.033
-0.041 0.011 0.047
-0.041 0.015 0.045
-0.029 0.005 0.049
-0.021 -0.007 0.049
-0.037 0.017 0.067
-0.031 0.009 0.069
-0.027 -0.007 0.087
-0.043 0.031 0.099
-0.037 0.015 0.101
-0.003 -0.015 0.067
0.001 -0.031 0.049
-0.013 -0.017 0.075
-0.009 -0.021 0.085
0.015 -0.035 0.033
0.017 -0.035 0.033
0.017 -0.023 0.047
0.019 -0.031 0.061
0.021 -0.035 0.065
0.023 -0.041 0.079
0.023 -0.037 0.065
0.023 -0.039 0.069
0.011 -0.037 0.075
-0.049 0.015 0.037
-0.041 0.011 0.039
-0.037 0.013 0.055
-0.037 0.017 0.057
-0.005 -0.037 0.037
0.005 -0.033 0.037
-0.031 -0.001 0.085
-0.029 -0.007 0.089
-0.025 -0.003 0.087
-0.009 -0.019 0.071
-0.027 0.001 0.083
-0.017 -0.001 0.087
-0.015 0.005 0.093
-0.019 -0.001 0.085
-0.013 -0.015 0.083
-0.025 0.003 0.101
0.025 -0.033 0.037
-0.025 -0.003 0.047
-0.005 -0.011 0.093
-0.003 -0.031 0.041
0.009 -0.031 0.049
0.025 -0.025 0.045
0.001 -0.031 0.055
0.013 -0.037 0.073
0.011 -0.037 0.075
0.019 -0.035 0.075
0.023 -0.039 0.071
0.017 -0.035 0.077
0.011 -0.033 0.087
-0.045 0.017 0.039
-0.043 0.015 0.041
-0.035 0.015 0.065
-0.031 0.013 0.055
-0.027 0.013 0.055
-0.035 0.011 0.085
-0.037 0.019 0.069
-0.033 0.013 0.071
-0.033 0.011 0.073
-0.037 0.017 0.087
-0.031 -0.003 0.091
-0.043 0.031 0.099
-0.035 0.015 0.105
-0.025 0.021 0.105
-0.035 0.037 0.107
-0.035 0.031 0.103
-0.017 -0.011 0.061
-0.039 0.023 0.063
-0.013 -0.017 0.075
-0.013 -0.015 0.079
-0.033 0.011 0.071
-0.039 0.021 0.061
-0.035 0.007 0.093
-0.035 0.007 0.097
-0.037 0.019 0.087
-0.037 0.015 0.095
-0.043 0.027 0.039
-0.039 0.031 0.039
-0.049 0.021 0.039
-0.039 0.033 0.043
-0.035 0.037 0.049
-0.013 0.033 0.047
-0.041 0.027 0.059
-0.027 0.037 0.059
-0.031 0.037 0.039
-0.033 0.007 0.089
-0.041 0.031 0.093
-0.035 0.023 0.071
-0.035 0.023 0.073
-0.037 0.021 0.081
-0.033 0.029 0.071
-0.033 0.043 0.101
-0.037 0.037 0.049
0.003 -0.031 0.053
0.035 -0.029 0.063
0.027 -0.041 0.083
0.027 -0.039 0.087
0.031 -0.029 0.067
0.033 -0.035 0.061
0.031 -0.009 0.057
0.041 -0.023 0.049
0.031 -0.043 0.075
0.035 -0.043 0.085
0.031 -0.039 0.087
0.037 -0.041 0.087
-0.001 -0.027 0.089
-0.019 -0.001 0.087
-0.003 -0.027 0.087
0.019 -0.023 0.083
0.017 -0.025 0.085
0.001 0.001 0.071
-0.003 -0.021 0.091
-0.009 0.001 0.087
-0.023 0.015 0.105
-0.007 -0.007 0.089
-0.021 -0.001 0.087
-0.019 0.001 0.099
-0.009 -0.001 0.095
-0.009 0.003 0.103
-0.015 0.017 0.099
-0.013 0.013 0.107
-0.027 0.035 0.101
-0.015 0.017 0.105
-0.019 0.027 0.095
-0.031 0.003 0.107
-0.031 0.007 0.105
-0.031 0.039 0.105
-0.013 0.015 0.095
-0.015 0.017 0.105
-0.029 0.033 0.101
-0.001 -0.007 0.089
-0.007 0.001 0.077
0.011 -0.003 0.039
0.009 -0.005 0.043
0.013 -0.005 0.049
0.017 -0.013 0.071
-0.003 0.001 0.075
0.017 -0.017 0.075
0.005 -0.023 0.095
0.013 -0.019 0.089
-0.033 0.037 0.047
-0.049 0.017 0.039
-0.041 0.029 0.057
-0.009 0.019 0.051
-0.005 0.019 0.047
-0.011 0.021 0.053
-0.041 0.039 0.105
-0.023 0.029 0.099
-0.021 0.021 0.105
-0.041 0.041 0.089
-0.037 0.035 0.107
-0.027 0.009 0.111
-0.033 0.037 0.107
-0.035 0.023 0.073
-0.031 0.029 0.071
-0.023 0.029 0.071
-0.035 0.041 0.083
-0.043 0.043 0.087
-0.043 0.031 0.099
-0.031 0.037 0.059
-0.019 0.035 0.047
0.015 -0.003 0.047
-0.015 0.039 0.043
-0.011 0.031 0.047
-0.005 0.007 0.063
0.013 -0.017 0.067
0.015 -0.017 0.077
0.013 -0.017 0.071
0.005 -0.005 0.077
0.003 -0.007 0.087
-0.049 0.023 0.039
-0.035 0.035 0.061
-0.031 0.035 0.063
-0.033 0.037 0.057
-0.037 0.025 0.069
-0.035 0.031 0.067
-0.033 0.049 0.085
-0.029 0.039 0.095
-0.033 0.049 0.085
-0.043 0.043 0.087
-0.035 0.047 0.085
-0.033 0.049 0.085
-0.043 0.039 0.099
-0.041 0.039 0.099
-0.017 0.015 0.107
-0.025 0.039 0.099
-0.029 0.041 0.099
