-0.031 -0.003 0.033
-0.005 -0.037 0.037
-0.009 -0.031 0.039
-0.009 -0.031 0.039
-0.009 -0.031 0.041
-0.005 -0.029 0.043
-0.007 -0.029 0.045
-0.007 -0.027 0.045
-0.031 -0.001 0.039
-0.023 -0.007 0.047
-0.011 -0.005 0.041
-0.005 -0.019 0.049
-0.001 -0.029 0.057
-0.021 -0.007 0.049
-0.017 -0.011 0.059
-0.017 -0.011 0.059
-0.021 -0.003 0.059
-0.021 -0.007 0.061
-0.003 -0.017 0.055
-0.007 -0.017 0.067
-0.011 -0.019 0.077
-0.017 -0.003 0.071
-0.011 -0.017 0.067
-0.013 -0.017 0.073
-0.003 -0.027 0.081
-0.009 -0.021 0.081
-0.007 -0.023 0.083
-0.003 -0.025 0.089
-0.031 -0.001 0.085
-0.029 -0.007 0.097
-0.011 -0.015 0.085
-0.011 -0.015 0.085
-0.007 -0.015 0.089
-0.029 -0.005 0.101
-0.007 -0.033 0.041
0.003 -0.035 0.041
0.017 -0.035 0.037
0.019 -0.033 0.039
0.011 -0.035 0.063
0.027 -0.035 0.057
0.033 -0.035 0.053
-0.001 -0.033 0.041
0.001 -0.035 0.039
0.005 -0.033 0.045
0.007 -0.033 0.047
0.011 -0.035 0.037
0.023 -0.035 0.035
0.003 -0.035 0.041
0.021 -0.033 0.039
0.005 -0.033 0.047
0.023 -0.023 0.047
-0.009 -0.025 0.043
-0.009 -0.025 0.043
-0.007 -0.027 0.045
-0.007 -0.029 0.045
-0.005 -0.027 0.045
-0.005 -0.023 0.051
0.003 -0.031 0.053
0.025 -0.021 0.047
0.001 -0.031 0.055
0.007 -0.031 0.055
0.027 -0.027 0.053
0.027 -0.025 0.049
-0.003 -0.027 0.055
0.003 -0.033 0.067
0.005 -0.033 0.067
0.003 -0.033 0.069
0.027 -0.033 0.039
0.021 -0.033 0.039
0.025 -0.031 0.043
0.027 -0.025 0.051
0.027 -0.037 0.061
0.013 -0.035 0.065
0.007 -0.035 0.079
0.013 -0.037 0.073
0.025 -0.041 0.079
0.023 -0.041 0.079
0.017 -0.035 0.081
0.025 -0.041 0.081
0.029 -0.041 0.085
0.027 -0.039 0.087
0.001 -0.029 0.065
0.001 -0.027 0.067
0.001 -0.031 0.077
-0.001 -0.027 0.077
0.003 -0.031 0.083
0.005 -0.035 0.073
0.005 -0.033 0.079
0.009 -0.035 0.081
-0.011 -0.017 0.071
-0.009 -0.021 0.081
0.007 -0.029 0.091
0.005 -0.027 0.091
-0.001 -0.027 0.089
0.009 -0.027 0.093
0.017 -0.033 0.083
0.013 -0.031 0.089
-0.003 -0.021 0.091
-0.021 -0.007 0.041
-0.021 -0.007 0.041
-0.031 -0.001 0.041
-0.033 -0.001 0.033
-0.041 0.011 0.039
-0.045 0.015 0.039
-0.043 0.017 0.049
-0.033 0.015 0.059
-0.041 0.025 0.051
-0.039 0.023 0.059
-0.037 0.005 0.037
-0.031 0.005 0.045
-0.029 0.005 0.045
-0.019 -0.007 0.043
-0.013 -0.005 0.039
-0.023 -0.007 0.043
-0.013 -0.009 0.049
-0.023 -0.007 0.043
-0.023 -0.007 0.047
-0.025 0.013 0.057
-0.015 -0.013 0.059
-0.019 -0.009 0.059
-0.019 -0.009 0.063
-0.019 -0.003 0.067
-0.021 -0.005 0.061
-0.025 0.011 0.061
-0.029 0.009 0.065
-0.021 0.009 0.057
-0.021 0.007 0.057
-0.029 0.009 0.065
-0.041 0.021 0.041
-0.041 0.011 0.045
-0.039 0.009 0.051
-0.033 0.007 0.049
-0.027 0.009 0.053
-0.039 0.017 0.057
-0.033 0.015 0.057
-0.035 0.007 0.095
-0.037 0.019 0.085
-0.039 0.023 0.083
-0.017 0.003 0.067
-0.023 0.005 0.071
-0.031 0.011 0.067
-0.027 0.003 0.075
-0.029 0.003 0.079
-0.017 -0.013 0.071
-0.027 0.007 0.069
-0.035 0.021 0.071
-0.031 0.011 0.081
-0.031 0.003 0.083
-0.033 0.017 0.075
-0.027 -0.009 0.095
-0.027 -0.009 0.101
-0.019 -0.001 0.097
-0.033 0.009 0.087
-0.033 0.003 0.087
-0.037 0.017 0.087
-0.033 0.003 0.091
-0.035 0.011 0.091
-0.031 -0.001 0.095
-0.033 0.003 0.099
-0.041 0.035 0.081
-0.041 0.037 0.087
-0.041 0.035 0.089
-0.041 0.029 0.093
-0.037 0.019 0.091
-0.039 0.023 0.091
-0.039 0.021 0.101
-0.041 0.029 0.099
-0.037 0.023 0.099
-0.033 0.029 0.103
-0.031 0.001 0.103
-0.035 0.005 0.105
-0.021 -0.005 0.109
-0.023 0.001 0.109
-0.027 0.007 0.111
-0.023 -0.001 0.107
-0.035 0.003 0.107
-0.025 0.003 0.107
-0.037 0.021 0.103
-0.039 0.023 0.103
-0.005 -0.023 0.049
-0.019 -0.007 0.049
0.003 -0.009 0.043
0.005 -0.005 0.043
0.005 -0.005 0.043
-0.001 -0.011 0.049
0.001 -0.011 0.051
-0.001 0.007 0.049
0.001 -0.019 0.063
-0.017 0.015 0.055
-0.017 0.007 0.061
-0.003 0.007 0.057
-0.001 0.001 0.051
-0.001 0.005 0.061
-0.001 0.003 0.067
-0.013 0.003 0.073
-0.009 0.001 0.077
-0.013 0.013 0.089
-0.019 0.021 0.093
-0.015 0.017 0.095
-0.011 -0.003 0.083
-0.005 -0.005 0.087
-0.001 -0.005 0.085
0.015 0.007 0.037
0.011 -0.017 0.067
0.033 -0.023 0.057
0.007 -0.005 0.043
0.009 -0.011 0.051
0.019 -0.005 0.051
0.025 -0.003 0.047
0.031 -0.013 0.043
0.023 -0.005 0.037
0.033 -0.015 0.047
0.029 -0.003 0.049
0.029 -0.003 0.053
0.005 -0.001 0.037
0.011 0.005 0.037
0.003 -0.001 0.035
0.017 0.001 0.037
0.011 -0.005 0.047
0.025 -0.003 0.039
0.023 -0.003 0.047
0.029 -0.003 0.049
0.019 -0.003 0.041
0.027 -0.003 0.043
0.027 -0.003 0.043
0.025 -0.003 0.043
0.027 -0.003 0.047
0.007 -0.013 0.055
0.011 -0.013 0.055
0.015 -0.017 0.053
0.013 -0.015 0.055
0.001 -0.017 0.061
0.001 -0.011 0.053
0.001 -0.005 0.063
0.025 -0.003 0.053
0.035 -0.013 0.041
0.035 -0.013 0.039
0.035 -0.015 0.047
0.041 -0.021 0.049
0.035 -0.023 0.057
0.037 -0.023 0.057
0.015 -0.015 0.081
0.021 -0.023 0.069
0.029 -0.029 0.069
0.033 -0.039 0.077
0.025 -0.033 0.079
0.027 -0.033 0.083
0.019 -0.029 0.081
0.033 -0.029 0.065
0.033 -0.039 0.087
0.003 -0.019 0.067
0.005 -0.005 0.077
0.009 -0.017 0.073
0.025 -0.029 0.065
0.019 -0.011 0.071
0.021 -0.027 0.075
0.005 -0.007 0.079
0.019 -0.011 0.069
0.007 -0.011 0.089
0.015 -0.021 0.089
0.007 -0.013 0.091
0.013 -0.017 0.089
0.003 -0.005 0.083
-0.013 0.041 0.043
-0.009 0.043 0.043
-0.005 0.031 0.039
-0.003 0.023 0.033
-0.011 0.041 0.037
-0.007 0.039 0.033
-0.019 0.037 0.043
-0.039 0.033 0.045
-0.023 0.037 0.051
-0.029 0.035 0.037
-0.031 0.037 0.039
-0.031 0.037 0.059
-0.029 0.035 0.063
-0.037 0.033 0.063
-0.023 0.037 0.041
-0.001 0.011 0.049
-0.001 0.005 0.047
-0.003 0.019 0.043
-0.001 0.019 0.041
-0.001 0.019 0.041
-0.007 0.031 0.047
-0.015 0.029 0.057
-0.023 0.033 0.059
-0.023 0.031 0.067
-0.001 0.007 0.049
-0.011 0.015 0.055
-0.011 0.009 0.061
-0.015 0.007 0.063
-0.003 0.007 0.057
-0.001 0.003 0.063
-0.009 0.027 0.049
-0.035 0.035 0.041
-0.029 0.039 0.045
-0.007 0.037 0.039
-0.029 0.037 0.059
-0.031 0.025 0.075
-0.023 0.035 0.099
-0.025 0.041 0.085
-0.029 0.041 0.089
-0.027 0.039 0.095
-0.029 0.041 0.097
-0.029 0.039 0.095
-0.023 0.029 0.069
-0.017 0.017 0.069
-0.019 0.023 0.067
-0.021 0.021 0.079
-0.015 0.017 0.083
-0.015 0.015 0.077
-0.005 0.001 0.079
-0.029 0.025 0.075
-0.019 0.023 0.073
-0.019 0.021 0.077
-0.025 0.027 0.073
-0.017 0.021 0.089
-0.011 0.011 0.091
-0.017 0.021 0.083
-0.019 0.029 0.083
-0.019 0.021 0.093
-0.021 0.027 0.091
-0.021 0.029 0.095
-0.015 0.017 0.083
-0.041 0.043 0.083
-0.037 0.049 0.091
-0.039 0.037 0.095
-0.025 0.041 0.083
-0.027 0.043 0.087
-0.025 0.041 0.085
-0.031 0.033 0.103
-0.019 0.017 0.105
-0.021 0.019 0.105
-0.009 0.005 0.101
-0.013 0.011 0.103
-0.025 0.039 0.101
-0.023 0.029 0.099
-0.023 0.025 0.105
-0.027 0.027 0.105
-0.037 0.041 0.103
-0.033 0.037 0.107
-0.021 0.033 0.097
0.005 0.017 0.033
0.013 0.009 0.035
0.015 0.007 0.037
0.005 0.017 0.035
0.019 0.001 0.033
0.017 0.005 0.035
-0.025 -0.005 0.033
-0.003 -0.035 0.035
-0.003 -0.033 0.041
0.001 -0.033 0.043
0.005 -0.033 0.043
-0.003 -0.027 0.049
0.001 -0.031 0.051
0.003 -0.031 0.053
0.005 -0.033 0.057
-0.025 -0.007 0.039
-0.025 -0.005 0.043
-0.023 -0.007 0.045
0.007 -0.031 0.049
0.003 -0.031 0.055
0.005 -0.033 0.061
0.005 -0.033 0.061
-0.011 -0.017 0.067
0.001 -0.031 0.063
0.013 -0.035 0.063
0.009 -0.035 0.065
-0.007 -0.015 0.061
0.009 -0.035 0.071
-0.005 -0.025 0.081
-0.009 -0.021 0.075
-0.007 -0.017 0.069
0.015 -0.035 0.079
-0.001 -0.029 0.083
0.003 -0.031 0.083
-0.017 -0.001 0.087
-0.025 -0.005 0.093
0.007 -0.029 0.091
-0.005 -0.013 0.093
-0.007 -0.001 0.095
-0.013 -0.011 0.111
0.017 -0.035 0.031
0.021 -0.035 0.033
0.027 -0.035 0.033
0.015 -0.033 0.041
0.017 -0.031 0.041
0.007 -0.035 0.039
0.011 -0.033 0.043
0.025 -0.037 0.065
0.019 -0.035 0.035
0.007 -0.033 0.045
0.017 -0.025 0.045
0.025 -0.031 0.041
0.031 -0.031 0.041
0.023 -0.029 0.043
0.029 -0.031 0.045
0.035 -0.035 0.055
0.017 -0.023 0.049
0.013 -0.033 0.059
0.019 -0.033 0.063
0.039 -0.031 0.051
0.035 -0.035 0.055
0.029 -0.037 0.061
0.035 -0.035 0.059
0.037 -0.033 0.057
0.037 -0.033 0.057
0.037 -0.027 0.059
0.019 -0.031 0.059
0.035 -0.035 0.055
0.025 -0.039 0.069
0.017 -0.035 0.071
0.037 -0.025 0.037
0.035 -0.031 0.043
0.041 -0.025 0.049
0.037 -0.031 0.059
0.011 -0.037 0.069
0.013 -0.037 0.071
0.009 -0.035 0.083
0.017 -0.033 0.085
0.027 -0.041 0.083
0.029 -0.039 0.087
0.005 -0.033 0.081
0.011 -0.035 0.081
0.025 -0.039 0.071
0.029 -0.043 0.077
0.035 -0.043 0.075
0.031 -0.043 0.077
0.017 -0.033 0.085
0.015 -0.033 0.083
0.015 -0.033 0.083
0.019 -0.033 0.085
0.013 -0.031 0.089
0.029 -0.041 0.085
0.005 -0.033 0.083
0.007 -0.033 0.085
0.017 -0.021 0.085
0.009 -0.031 0.089
0.005 -0.023 0.095
0.015 -0.025 0.089
0.025 -0.037 0.085
-0.013 -0.009 0.049
0.025 -0.039 0.071
-0.029 -0.005 0.041
-0.035 0.007 0.047
-0.037 0.011 0.053
-0.037 0.011 0.053
0.017 -0.029 0.057
0.029 -0.043 0.077
0.025 -0.041 0.079
0.027 -0.041 0.079
0.003 -0.033 0.077
0.023 -0.041 0.079
0.011 -0.035 0.081
0.011 -0.033 0.087
0.017 -0.033 0.083
-0.001 -0.025 0.091
0.009 -0.035 0.075
0.015 -0.035 0.073
0.023 -0.041 0.079
0.025 -0.041 0.081
0.029 -0.043 0.081
0.029 -0.041 0.085
0.029 -0.043 0.081
0.013 -0.033 0.085
-0.027 0.003 0.075
-0.025 0.003 0.075
-0.009 -0.013 0.089
-0.025 -0.003 0.089
-0.027 -0.003 0.097
-0.021 -0.001 0.095
-0.027 -0.001 0.099
-0.027 0.005 0.103
-0.029 0.009 0.067
-0.027 0.003 0.075
-0.005 -0.025 0.087
-0.001 -0.027 0.089
-0.021 -0.001 0.081
-0.025 0.001 0.083
0.007 -0.033 0.085
0.013 -0.033 0.085
-0.009 -0.013 0.089
-0.023 -0.001 0.085
-0.023 -0.001 0.085
-0.001 -0.017 0.095
-0.001 -0.019 0.095
-0.009 0.003 0.089
-0.015 0.003 0.091
-0.009 -0.001 0.097
-0.019 0.001 0.099
-0.015 0.005 0.101
-0.009 0.005 0.097
-0.015 0.003 0.097
-0.019 0.009 0.103
-0.009 -0.001 0.097
-0.027 -0.009 0.103
-0.029 0.001 0.103
-0.031 0.001 0.105
-0.031 0.007 0.105
-0.013 -0.011 0.113
-0.023 0.009 0.111
-0.019 -0.007 0.109
-0.019 0.009 0.103
-0.015 -0.013 0.113
-0.011 0.007 0.103
-0.017 0.011 0.107
-0.013 0.013 0.107
-0.023 0.011 0.111
-0.015 0.009 0.105
-0.013 0.013 0.107
-0.019 0.025 0.099
0.029 -0.037 0.065
