-0.007 -0.029 0.045
-0.017 -0.001 0.033
-0.009 -0.023 0.041
-0.023 -0.003 0.055
-0.007 -0.015 0.063
-0.007 -0.019 0.073
-0.007 -0.015 0.065
-0.001 -0.027 0.089
-0.005 -0.013 0.093
-0.031 -0.003 0.099
0.001 -0.033 0.043
0.015 -0.033 0.041
0.025 -0.035 0.035
0.025 -0.033 0.059
0.003 -0.031 0.045
0.005 -0.031 0.051
0.005 -0.033 0.045
0.011 -0.035 0.063
0.009 -0.031 0.053
0.005 -0.033 0.061
0.003 -0.029 0.069
0.031 -0.033 0.051
0.027 -0.039 0.087
0.029 -0.043 0.081
0.001 -0.025 0.073
-0.005 -0.021 0.073
-0.011 -0.017 0.071
0.005 -0.029 0.089
-0.001 -0.019 0.095
-0.039 0.009 0.043
-0.021 -0.007 0.043
-0.025 0.003 0.053
-0.029 0.011 0.053
-0.023 0.011 0.061
-0.019 -0.009 0.059
-0.039 0.013 0.053
-0.027 0.001 0.049
-0.037 0.013 0.093
-0.029 0.009 0.065
-0.017 -0.005 0.075
-0.033 0.011 0.077
-0.011 0.001 0.093
-0.039 0.017 0.093
-0.035 0.011 0.097
-0.029 -0.005 0.101
0.009 -0.025 0.095
-0.011 -0.017 0.085
-0.007 -0.021 0.087
-0.017 -0.009 0.113
0.019 -0.031 0.083
0.009 -0.017 0.091
0.027 -0.007 0.061
0.031 -0.027 0.065
0.017 -0.017 0.069
0.033 -0.043 0.085
0.023 -0.035 0.085
0.031 -0.043 0.083
0.017 -0.021 0.087
-0.013 -0.005 0.085
-0.013 -0.003 0.085
0.001 0.015 0.043
-0.015 -0.011 0.113
-0.027 0.001 0.101
-0.023 0.005 0.109
-0.005 0.019 0.047
-0.005 0.027 0.045
0.001 0.001 0.069
-0.019 0.023 0.101
-0.019 0.029 0.083
-0.019 0.023 0.101
-0.019 0.027 0.097
-0.013 0.013 0.107
-0.025 0.005 0.115
-0.029 0.037 0.101
0.013 0.005 0.039
0.003 0.015 0.041
0.001 -0.011 0.035
-0.011 0.037 0.045
0.001 -0.013 0.055
-0.017 0.005 0.065
-0.015 0.007 0.063
0.003 -0.003 0.077
-0.013 0.005 0.069
-0.003 -0.007 0.089
-0.009 -0.001 0.081
-0.009 0.003 0.087
-0.017 -0.003 0.111
-0.015 -0.005 0.109
0.011 0.005 0.037
0.029 -0.007 0.045
0.021 -0.003 0.045
0.021 -0.005 0.049
0.007 -0.005 0.047
0.019 -0.007 0.053
0.003 -0.015 0.061
0.029 -0.025 0.057
0.025 -0.003 0.055
0.039 -0.025 0.057
0.025 -0.031 0.071
0.003 -0.019 0.065
0.027 -0.029 0.067
0.021 -0.023 0.077
0.019 -0.009 0.065
0.009 -0.015 0.091
0.019 -0.023 0.083
-0.013 0.041 0.035
-0.037 0.035 0.041
-0.005 0.019 0.047
-0.005 0.033 0.033
-0.005 0.025 0.043
-0.031 0.033 0.067
-0.037 0.035 0.097
-0.027 0.039 0.095
-0.029 0.041 0.097
-0.027 0.029 0.073
-0.023 0.033 0.087
-0.035 0.047 0.091
-0.029 0.043 0.103
-0.041 0.039 0.099
-0.001 0.005 0.049
-0.003 0.001 0.043
0.005 -0.011 0.075
0.001 -0.003 0.069
0.001 -0.011 0.069
0.013 -0.015 0.083
-0.011 0.007 0.087
0.041 -0.021 0.043
0.039 -0.027 0.055
0.037 -0.027 0.061
0.021 -0.021 0.047
0.031 -0.011 0.037
0.041 -0.021 0.045
0.029 -0.007 0.045
0.031 -0.027 0.063
0.029 -0.003 0.055
0.035 -0.013 0.041
0.021 -0.025 0.075
0.025 -0.033 0.075
0.035 -0.039 0.087
0.019 -0.021 0.065
0.025 -0.009 0.065
0.013 -0.027 0.091
0.003 0.019 0.033
-0.005 0.019 0.047
0.003 0.015 0.041
-0.003 0.025 0.037
-0.007 0.007 0.063
-0.001 0.005 0.055
-0.009 0.009 0.061
-0.019 0.029 0.061
-0.019 0.033 0.051
-0.015 0.019 0.085
-0.021 0.029 0.087
-0.019 0.027 0.095
-0.023 0.035 0.097
-0.025 0.031 0.067
-0.013 0.013 0.087
-0.015 0.011 0.081
-0.017 0.021 0.083
-0.025 0.043 0.083
-0.027 0.033 0.099
-0.023 0.009 0.113
-0.031 0.039 0.105
-0.031 0.043 0.105
-0.029 0.033 0.065
-0.025 0.031 0.067
-0.015 0.019 0.055
-0.009 0.011 0.057
-0.007 0.005 0.067
-0.025 0.031 0.069
-0.013 0.005 0.069
-0.001 0.001 0.077
-0.033 0.043 0.105
-0.009 0.005 0.099
-0.019 0.005 0.109
-0.009 0.003 0.103
0.019 -0.003 0.047
0.015 -0.003 0.043
0.025 -0.009 0.065
0.019 -0.003 0.041
0.019 -0.001 0.037
0.025 -0.003 0.043
0.015 -0.005 0.051
0.023 -0.003 0.051
0.017 -0.013 0.069
0.021 -0.005 0.053
0.027 -0.003 0.047
0.039 -0.017 0.045
0.011 -0.013 0.083
0.027 -0.029 0.069
0.009 -0.017 0.067
0.019 -0.021 0.081
-0.027 0.037 0.051
-0.031 0.037 0.041
-0.035 0.033 0.063
-0.027 0.037 0.049
-0.007 0.035 0.045
-0.033 0.031 0.067
-0.013 0.009 0.061
-0.013 0.025 0.055
-0.035 0.047 0.085
-0.019 0.029 0.085
-0.019 0.023 0.073
-0.017 0.021 0.089
-0.031 0.031 0.089
-0.033 0.043 0.105
-0.039 0.039 0.099
-0.039 0.049 0.093
-0.025 0.013 0.107
-0.015 0.015 0.103
-0.037 0.041 0.105
0.039 -0.021 0.053
0.013 -0.015 0.051
0.029 -0.009 0.059
0.019 -0.019 0.071
0.017 -0.017 0.065
0.017 -0.019 0.081
-0.025 -0.003 0.093
0.009 -0.017 0.091
0.037 -0.015 0.045
0.031 -0.033 0.069
0.037 -0.029 0.061
0.039 -0.029 0.053
0.027 -0.011 0.043
0.029 -0.005 0.045
0.025 -0.029 0.069
0.039 -0.027 0.057
0.029 -0.011 0.059
0.035 -0.027 0.037
0.029 -0.035 0.071
0.027 -0.031 0.073
0.019 -0.019 0.073
0.021 -0.031 0.075
0.019 -0.021 0.075
0.001 -0.009 0.067
0.003 -0.005 0.071
0.011 -0.019 0.091
-0.011 0.017 0.053
-0.011 0.015 0.055
-0.003 0.005 0.039
-0.007 0.035 0.045
-0.007 0.035 0.043
-0.021 0.035 0.053
-0.011 0.009 0.101
-0.019 0.009 0.069
-0.017 0.011 0.071
-0.023 0.025 0.075
-0.015 0.017 0.085
-0.015 0.019 0.091
-0.021 0.027 0.099
-0.027 0.039 0.095
-0.027 0.001 0.101
-0.019 0.003 0.105
-0.019 0.025 0.097
-0.031 0.035 0.105
0.033 -0.035 0.059
0.033 -0.033 0.065
0.035 -0.041 0.083
0.035 -0.041 0.085
0.031 -0.033 0.045
0.029 -0.033 0.037
0.025 -0.033 0.039
0.039 -0.019 0.045
0.039 -0.029 0.045
0.031 -0.039 0.073
0.037 -0.043 0.081
0.035 -0.043 0.085
0.033 -0.033 0.067
0.031 -0.031 0.067
0.033 -0.029 0.065
0.031 -0.033 0.069
0.033 -0.043 0.083
0.017 0.003 0.035
0.041 -0.027 0.053
0.041 -0.029 0.049
0.005 0.013 0.037
-0.005 0.021 0.047
-0.003 0.023 0.041
0.029 -0.009 0.061
-0.011 0.015 0.055
-0.009 0.027 0.049
-0.005 0.027 0.045
0.021 -0.011 0.069
-0.015 0.015 0.085
-0.009 0.003 0.095
-0.013 0.013 0.089
-0.029 0.043 0.089
-0.009 -0.001 0.101
-0.011 0.009 0.101
-0.011 0.001 0.099
-0.021 0.003 0.103
-0.015 0.015 0.105
-0.025 -0.005 0.049
-0.019 -0.009 0.057
-0.003 -0.015 0.051
-0.017 -0.007 0.073
-0.001 -0.029 0.057
-0.003 -0.025 0.057
-0.003 -0.013 0.045
-0.003 -0.013 0.047
-0.003 -0.019 0.057
0.003 -0.033 0.065
-0.005 -0.015 0.063
0.005 -0.035 0.071
-0.009 -0.021 0.081
-0.011 -0.019 0.079
-0.039 0.009 0.035
-0.039 0.009 0.043
-0.021 -0.005 0.055
-0.041 0.013 0.053
-0.037 0.023 0.067
-0.037 0.021 0.069
-0.037 0.017 0.065
-0.041 0.023 0.057
-0.037 0.027 0.069
-0.035 0.009 0.095
-0.037 0.021 0.081
-0.041 0.029 0.093
-0.029 0.003 0.079
-0.035 0.009 0.093
-0.039 0.033 0.093
-0.033 0.003 0.109
-0.035 0.005 0.105
-0.031 0.021 0.105
-0.025 0.017 0.105
-0.043 0.033 0.097
-0.007 -0.027 0.045
-0.001 -0.025 0.063
-0.003 -0.023 0.059
-0.033 0.003 0.097
-0.021 -0.003 0.107
-0.009 -0.027 0.037
-0.027 -0.007 0.037
-0.009 -0.027 0.039
-0.003 -0.023 0.039
-0.015 -0.013 0.059
-0.003 -0.015 0.039
-0.017 -0.009 0.049
-0.005 -0.021 0.049
0.003 -0.031 0.087
-0.017 -0.013 0.069
0.003 -0.021 0.067
-0.021 -0.001 0.081
-0.029 -0.005 0.089
-0.013 -0.005 0.083
-0.049 0.015 0.035
-0.041 0.025 0.051
-0.041 0.027 0.053
-0.035 0.037 0.043
-0.037 0.035 0.059
-0.037 0.019 0.089
-0.043 0.029 0.095
-0.031 0.011 0.067
-0.029 0.007 0.071
-0.031 0.009 0.069
-0.035 0.011 0.087
-0.033 0.029 0.089
-0.037 0.019 0.103
-0.039 0.021 0.101
-0.043 0.029 0.097
-0.043 0.037 0.103
-0.043 0.041 0.103
-0.037 0.037 0.107
-0.033 -0.003 0.035
-0.019 -0.007 0.045
-0.007 -0.021 0.087
-0.003 -0.035 0.035
0.021 -0.035 0.035
0.007 -0.033 0.057
0.013 -0.035 0.035
0.023 -0.031 0.041
0.017 -0.025 0.051
0.001 -0.029 0.065
0.025 -0.037 0.063
0.033 -0.035 0.059
0.029 -0.043 0.077
0.027 -0.041 0.075
0.017 -0.035 0.075
0.003 -0.023 0.093
-0.039 0.021 0.061
-0.029 -0.001 0.043
-0.015 -0.007 0.043
-0.011 -0.011 0.053
-0.013 -0.009 0.049
-0.031 0.005 0.045
-0.039 0.017 0.093
-0.019 0.003 0.073
-0.021 0.001 0.075
-0.015 0.005 0.083
-0.037 0.013 0.099
0.003 -0.031 0.045
-0.021 -0.007 0.053
-0.007 -0.019 0.071
-0.009 -0.021 0.083
0.025 -0.035 0.031
0.019 -0.035 0.033
0.031 -0.027 0.033
0.021 -0.033 0.037
0.027 -0.035 0.033
0.023 -0.029 0.043
0.007 -0.035 0.037
0.027 -0.033 0.035
0.023 -0.035 0.035
0.029 -0.031 0.045
0.017 -0.009 0.053
0.033 -0.029 0.037
0.041 -0.027 0.053
0.011 -0.029 0.091
-0.023 0.003 0.031
-0.033 -0.001 0.037
-0.027 -0.007 0.035
0.007 -0.033 0.047
0.009 -0.033 0.045
0.003 -0.031 0.051
-0.007 -0.011 0.055
-0.003 -0.033 0.041
-0.029 0.007 0.071
-0.009 -0.015 0.065
-0.011 -0.019 0.081
-0.001 -0.027 0.089
-0.011 -0.019 0.079
-0.007 -0.023 0.081
-0.029 -0.005 0.099
-0.019 -0.001 0.105
-0.015 0.005 0.101
-0.025 -0.003 0.045
-0.021 -0.005 0.059
-0.021 -0.007 0.061
-0.033 0.013 0.073
-0.031 -0.001 0.093
-0.033 0.005 0.089
-0.035 0.015 0.087
-0.037 0.021 0.087
-0.033 -0.001 0.097
-0.025 -0.003 0.049
-0.041 0.017 0.055
-0.041 0.023 0.053
-0.039 0.033 0.053
-0.009 -0.021 0.075
-0.017 -0.007 0.073
-0.033 0.003 0.091
-0.033 0.007 0.087
-0.017 -0.003 0.069
-0.037 0.013 0.095
-0.037 0.017 0.095
-0.045 0.027 0.037
-0.043 0.013 0.039
-0.041 0.031 0.053
-0.043 0.015 0.051
-0.043 0.015 0.051
-0.041 0.025 0.047
-0.037 0.035 0.055
-0.031 0.037 0.043
-0.019 0.037 0.039
-0.021 0.001 0.061
-0.035 0.037 0.051
-0.025 0.035 0.035
-0.029 0.039 0.051
-0.037 0.019 0.087
-0.041 0.023 0.093
-0.041 0.025 0.095
-0.043 0.037 0.097
-0.033 0.031 0.069
-0.041 0.023 0.095
-0.043 0.043 0.085
-0.035 0.011 0.099
-0.039 0.023 0.103
-0.041 0.039 0.099
-0.043 0.041 0.103
-0.039 0.027 0.037
-0.041 0.023 0.045
-0.041 0.039 0.081
-0.007 0.041 0.043
-0.023 0.037 0.047
-0.011 0.029 0.053
-0.019 0.037 0.041
-0.017 0.033 0.047
0.017 -0.003 0.047
-0.031 0.035 0.061
-0.021 0.029 0.067
-0.005 0.007 0.063
-0.005 0.005 0.065
0.027 -0.005 0.057
0.025 -0.003 0.045
-0.029 0.029 0.073
-0.033 0.049 0.087
-0.025 0.029 0.071
-0.023 0.025 0.075
0.017 -0.011 0.069
0.003 -0.007 0.087
-0.041 0.021 0.041
-0.049 0.025 0.037
-0.039 0.025 0.065
-0.041 0.031 0.051
-0.017 0.039 0.039
-0.021 0.033 0.059
-0.009 0.043 0.039
-0.033 0.017 0.077
-0.037 0.021 0.087
-0.029 0.041 0.097
-0.037 0.047 0.085
-0.033 0.021 0.105
-0.045 0.039 0.101
-0.035 0.037 0.099
-0.043 0.041 0.103
-0.041 0.039 0.105
-0.029 0.043 0.101
-0.039 0.039 0.097
-0.035 0.043 0.103
-0.027 0.041 0.099
-0.009 0.039 0.045
-0.009 0.043 0.043
