-0.005 -0.033 0.039
-0.005 -0.033 0.041
-0.005 -0.019 0.047
-0.031 -0.001 0.041
-0.029 -0.003 0.041
-0.013 -0.005 0.039
-0.005 -0.019 0.049
-0.011 -0.009 0.047
-0.007 -0.015 0.063
-0.003 -0.027 0.079
-0.015 -0.003 0.079
-0.029 -0.005 0.093
-0.013 -0.011 0.083
-0.009 -0.011 0.089
-0.005 -0.019 0.091
-0.019 -0.007 0.109
-0.005 -0.033 0.041
0.001 -0.033 0.041
0.011 -0.033 0.041
0.013 -0.033 0.039
0.007 -0.033 0.047
0.021 -0.033 0.039
0.007 -0.035 0.063
0.031 -0.037 0.059
-0.003 -0.035 0.039
0.001 -0.033 0.041
0.005 -0.033 0.049
0.005 -0.031 0.051
0.003 -0.031 0.053
0.003 -0.031 0.053
0.023 -0.031 0.041
0.005 -0.033 0.047
0.005 -0.031 0.053
-0.005 -0.025 0.047
-0.005 -0.025 0.047
-0.005 -0.023 0.053
0.005 -0.033 0.047
0.003 -0.031 0.049
0.001 -0.031 0.049
0.001 -0.031 0.051
0.021 -0.023 0.045
0.009 -0.031 0.049
0.007 -0.031 0.053
0.007 -0.031 0.053
0.005 -0.033 0.057
0.023 -0.031 0.061
0.003 -0.033 0.069
-0.003 -0.025 0.057
-0.001 -0.029 0.059
0.001 -0.029 0.061
-0.003 -0.025 0.057
0.001 -0.029 0.065
0.007 -0.035 0.065
0.001 -0.029 0.065
0.003 -0.033 0.069
0.029 -0.031 0.047
0.015 -0.031 0.043
0.025 -0.033 0.059
0.029 -0.035 0.055
0.007 -0.035 0.077
0.015 -0.035 0.069
0.021 -0.037 0.071
0.027 -0.037 0.067
0.029 -0.037 0.065
0.023 -0.039 0.071
0.023 -0.041 0.077
0.031 -0.043 0.079
0.019 -0.035 0.073
0.025 -0.041 0.081
0.029 -0.041 0.083
0.027 -0.041 0.083
0.031 -0.037 0.089
0.029 -0.041 0.083
0.003 -0.033 0.073
0.001 -0.031 0.081
0.023 -0.039 0.069
0.021 -0.037 0.069
0.005 -0.035 0.071
-0.003 -0.019 0.071
-0.005 -0.025 0.079
0.003 -0.031 0.075
0.009 -0.031 0.089
0.011 -0.029 0.091
0.001 -0.021 0.095
-0.009 -0.021 0.085
-0.033 -0.003 0.033
-0.039 0.007 0.037
-0.033 0.005 0.045
-0.037 0.005 0.035
-0.039 0.007 0.035
-0.039 0.009 0.047
-0.051 0.017 0.037
-0.043 0.013 0.039
-0.043 0.015 0.041
-0.041 0.017 0.045
-0.039 0.009 0.051
-0.041 0.027 0.053
-0.039 0.021 0.059
-0.041 0.025 0.059
-0.031 -0.001 0.041
-0.029 -0.003 0.041
-0.029 0.005 0.047
-0.027 0.003 0.045
-0.021 -0.007 0.041
-0.015 -0.009 0.049
-0.013 -0.011 0.051
-0.029 -0.003 0.043
-0.027 0.001 0.045
-0.027 0.003 0.049
-0.027 0.009 0.053
-0.021 0.005 0.057
-0.027 0.011 0.063
-0.021 0.011 0.061
-0.019 -0.009 0.067
-0.025 0.011 0.061
-0.033 0.011 0.069
-0.023 -0.001 0.057
-0.041 0.023 0.055
-0.041 0.015 0.045
-0.037 0.011 0.053
-0.033 0.007 0.049
-0.039 0.021 0.057
-0.035 0.015 0.057
-0.035 0.015 0.061
-0.037 0.019 0.069
-0.035 0.021 0.073
-0.033 0.001 0.093
-0.035 0.007 0.093
-0.037 0.017 0.083
-0.037 0.019 0.085
-0.039 0.017 0.093
-0.037 0.017 0.091
-0.037 0.015 0.097
-0.023 0.007 0.069
-0.027 0.003 0.079
-0.015 -0.001 0.075
-0.013 -0.015 0.077
-0.013 -0.015 0.079
-0.031 0.007 0.077
-0.029 -0.005 0.087
-0.019 -0.001 0.087
-0.019 -0.003 0.091
-0.027 -0.007 0.093
-0.019 -0.003 0.091
-0.033 0.007 0.085
-0.035 0.011 0.087
-0.033 0.009 0.089
-0.033 0.001 0.099
-0.039 0.033 0.089
-0.043 0.039 0.087
-0.041 0.035 0.089
-0.041 0.025 0.095
-0.039 0.025 0.091
-0.035 0.009 0.099
-0.033 0.003 0.105
-0.027 0.007 0.111
-0.033 0.001 0.109
-0.025 0.019 0.105
-0.025 0.005 0.115
-0.039 0.021 0.101
-0.041 0.033 0.101
-0.045 0.037 0.101
-0.035 0.033 0.105
-0.039 0.035 0.105
-0.037 0.017 0.103
-0.037 0.017 0.103
-0.005 -0.021 0.047
-0.015 -0.011 0.055
-0.017 -0.009 0.049
-0.013 -0.015 0.065
-0.015 0.039 0.043
-0.017 0.033 0.051
-0.005 0.011 0.053
-0.003 0.013 0.045
-0.007 0.015 0.051
-0.001 0.013 0.045
0.001 -0.013 0.055
0.001 -0.015 0.059
-0.015 0.007 0.063
-0.007 0.013 0.055
-0.009 0.011 0.057
-0.003 0.005 0.063
-0.001 0.005 0.061
-0.003 0.001 0.079
-0.015 0.005 0.067
-0.015 0.001 0.073
-0.013 0.003 0.071
-0.007 0.001 0.079
-0.013 0.001 0.075
0.001 -0.013 0.091
-0.007 -0.007 0.087
-0.007 -0.007 0.087
-0.007 -0.003 0.083
-0.001 -0.003 0.083
-0.003 -0.005 0.087
-0.001 -0.011 0.091
0.033 -0.013 0.033
0.025 -0.003 0.035
0.011 -0.003 0.045
0.029 -0.011 0.041
0.021 -0.009 0.067
0.037 -0.017 0.049
0.035 -0.013 0.039
0.021 -0.003 0.043
0.033 -0.019 0.051
0.027 -0.003 0.049
0.019 -0.005 0.051
0.007 0.001 0.039
0.021 -0.001 0.035
0.021 -0.001 0.033
0.007 -0.013 0.055
0.011 -0.015 0.059
0.015 -0.017 0.055
0.019 -0.007 0.053
0.015 -0.017 0.053
0.013 -0.009 0.051
0.017 -0.005 0.051
0.011 -0.005 0.049
0.021 -0.005 0.051
0.029 -0.003 0.051
0.031 -0.005 0.051
0.029 -0.005 0.057
0.037 -0.015 0.043
0.037 -0.017 0.047
0.037 -0.019 0.051
0.041 -0.021 0.049
0.035 -0.017 0.049
0.007 -0.017 0.069
0.015 -0.015 0.081
0.033 -0.029 0.065
0.029 -0.033 0.071
0.033 -0.037 0.081
0.031 -0.037 0.079
0.021 -0.023 0.077
0.021 -0.031 0.075
0.029 -0.035 0.077
0.025 -0.033 0.079
0.017 -0.019 0.083
0.029 -0.035 0.083
0.027 -0.033 0.081
0.033 -0.039 0.079
0.005 -0.017 0.065
0.007 -0.017 0.067
0.017 -0.011 0.071
0.027 -0.029 0.065
0.021 -0.025 0.079
0.003 -0.005 0.075
0.005 -0.017 0.091
0.007 -0.019 0.093
0.007 -0.009 0.081
-0.019 0.037 0.041
-0.011 0.039 0.031
-0.021 0.035 0.049
-0.029 0.039 0.045
-0.043 0.027 0.035
-0.035 0.035 0.057
-0.029 0.035 0.063
-0.009 0.039 0.045
-0.009 0.043 0.043
-0.011 0.043 0.043
-0.003 0.023 0.041
0.001 0.015 0.041
-0.001 0.013 0.047
-0.005 0.033 0.039
-0.003 0.031 0.037
-0.005 0.033 0.037
-0.017 0.023 0.059
-0.019 0.027 0.067
-0.017 0.025 0.059
-0.005 0.007 0.063
-0.013 0.009 0.059
-0.009 0.009 0.061
-0.013 0.031 0.051
-0.033 0.037 0.043
-0.019 0.037 0.037
-0.021 0.035 0.037
-0.015 0.041 0.039
-0.029 0.039 0.045
-0.011 0.043 0.039
-0.029 0.037 0.055
-0.027 0.025 0.075
-0.031 0.029 0.071
-0.025 0.035 0.087
-0.023 0.033 0.095
-0.023 0.037 0.099
-0.027 0.039 0.089
-0.031 0.041 0.097
-0.027 0.039 0.097
-0.015 0.005 0.065
-0.017 0.017 0.073
-0.025 0.031 0.069
-0.017 0.017 0.073
-0.015 0.003 0.071
-0.023 0.025 0.075
-0.029 0.029 0.073
-0.021 0.031 0.087
-0.015 0.017 0.083
-0.009 0.005 0.093
-0.019 0.029 0.085
-0.021 0.031 0.095
-0.017 0.021 0.089
-0.019 0.025 0.095
-0.027 0.039 0.089
-0.019 0.027 0.089
-0.023 0.031 0.089
-0.035 0.047 0.089
-0.025 0.037 0.087
-0.033 0.003 0.109
-0.015 0.017 0.101
-0.015 0.015 0.107
-0.013 0.011 0.109
-0.015 0.015 0.107
-0.017 0.017 0.105
-0.009 0.005 0.101
-0.011 0.009 0.099
-0.013 0.011 0.103
-0.017 0.019 0.101
-0.023 0.037 0.099
-0.025 0.039 0.101
-0.031 0.029 0.105
-0.023 0.009 0.113
-0.031 0.041 0.099
-0.031 0.043 0.105
0.007 0.003 0.037
0.019 0.001 0.035
0.035 -0.035 0.057
0.037 -0.025 0.059
0.037 -0.029 0.061
0.029 -0.005 0.059
0.025 -0.011 0.063
0.029 -0.009 0.061
0.015 -0.015 0.049
0.025 -0.011 0.063
0.015 -0.017 0.051
0.027 -0.009 0.063
0.019 -0.023 0.061
0.021 -0.025 0.069
0.021 -0.023 0.069
0.001 -0.007 0.063
0.001 -0.003 0.063
0.003 -0.009 0.071
0.023 -0.011 0.067
0.025 -0.009 0.065
0.021 -0.011 0.069
-0.003 -0.013 0.063
0.007 -0.009 0.079
-0.001 -0.001 0.081
0.007 -0.019 0.093
0.007 -0.021 0.093
-0.003 -0.013 0.093
-0.001 -0.007 0.089
-0.015 -0.009 0.111
0.041 -0.025 0.047
0.041 -0.025 0.043
0.037 -0.017 0.049
0.033 -0.013 0.045
0.037 -0.015 0.043
0.037 -0.017 0.035
0.037 -0.033 0.055
0.033 -0.033 0.043
0.031 -0.033 0.069
0.027 -0.033 0.073
0.033 -0.033 0.067
0.041 -0.027 0.053
0.039 -0.031 0.049
0.039 -0.021 0.053
0.037 -0.019 0.051
0.041 -0.021 0.043
0.041 -0.021 0.049
0.041 -0.027 0.053
0.039 -0.017 0.045
0.029 -0.011 0.043
0.029 -0.003 0.047
0.031 -0.007 0.053
0.037 -0.015 0.043
0.025 -0.005 0.035
0.025 -0.003 0.041
0.021 -0.013 0.047
0.033 -0.013 0.045
0.031 -0.015 0.047
0.027 -0.003 0.043
0.035 -0.027 0.061
0.027 -0.031 0.073
0.037 -0.031 0.059
0.035 -0.023 0.059
0.037 -0.021 0.055
0.021 -0.013 0.063
0.027 -0.013 0.059
0.037 -0.025 0.035
0.035 -0.013 0.043
0.037 -0.015 0.041
0.037 -0.017 0.049
0.029 -0.035 0.077
0.033 -0.039 0.077
0.035 -0.039 0.085
0.037 -0.039 0.087
0.033 -0.037 0.083
0.031 -0.035 0.087
0.035 -0.041 0.075
0.019 -0.031 0.079
0.029 -0.031 0.069
0.017 -0.017 0.069
0.021 -0.029 0.079
0.019 -0.021 0.077
0.021 -0.023 0.079
0.001 -0.001 0.065
0.001 -0.001 0.071
0.013 -0.015 0.079
0.011 -0.025 0.093
0.007 -0.009 0.087
0.003 -0.005 0.083
0.007 -0.011 0.089
0.011 -0.015 0.089
-0.001 0.003 0.045
0.005 0.011 0.039
0.001 0.019 0.037
-0.001 0.003 0.049
-0.001 -0.001 0.053
-0.001 -0.001 0.053
-0.005 0.009 0.057
-0.005 0.009 0.057
-0.007 0.019 0.049
-0.007 0.025 0.047
-0.009 0.023 0.051
-0.021 0.013 0.059
0.027 -0.003 0.055
0.001 0.009 0.045
0.001 -0.001 0.057
0.029 -0.003 0.055
0.005 0.011 0.037
0.001 0.013 0.045
-0.005 0.015 0.045
-0.003 0.025 0.041
-0.003 0.027 0.041
-0.005 0.029 0.039
-0.003 0.017 0.043
-0.005 0.023 0.045
-0.001 0.003 0.067
-0.009 0.009 0.061
-0.011 0.015 0.055
-0.003 0.005 0.067
-0.001 0.003 0.061
-0.009 0.009 0.061
-0.015 0.029 0.057
-0.007 0.023 0.049
-0.017 0.031 0.057
-0.021 0.031 0.063
-0.021 0.029 0.067
-0.005 0.035 0.037
-0.007 0.039 0.039
-0.007 0.033 0.045
-0.013 0.031 0.051
-0.025 0.033 0.063
-0.017 0.011 0.071
-0.015 0.013 0.077
-0.021 0.023 0.075
-0.011 0.009 0.093
-0.011 0.005 0.101
-0.011 0.007 0.101
-0.013 0.015 0.095
-0.015 0.017 0.097
-0.017 0.021 0.099
-0.019 0.025 0.099
-0.021 0.027 0.099
-0.009 0.003 0.075
-0.007 0.001 0.079
-0.003 0.005 0.067
-0.001 0.001 0.077
-0.015 0.015 0.077
-0.009 0.005 0.089
-0.009 0.003 0.095
-0.019 0.001 0.097
-0.015 0.007 0.081
-0.013 0.015 0.095
-0.017 0.021 0.095
-0.015 0.015 0.099
-0.021 0.031 0.097
-0.015 0.017 0.087
-0.015 0.017 0.089
-0.029 0.041 0.097
-0.027 0.039 0.089
-0.021 0.033 0.083
-0.027 0.045 0.085
-0.025 0.041 0.085
-0.027 0.041 0.087
-0.029 0.041 0.089
-0.033 0.003 0.109
-0.025 0.013 0.107
-0.015 0.011 0.105
-0.019 0.003 0.109
-0.013 0.011 0.109
-0.021 0.009 0.109
-0.009 0.003 0.101
-0.013 0.013 0.099
-0.011 0.009 0.101
-0.017 0.019 0.103
-0.025 0.027 0.105
-0.029 0.023 0.105
-0.031 0.033 0.103
-0.029 0.033 0.101
-0.033 0.033 0.105
-0.033 0.043 0.105
-0.023 0.037 0.099
-0.025 0.039 0.099
-0.027 0.035 0.101
-0.027 0.039 0.101
-0.027 0.041 0.099
0.019 0.001 0.035
0.017 0.005 0.037
0.005 0.013 0.035
0.003 0.011 0.043
0.019 0.001 0.035
