-0.011 0.009 0.059
-0.009 0.009 0.059
-0.009 0.009 0.061
-0.015 0.009 0.059
-0.007 0.011 0.057
-0.007 0.013 0.053
-0.009 0.013 0.055
-0.017 0.021 0.067
-0.009 0.009 0.059
-0.033 0.035 0.059
-0.027 0.035 0.061
-0.025 0.035 0.061
-0.025 0.035 0.059
-0.031 0.035 0.063
-0.017 0.033 0.055
-0.009 0.007 0.067
-0.007 0.007 0.061
-0.005 0.003 0.073
-0.023 0.029 0.071
-0.025 0.031 0.069
-0.021 0.025 0.073
-0.021 0.023 0.077
-0.027 0.047 0.085
-0.005 0.009 0.059
-0.005 0.007 0.063
-0.005 0.005 0.065
-0.009 0.009 0.061
-0.007 0.011 0.057
-0.017 0.021 0.073
-0.011 0.005 0.069
-0.019 0.023 0.073
-0.011 0.007 0.065
-0.021 0.033 0.085
-0.007 0.005 0.069
-0.007 0.007 0.065
-0.005 0.005 0.065
-0.007 0.005 0.069
-0.003 0.005 0.063
-0.005 -0.005 0.087
-0.017 0.021 0.091
-0.011 0.011 0.089
-0.007 -0.005 0.085
-0.023 0.033 0.087
-0.023 0.031 0.089
-0.023 0.031 0.089
-0.019 0.029 0.085
-0.019 0.027 0.089
-0.005 0.003 0.073
-0.019 0.025 0.091
-0.019 0.025 0.091
-0.005 0.001 0.079
-0.001 -0.001 0.081
-0.011 0.009 0.095
-0.005 -0.011 0.093
-0.009 0.005 0.099
-0.003 -0.013 0.093
-0.035 0.043 0.105
-0.029 0.019 0.105
-0.031 0.037 0.105
-0.033 0.027 0.105
-0.029 0.021 0.105
-0.025 0.027 0.105
-0.013 0.013 0.097
-0.017 0.021 0.091
-0.013 0.013 0.093
-0.009 0.003 0.087
-0.009 0.005 0.093
-0.003 -0.007 0.089
-0.001 -0.015 0.093
-0.009 0.005 0.095
-0.007 0.001 0.095
-0.001 -0.011 0.091
-0.011 0.009 0.101
-0.001 -0.015 0.095
-0.009 0.005 0.095
-0.009 0.005 0.099
-0.031 0.019 0.105
-0.029 0.009 0.105
-0.023 0.011 0.111
-0.019 -0.001 0.111
-0.013 -0.011 0.111
-0.017 -0.007 0.113
-0.015 -0.007 0.113
0.019 -0.003 0.047
0.019 -0.003 0.047
0.021 -0.003 0.045
0.011 0.003 0.039
0.021 -0.003 0.039
0.017 0.001 0.037
0.007 -0.005 0.047
0.005 -0.011 0.051
0.011 -0.013 0.051
0.005 -0.011 0.055
0.011 -0.005 0.049
0.015 -0.005 0.049
0.023 -0.003 0.049
0.019 -0.007 0.053
0.015 -0.017 0.071
0.027 -0.027 0.063
0.033 -0.021 0.055
0.003 -0.009 0.049
0.005 -0.007 0.047
0.007 -0.005 0.041
0.011 -0.003 0.045
0.007 -0.011 0.053
0.013 -0.009 0.051
0.015 -0.003 0.043
0.015 -0.003 0.043
0.025 -0.005 0.057
0.017 -0.005 0.051
0.017 -0.007 0.053
0.021 -0.005 0.051
0.025 -0.003 0.055
-0.001 0.013 0.047
0.001 0.013 0.045
0.001 0.011 0.047
0.005 -0.003 0.039
0.007 -0.001 0.039
0.007 -0.005 0.041
0.009 0.003 0.039
0.013 0.005 0.039
0.013 -0.003 0.041
0.015 -0.005 0.039
0.019 -0.001 0.037
0.019 -0.005 0.043
0.019 -0.005 0.043
0.021 -0.001 0.035
0.021 -0.001 0.035
0.021 -0.003 0.043
0.019 -0.001 0.037
0.021 -0.003 0.039
0.019 -0.003 0.047
0.019 -0.005 0.043
0.029 -0.003 0.049
0.027 -0.003 0.049
-0.005 0.005 0.067
0.005 -0.013 0.057
0.007 -0.015 0.063
0.011 -0.015 0.061
0.013 -0.015 0.053
0.015 -0.017 0.057
0.001 0.001 0.071
-0.005 0.001 0.077
0.013 -0.017 0.069
-0.001 0.001 0.073
0.013 -0.015 0.059
0.021 -0.007 0.061
0.025 -0.005 0.059
0.025 -0.005 0.059
0.027 -0.005 0.059
0.017 -0.017 0.063
0.015 -0.017 0.067
0.017 -0.011 0.067
0.017 -0.017 0.063
0.021 -0.009 0.067
0.021 -0.011 0.069
0.031 -0.027 0.065
0.007 -0.013 0.055
0.015 -0.011 0.051
0.013 -0.013 0.051
0.011 -0.015 0.057
0.015 -0.005 0.051
-0.001 0.003 0.067
-0.003 0.005 0.067
0.021 -0.005 0.055
0.019 -0.005 0.051
0.025 -0.003 0.053
0.031 -0.007 0.057
0.023 -0.009 0.065
0.027 -0.005 0.061
0.027 -0.005 0.061
0.027 -0.009 0.063
0.023 -0.005 0.059
0.023 -0.005 0.061
0.037 -0.015 0.039
0.027 -0.005 0.061
0.031 -0.007 0.057
0.037 -0.015 0.043
0.033 -0.013 0.039
0.029 -0.003 0.053
0.035 -0.021 0.055
0.037 -0.023 0.057
0.039 -0.025 0.055
0.037 -0.021 0.055
0.041 -0.021 0.049
0.035 -0.023 0.059
0.033 -0.025 0.061
0.001 -0.003 0.081
0.003 -0.005 0.079
0.005 -0.007 0.083
0.007 -0.011 0.089
0.019 -0.019 0.075
0.015 -0.017 0.077
0.021 -0.023 0.073
0.027 -0.031 0.071
0.023 -0.031 0.067
0.029 -0.033 0.071
0.027 -0.033 0.083
0.017 -0.017 0.081
0.025 -0.033 0.075
0.029 -0.035 0.081
0.009 -0.015 0.091
0.005 -0.015 0.091
0.009 -0.015 0.091
0.023 -0.035 0.083
0.029 -0.035 0.083
0.027 -0.033 0.087
0.029 -0.037 0.089
-0.003 0.001 0.079
-0.001 -0.001 0.079
0.013 -0.017 0.069
-0.001 -0.003 0.083
-0.003 -0.007 0.089
-0.001 -0.007 0.089
0.019 -0.013 0.073
0.017 -0.013 0.071
0.031 -0.029 0.067
0.017 -0.017 0.075
0.017 -0.017 0.079
0.001 0.001 0.071
0.001 -0.001 0.073
0.003 -0.005 0.079
0.007 -0.009 0.081
0.019 -0.011 0.067
0.017 -0.011 0.069
0.017 -0.013 0.073
0.003 -0.013 0.091
0.013 -0.017 0.089
0.011 -0.015 0.089
0.005 -0.019 0.093
0.007 -0.023 0.095
0.011 -0.025 0.093
0.005 -0.019 0.093
0.007 -0.019 0.093
-0.001 -0.015 0.095
0.001 -0.021 0.095
0.003 -0.017 0.093
0.007 -0.009 0.083
0.005 -0.007 0.085
0.007 -0.009 0.085
0.007 -0.009 0.087
0.005 -0.007 0.083
0.001 -0.007 0.089
0.001 -0.007 0.089
0.001 -0.007 0.089
-0.027 0.037 0.047
-0.019 0.033 0.049
-0.015 0.035 0.045
-0.005 0.033 0.043
-0.007 0.037 0.045
-0.033 0.037 0.041
-0.019 0.037 0.041
-0.017 0.039 0.041
-0.011 0.039 0.043
-0.003 0.031 0.037
-0.015 0.041 0.039
-0.009 0.043 0.039
-0.035 0.035 0.057
-0.045 0.017 0.039
-0.041 0.027 0.045
-0.041 0.031 0.049
-0.037 0.035 0.059
-0.041 0.029 0.049
-0.039 0.035 0.053
-0.049 0.025 0.037
-0.043 0.027 0.039
-0.047 0.023 0.041
-0.045 0.025 0.039
-0.035 0.037 0.045
-0.039 0.033 0.043
-0.037 0.035 0.043
-0.041 0.027 0.039
-0.043 0.027 0.037
-0.037 0.035 0.041
-0.035 0.035 0.041
-0.045 0.023 0.041
-0.039 0.035 0.053
-0.041 0.027 0.059
-0.037 0.033 0.063
-0.035 0.033 0.063
-0.041 0.029 0.057
-0.041 0.031 0.055
-0.041 0.031 0.051
-0.023 0.037 0.047
-0.009 0.027 0.049
-0.007 0.025 0.049
-0.007 0.025 0.049
-0.001 0.013 0.045
-0.027 0.037 0.043
-0.021 0.037 0.045
-0.019 0.037 0.041
-0.017 0.035 0.045
-0.011 0.037 0.045
-0.013 0.035 0.045
-0.013 0.041 0.043
-0.013 0.037 0.043
-0.009 0.039 0.045
-0.007 0.037 0.045
-0.001 0.017 0.041
-0.009 0.027 0.051
-0.015 0.031 0.049
-0.005 0.031 0.045
-0.007 0.031 0.047
-0.033 0.033 0.065
-0.019 0.027 0.063
-0.023 0.027 0.073
-0.023 0.029 0.069
-0.023 0.031 0.065
-0.023 0.027 0.073
-0.023 0.029 0.071
-0.001 0.007 0.053
-0.001 0.005 0.055
-0.013 0.013 0.055
-0.005 0.011 0.053
-0.003 0.011 0.053
-0.011 0.009 0.061
-0.011 0.007 0.063
-0.005 0.009 0.059
-0.001 0.003 0.063
-0.005 0.007 0.063
-0.013 0.011 0.057
-0.005 0.009 0.059
-0.023 0.031 0.067
-0.021 0.029 0.065
-0.021 0.031 0.063
-0.021 0.029 0.067
-0.019 0.031 0.059
-0.019 0.027 0.063
-0.009 0.017 0.053
-0.013 0.027 0.055
-0.013 0.031 0.053
-0.037 0.035 0.043
-0.037 0.035 0.041
-0.035 0.037 0.045
-0.035 0.037 0.047
-0.039 0.035 0.053
-0.037 0.035 0.051
-0.037 0.035 0.057
-0.037 0.033 0.063
-0.027 0.033 0.033
-0.031 0.037 0.041
-0.029 0.037 0.039
-0.019 0.037 0.037
-0.019 0.037 0.033
-0.029 0.039 0.047
-0.027 0.037 0.049
-0.017 0.033 0.047
-0.009 0.043 0.041
-0.007 0.039 0.037
-0.009 0.043 0.041
-0.023 0.037 0.053
-0.031 0.035 0.063
-0.021 0.033 0.059
-0.035 0.027 0.071
-0.035 0.047 0.085
-0.037 0.047 0.087
-0.035 0.047 0.089
-0.037 0.041 0.105
-0.037 0.041 0.105
-0.039 0.033 0.089
-0.039 0.045 0.093
-0.039 0.039 0.097
-0.035 0.031 0.089
-0.039 0.049 0.091
-0.039 0.047 0.093
-0.039 0.045 0.093
-0.037 0.043 0.093
-0.043 0.041 0.103
-0.037 0.033 0.095
-0.039 0.041 0.103
-0.041 0.041 0.103
-0.041 0.041 0.103
-0.043 0.041 0.103
-0.037 0.041 0.101
-0.031 0.049 0.087
-0.027 0.047 0.085
-0.025 0.037 0.087
-0.029 0.047 0.085
-0.023 0.035 0.083
-0.019 0.023 0.073
-0.029 0.037 0.089
-0.031 0.035 0.089
-0.031 0.031 0.089
-0.021 0.031 0.087
-0.023 0.031 0.089
-0.021 0.029 0.089
-0.021 0.031 0.087
-0.011 0.005 0.069
-0.011 0.005 0.069
-0.007 0.005 0.071
-0.011 0.003 0.073
-0.005 0.003 0.075
-0.003 0.001 0.079
-0.017 0.025 0.085
-0.029 0.029 0.073
-0.021 0.027 0.069
-0.033 0.049 0.087
-0.021 0.023 0.075
-0.019 0.021 0.075
-0.033 0.049 0.087
-0.031 0.047 0.083
-0.033 0.043 0.103
-0.021 0.031 0.097
-0.019 0.027 0.089
-0.021 0.027 0.101
-0.015 0.019 0.091
-0.019 0.025 0.099
-0.017 0.021 0.099
-0.015 0.017 0.097
-0.011 0.011 0.093
-0.015 0.017 0.097
-0.017 0.019 0.101
-0.011 0.009 0.095
-0.015 0.017 0.095
-0.011 0.011 0.093
-0.017 0.021 0.095
-0.013 0.013 0.097
-0.031 0.031 0.089
-0.017 0.023 0.087
-0.031 0.043 0.091
-0.031 0.045 0.089
-0.029 0.043 0.089
-0.025 0.033 0.089
-0.023 0.033 0.087
-0.017 0.025 0.085
-0.019 0.027 0.089
-0.031 0.043 0.105
-0.031 0.043 0.103
-0.031 0.029 0.089
-0.027 0.031 0.089
-0.031 0.043 0.103
-0.025 0.037 0.095
-0.025 0.039 0.099
-0.023 0.037 0.099
-0.019 0.027 0.097
-0.025 0.039 0.099
-0.043 0.045 0.085
-0.043 0.045 0.085
-0.041 0.043 0.089
-0.033 0.049 0.087
-0.039 0.047 0.087
-0.043 0.037 0.097
-0.039 0.047 0.093
-0.033 0.045 0.091
-0.027 0.033 0.067
-0.033 0.047 0.089
-0.029 0.047 0.087
-0.023 0.035 0.083
-0.029 0.047 0.085
-0.027 0.043 0.087
-0.027 0.043 0.087
-0.029 0.041 0.099
-0.029 0.043 0.101
-0.029 0.043 0.089
-0.031 0.049 0.085
-0.037 0.019 0.103
-0.033 0.015 0.105
-0.033 0.009 0.105
-0.033 0.009 0.105
-0.039 0.035 0.105
-0.033 0.027 0.105
-0.043 0.041 0.103
-0.039 0.041 0.103
-0.035 0.041 0.105
-0.033 0.037 0.107
-0.031 0.015 0.105
-0.027 0.013 0.107
-0.019 0.021 0.103
-0.021 0.019 0.105
-0.017 0.017 0.105
-0.031 0.005 0.107
-0.025 0.011 0.109
-0.025 0.011 0.111
-0.027 0.007 0.111
-0.029 0.011 0.105
-0.031 0.013 0.105
-0.029 0.015 0.105
-0.011 0.009 0.101
-0.009 0.005 0.101
-0.015 0.017 0.101
-0.017 0.015 0.107
-0.015 0.017 0.105
-0.013 0.011 0.109
-0.019 0.025 0.099
-0.019 0.021 0.103
-0.017 0.019 0.103
-0.031 0.043 0.105
-0.031 0.019 0.105
-0.029 0.019 0.105
-0.025 0.007 0.115
-0.041 0.039 0.099
-0.041 0.041 0.103
-0.037 0.041 0.103
-0.033 0.043 0.101
-0.033 0.037 0.107
-0.039 0.041 0.105
-0.033 0.043 0.103
-0.029 0.041 0.099
-0.031 0.043 0.105
-0.023 0.037 0.099
0.003 0.019 0.033
0.011 0.005 0.037
0.015 0.007 0.037
0.013 0.007 0.037
-0.001 0.019 0.041
0.001 0.017 0.039
0.005 0.017 0.035
0.013 0.009 0.035
0.003 0.011 0.043
0.015 0.007 0.037
0.001 0.021 0.033
0.001 0.001 0.067
