-0.001 0.001 0.047
-0.001 -0.001 0.051
-0.001 0.003 0.049
-0.013 0.009 0.059
-0.011 0.007 0.065
0.001 0.001 0.063
-0.017 0.005 0.069
-0.009 0.001 0.077
-0.007 -0.007 0.087
-0.003 -0.007 0.089
0.001 -0.007 0.089
-0.007 -0.007 0.089
-0.019 0.021 0.101
-0.021 0.021 0.105
0.031 -0.013 0.033
0.033 -0.013 0.033
0.023 -0.003 0.033
0.017 -0.003 0.047
0.023 -0.003 0.047
0.029 -0.011 0.043
0.011 -0.015 0.065
0.011 -0.017 0.067
0.033 -0.027 0.063
0.015 -0.003 0.037
0.017 0.001 0.037
0.019 -0.005 0.049
0.021 -0.003 0.043
0.025 -0.003 0.049
0.021 -0.005 0.051
0.009 -0.001 0.039
0.013 0.007 0.037
0.017 0.005 0.035
0.011 0.001 0.039
0.007 -0.005 0.045
0.025 -0.003 0.041
0.013 -0.015 0.055
0.015 -0.017 0.055
0.005 -0.015 0.061
0.031 -0.023 0.055
0.031 -0.005 0.053
0.027 -0.027 0.059
0.009 -0.011 0.053
0.023 -0.003 0.051
0.031 -0.007 0.049
0.027 -0.003 0.055
0.023 -0.003 0.051
0.021 -0.005 0.053
0.039 -0.019 0.037
0.035 -0.013 0.037
0.039 -0.019 0.047
0.041 -0.023 0.051
0.033 -0.019 0.053
0.033 -0.027 0.063
0.013 -0.017 0.073
0.025 -0.029 0.067
0.027 -0.031 0.071
0.023 -0.033 0.075
0.011 -0.013 0.085
0.015 -0.021 0.089
0.025 -0.033 0.085
0.007 -0.009 0.077
0.005 -0.007 0.077
0.013 -0.015 0.079
0.019 -0.019 0.073
0.003 -0.003 0.073
0.003 -0.003 0.073
0.001 -0.003 0.065
0.001 0.001 0.069
0.009 -0.011 0.079
0.017 -0.013 0.073
0.009 -0.011 0.087
0.015 -0.021 0.089
0.005 -0.017 0.091
0.011 -0.025 0.093
0.001 -0.017 0.095
0.017 -0.017 0.081
0.015 -0.015 0.081
0.007 -0.011 0.089
0.001 -0.007 0.089
-0.001 0.021 0.031
-0.009 0.039 0.033
-0.045 0.025 0.039
-0.029 0.039 0.045
-0.031 0.037 0.051
-0.031 0.037 0.041
-0.029 0.037 0.043
-0.033 0.037 0.041
-0.033 0.037 0.047
-0.037 0.037 0.049
-0.037 0.035 0.057
-0.011 0.043 0.043
-0.009 0.043 0.043
-0.003 0.025 0.041
-0.003 0.025 0.041
-0.001 0.023 0.039
-0.001 0.019 0.041
-0.009 0.043 0.039
-0.003 0.033 0.033
-0.005 0.025 0.043
-0.019 0.013 0.057
-0.017 0.007 0.063
-0.017 0.007 0.063
-0.025 0.033 0.063
-0.017 0.027 0.059
-0.011 0.023 0.053
-0.033 0.037 0.039
-0.033 0.037 0.043
-0.037 0.037 0.049
-0.015 0.041 0.035
-0.017 0.039 0.037
-0.009 0.041 0.035
-0.017 0.033 0.055
-0.027 0.031 0.069
-0.031 0.031 0.069
-0.035 0.031 0.067
-0.031 0.027 0.073
-0.025 0.039 0.097
-0.027 0.037 0.089
-0.029 0.029 0.089
-0.029 0.041 0.097
-0.029 0.041 0.099
-0.021 0.027 0.071
-0.019 0.025 0.067
-0.017 0.021 0.069
-0.017 0.003 0.073
-0.015 0.015 0.077
-0.001 0.003 0.069
-0.027 0.029 0.071
-0.025 0.021 0.079
-0.029 0.025 0.075
-0.021 0.033 0.085
-0.015 0.015 0.083
-0.023 0.033 0.087
-0.009 0.003 0.093
-0.013 0.013 0.093
-0.023 0.035 0.085
-0.021 0.033 0.083
-0.023 0.033 0.087
-0.025 0.039 0.085
-0.021 0.029 0.087
-0.023 0.037 0.097
-0.021 0.031 0.095
-0.041 0.045 0.085
-0.039 0.037 0.095
-0.037 0.049 0.093
-0.029 0.047 0.085
-0.027 0.039 0.089
-0.027 0.039 0.089
-0.023 0.025 0.105
-0.031 0.025 0.105
-0.031 0.035 0.105
-0.031 0.041 0.099
-0.029 0.037 0.101
-0.029 0.041 0.103
-0.019 0.021 0.103
-0.017 0.019 0.103
-0.019 0.021 0.103
-0.015 0.015 0.107
-0.021 0.009 0.109
-0.009 0.003 0.097
-0.009 0.005 0.099
-0.011 0.009 0.099
-0.025 0.029 0.103
-0.021 0.027 0.101
-0.031 0.029 0.105
-0.031 0.041 0.099
0.005 0.017 0.035
0.001 0.015 0.041
-0.007 -0.035 0.035
-0.005 -0.017 0.045
-0.003 -0.013 0.045
-0.017 -0.007 0.045
-0.021 -0.007 0.049
-0.021 -0.005 0.063
-0.001 -0.013 0.055
-0.015 -0.013 0.059
-0.019 -0.009 0.057
-0.013 -0.015 0.063
-0.017 -0.013 0.065
-0.013 -0.017 0.079
-0.007 -0.023 0.079
-0.013 -0.017 0.069
-0.011 -0.017 0.081
-0.009 -0.019 0.087
-0.001 -0.019 0.095
-0.031 -0.003 0.089
-0.031 -0.003 0.091
-0.027 -0.009 0.097
-0.013 -0.009 0.083
-0.011 -0.007 0.087
-0.009 -0.009 0.091
0.015 -0.035 0.033
-0.009 -0.027 0.039
0.003 -0.035 0.041
-0.007 -0.029 0.045
-0.007 -0.025 0.045
0.001 -0.015 0.033
-0.005 -0.019 0.039
0.003 -0.035 0.041
0.007 -0.035 0.039
0.001 -0.033 0.043
0.005 -0.033 0.043
0.013 -0.033 0.041
0.031 -0.033 0.047
0.011 -0.035 0.065
0.027 -0.035 0.059
0.027 -0.037 0.063
-0.009 -0.029 0.041
-0.009 -0.027 0.039
0.005 -0.033 0.047
0.003 -0.031 0.047
0.019 -0.033 0.039
0.025 -0.031 0.043
-0.003 -0.023 0.055
-0.013 -0.009 0.049
-0.017 -0.011 0.055
-0.005 -0.015 0.043
-0.005 -0.015 0.047
-0.003 -0.015 0.055
-0.003 -0.019 0.055
-0.013 -0.015 0.061
0.001 -0.031 0.055
-0.001 -0.029 0.055
0.001 -0.031 0.059
0.001 -0.027 0.063
0.001 -0.019 0.063
0.003 -0.019 0.065
0.001 -0.027 0.063
0.001 -0.029 0.065
0.003 -0.031 0.071
-0.003 -0.015 0.053
-0.001 -0.015 0.057
-0.003 -0.015 0.055
-0.019 -0.009 0.067
0.003 -0.017 0.063
-0.013 -0.017 0.069
-0.011 -0.019 0.075
0.005 -0.031 0.053
-0.005 -0.023 0.051
0.003 -0.031 0.069
0.021 -0.039 0.073
0.023 -0.041 0.079
0.021 -0.039 0.079
0.013 -0.035 0.077
0.013 -0.035 0.083
0.027 -0.041 0.083
0.023 -0.037 0.083
0.023 -0.039 0.083
0.025 -0.039 0.085
0.033 -0.043 0.081
0.003 -0.025 0.069
0.003 -0.021 0.067
-0.005 -0.023 0.075
-0.005 -0.023 0.077
0.003 -0.031 0.073
-0.001 -0.025 0.075
-0.005 -0.025 0.081
-0.015 -0.013 0.075
-0.011 -0.019 0.075
-0.009 -0.021 0.081
-0.001 -0.025 0.091
0.003 -0.029 0.089
0.003 -0.027 0.091
0.009 -0.031 0.089
0.003 -0.027 0.091
0.001 -0.021 0.093
0.003 -0.023 0.095
-0.001 -0.019 0.093
-0.003 -0.025 0.089
-0.007 -0.013 0.091
-0.035 0.001 0.037
-0.035 0.005 0.045
-0.041 0.011 0.045
-0.035 0.005 0.045
-0.041 0.011 0.047
-0.047 0.019 0.039
-0.047 0.023 0.041
-0.041 0.017 0.045
-0.041 0.019 0.045
-0.041 0.029 0.043
-0.041 0.021 0.055
-0.041 0.027 0.059
-0.039 0.029 0.063
-0.035 0.003 0.039
-0.025 -0.003 0.045
-0.029 0.003 0.043
-0.025 -0.005 0.051
-0.027 0.007 0.051
-0.023 0.007 0.055
-0.039 0.009 0.047
-0.037 0.013 0.055
-0.037 0.017 0.059
-0.023 0.005 0.055
-0.023 0.011 0.057
-0.021 0.001 0.061
-0.019 -0.005 0.069
-0.019 -0.005 0.069
-0.039 0.023 0.065
-0.035 0.015 0.061
-0.039 0.031 0.041
-0.041 0.021 0.055
-0.039 0.029 0.059
-0.039 0.025 0.063
-0.033 0.003 0.087
-0.037 0.017 0.081
-0.039 0.019 0.095
-0.017 -0.001 0.071
-0.029 0.003 0.081
-0.023 0.003 0.075
-0.021 0.001 0.075
-0.015 -0.001 0.075
-0.021 0.001 0.075
-0.015 -0.003 0.081
-0.029 -0.007 0.087
-0.033 0.011 0.071
-0.033 0.013 0.073
-0.035 0.023 0.073
-0.035 0.021 0.071
-0.035 0.023 0.071
-0.031 -0.001 0.099
-0.033 0.005 0.093
-0.035 0.013 0.087
-0.035 0.017 0.089
-0.037 0.023 0.087
-0.037 0.019 0.099
-0.035 0.009 0.101
-0.043 0.041 0.087
-0.039 0.047 0.093
-0.039 0.033 0.089
-0.035 0.035 0.089
-0.035 0.039 0.089
-0.041 0.041 0.089
-0.043 0.029 0.095
-0.043 0.035 0.095
-0.043 0.035 0.095
-0.031 0.001 0.103
-0.031 0.001 0.103
-0.029 0.009 0.105
-0.027 0.007 0.109
-0.027 0.009 0.111
-0.037 0.019 0.103
-0.031 0.017 0.105
-0.027 0.023 0.105
-0.025 0.007 0.113
-0.043 0.035 0.101
-0.019 -0.009 0.051
-0.023 0.003 0.055
-0.017 -0.005 0.075
-0.005 -0.037 0.035
-0.001 -0.035 0.039
-0.009 -0.025 0.043
-0.005 -0.031 0.041
-0.005 -0.029 0.043
-0.023 -0.007 0.039
-0.029 -0.005 0.041
-0.023 -0.007 0.047
-0.009 -0.003 0.039
-0.009 -0.009 0.047
-0.019 -0.001 0.079
-0.015 -0.013 0.079
-0.015 -0.013 0.079
-0.003 -0.025 0.089
-0.031 -0.003 0.091
-0.027 -0.009 0.095
-0.003 -0.017 0.093
-0.005 -0.013 0.093
-0.003 -0.017 0.093
-0.029 -0.005 0.099
-0.031 -0.003 0.099
-0.021 -0.003 0.107
-0.017 -0.011 0.113
-0.017 -0.011 0.113
0.009 -0.035 0.039
0.017 -0.035 0.035
0.015 -0.035 0.035
0.035 -0.033 0.049
0.037 -0.033 0.057
0.007 -0.035 0.039
0.009 -0.035 0.039
0.011 -0.031 0.045
0.017 -0.031 0.041
0.025 -0.029 0.043
0.027 -0.027 0.045
0.027 -0.027 0.045
0.023 -0.025 0.043
0.019 -0.023 0.045
0.019 -0.023 0.047
-0.001 -0.029 0.047
0.011 -0.033 0.057
-0.001 -0.029 0.055
0.011 -0.035 0.063
0.015 -0.029 0.055
0.017 -0.031 0.059
0.011 -0.033 0.057
0.023 -0.037 0.065
0.027 -0.037 0.067
0.017 -0.035 0.069
0.003 -0.033 0.067
0.011 -0.037 0.069
0.017 -0.035 0.071
0.015 -0.035 0.067
0.023 -0.039 0.071
0.023 -0.039 0.073
0.017 -0.035 0.077
0.025 -0.041 0.075
0.037 -0.031 0.047
0.033 -0.035 0.059
0.029 -0.037 0.065
0.029 -0.037 0.067
0.021 -0.039 0.077
0.021 -0.039 0.079
0.015 -0.035 0.081
0.025 -0.039 0.083
0.003 -0.033 0.073
0.003 -0.033 0.077
0.001 -0.031 0.081
0.015 -0.033 0.087
-0.001 -0.025 0.075
0.003 -0.023 0.095
0.009 -0.027 0.093
0.003 -0.023 0.095
-0.019 -0.001 0.033
-0.019 -0.003 0.037
-0.017 -0.005 0.041
-0.009 -0.005 0.041
-0.023 -0.005 0.051
-0.019 -0.009 0.053
-0.017 -0.011 0.057
-0.033 0.003 0.041
-0.043 0.015 0.041
-0.051 0.017 0.035
-0.051 0.017 0.037
-0.043 0.015 0.041
-0.043 0.021 0.041
-0.033 0.005 0.045
-0.043 0.015 0.041
-0.035 0.013 0.055
-0.039 0.017 0.057
-0.041 0.015 0.055
-0.035 0.015 0.057
-0.041 0.023 0.057
-0.019 -0.001 0.035
-0.017 -0.007 0.043
-0.013 -0.005 0.039
-0.005 -0.017 0.049
-0.005 -0.021 0.053
-0.007 -0.007 0.047
-0.003 -0.025 0.057
-0.023 -0.005 0.053
-0.011 -0.015 0.063
-0.007 -0.015 0.063
-0.009 -0.017 0.067
-0.023 -0.001 0.057
-0.023 -0.001 0.057
-0.025 0.013 0.057
-0.003 -0.015 0.065
-0.007 -0.019 0.071
-0.017 -0.009 0.075
-0.019 0.001 0.075
-0.033 0.009 0.051
-0.033 0.015 0.055
-0.035 0.015 0.059
-0.005 -0.013 0.061
-0.023 0.007 0.067
-0.029 0.005 0.077
-0.033 0.003 0.087
-0.035 0.011 0.087
-0.039 0.025 0.085
-0.041 0.023 0.093
-0.025 0.007 0.067
-0.021 0.009 0.065
-0.017 -0.001 0.081
-0.031 -0.001 0.085
-0.011 -0.019 0.081
-0.009 -0.021 0.081
-0.031 -0.003 0.089
-0.029 -0.005 0.089
-0.017 -0.001 0.083
-0.029 -0.007 0.089
-0.011 0.001 0.093
-0.013 0.001 0.095
-0.015 0.003 0.097
-0.029 -0.007 0.095
-0.023 0.001 0.097
-0.019 -0.001 0.097
-0.021 0.001 0.099
-0.019 0.001 0.099
-0.031 -0.003 0.101
-0.031 -0.003 0.101
-0.029 -0.007 0.103
-0.037 0.011 0.095
-0.033 0.001 0.101
-0.039 0.019 0.101
-0.033 0.001 0.107
-0.029 0.005 0.103
-0.025 0.003 0.105
-0.025 0.005 0.111
-0.027 0.007 0.107
-0.029 0.013 0.105
-0.021 0.009 0.109
-0.031 0.013 0.105
-0.039 0.023 0.103
-0.039 0.023 0.103
-0.037 0.023 0.103
-0.039 0.031 0.101
-0.037 0.033 0.105
-0.033 0.035 0.105
-0.025 0.005 0.111
-0.025 0.005 0.111
-0.001 -0.027 0.061
0.009 -0.035 0.063
0.001 -0.031 0.063
