-0.005 -0.037 0.037
-0.003 -0.011 0.091
0.003 -0.011 0.091
-0.005 -0.019 0.091
-0.005 -0.017 0.091
0.001 -0.019 0.095
-0.029 -0.007 0.103
0.011 -0.037 0.075
0.021 -0.027 0.079
0.011 -0.007 0.049
0.021 -0.011 0.071
0.019 -0.033 0.085
0.031 -0.029 0.067
0.017 -0.019 0.085
0.015 -0.015 0.081
0.039 -0.021 0.053
0.037 -0.019 0.051
0.017 -0.035 0.073
0.031 -0.037 0.089
0.029 -0.035 0.087
0.007 -0.025 0.095
0.009 -0.027 0.093
0.003 -0.019 0.095
0.017 -0.027 0.087
-0.017 -0.005 0.111
-0.019 -0.001 0.111
-0.027 0.015 0.105
-0.017 0.023 0.061
-0.007 0.019 0.049
-0.009 0.021 0.051
-0.015 -0.005 0.111
0.001 -0.001 0.075
-0.017 0.019 0.057
-0.011 0.029 0.053
-0.019 0.029 0.061
-0.031 0.015 0.105
-0.023 0.005 0.115
-0.025 0.023 0.105
-0.021 0.027 0.099
-0.031 0.027 0.105
-0.035 0.031 0.103
-0.029 0.037 0.101
-0.031 0.049 0.087
-0.017 -0.003 0.111
-0.017 0.013 0.107
-0.029 0.031 0.101
-0.029 0.027 0.105
-0.015 0.017 0.101
-0.035 0.037 0.107
0.003 0.011 0.043
0.013 0.005 0.039
-0.001 -0.011 0.039
-0.001 0.003 0.051
-0.017 0.023 0.057
0.001 -0.011 0.053
0.001 -0.013 0.091
-0.021 0.029 0.089
-0.011 -0.003 0.083
-0.009 0.005 0.089
-0.003 -0.015 0.095
0.025 -0.009 0.035
0.027 -0.011 0.035
0.025 -0.003 0.035
0.019 -0.001 0.037
0.027 -0.003 0.047
0.021 -0.005 0.051
0.011 -0.003 0.043
0.023 -0.005 0.061
0.009 -0.011 0.053
0.001 0.001 0.061
0.021 -0.005 0.051
0.023 -0.005 0.053
0.021 -0.005 0.051
0.023 -0.005 0.061
0.027 -0.031 0.071
0.035 -0.039 0.085
-0.025 0.035 0.035
-0.019 0.037 0.043
-0.025 0.037 0.041
-0.045 0.027 0.037
-0.035 0.037 0.043
-0.007 0.037 0.045
-0.017 0.033 0.051
-0.001 0.023 0.039
0.001 0.021 0.037
-0.005 0.023 0.047
-0.005 0.033 0.039
-0.017 0.023 0.061
-0.001 0.007 0.053
-0.001 0.003 0.057
-0.003 0.007 0.057
-0.009 0.027 0.049
-0.037 0.033 0.063
-0.019 0.037 0.033
-0.033 0.029 0.071
-0.031 0.027 0.089
-0.015 0.005 0.065
-0.017 0.017 0.079
-0.017 0.023 0.085
-0.017 0.021 0.089
-0.031 0.043 0.091
-0.029 0.043 0.089
-0.029 0.027 0.105
-0.035 0.043 0.105
-0.027 0.039 0.097
0.003 0.009 0.041
0.001 0.007 0.043
0.021 -0.003 0.043
-0.001 0.003 0.053
-0.009 0.005 0.091
-0.015 -0.007 0.113
0.025 -0.009 0.033
0.031 -0.011 0.041
0.019 -0.027 0.055
0.017 -0.023 0.053
0.027 -0.005 0.057
0.029 -0.005 0.057
0.039 -0.019 0.037
0.035 -0.041 0.075
0.019 -0.021 0.069
0.015 -0.017 0.083
0.013 -0.015 0.085
0.003 0.015 0.039
0.005 0.011 0.037
0.003 0.019 0.033
0.001 0.021 0.033
-0.009 0.017 0.053
-0.007 0.021 0.049
-0.021 0.033 0.055
-0.003 0.031 0.037
-0.007 0.031 0.047
-0.005 0.029 0.041
-0.005 0.031 0.041
-0.013 0.009 0.059
-0.007 0.025 0.049
-0.027 0.037 0.041
-0.025 0.037 0.043
-0.007 0.039 0.039
-0.001 0.003 0.067
-0.023 0.025 0.075
-0.011 0.009 0.089
-0.011 0.007 0.087
-0.017 0.021 0.085
-0.017 0.021 0.095
-0.019 0.025 0.091
-0.025 0.041 0.083
-0.031 0.049 0.085
-0.029 0.047 0.087
-0.027 0.039 0.095
-0.015 0.015 0.105
-0.017 0.017 0.105
-0.025 0.039 0.099
-0.031 0.035 0.103
0.027 -0.009 0.063
0.025 -0.011 0.063
0.027 -0.009 0.063
0.029 -0.007 0.059
0.021 -0.027 0.071
0.001 -0.007 0.063
0.021 -0.011 0.071
0.007 -0.021 0.093
-0.019 -0.001 0.093
0.003 -0.007 0.087
0.041 -0.027 0.051
0.041 -0.021 0.049
0.039 -0.031 0.047
0.039 -0.023 0.053
0.031 -0.031 0.067
0.037 -0.031 0.061
0.031 -0.035 0.085
0.019 -0.019 0.079
0.015 -0.019 0.087
0.013 -0.021 0.089
0.011 -0.013 0.087
-0.003 0.007 0.055
-0.007 0.025 0.049
-0.003 0.005 0.063
-0.021 0.013 0.063
-0.019 0.027 0.061
0.029 -0.003 0.055
-0.003 0.021 0.043
-0.021 0.011 0.061
-0.001 0.005 0.057
-0.019 0.027 0.061
-0.009 0.027 0.051
-0.011 0.027 0.053
-0.017 0.033 0.055
-0.011 0.001 0.099
-0.009 0.001 0.101
-0.019 0.025 0.089
-0.021 0.029 0.087
-0.017 0.009 0.073
-0.003 0.001 0.079
-0.013 0.013 0.097
-0.021 0.029 0.087
-0.023 0.007 0.115
-0.033 0.033 0.105
-0.031 0.035 0.103
-0.001 -0.035 0.039
0.031 -0.037 0.065
0.037 -0.033 0.053
0.039 -0.025 0.057
0.019 -0.021 0.069
0.015 -0.017 0.087
0.013 -0.015 0.087
0.035 -0.019 0.033
0.031 -0.037 0.061
0.037 -0.033 0.057
0.033 -0.033 0.045
0.025 -0.005 0.035
0.037 -0.015 0.041
0.029 -0.005 0.045
0.037 -0.033 0.051
0.023 -0.011 0.051
0.027 -0.013 0.061
0.037 -0.043 0.079
0.033 -0.033 0.065
0.023 -0.013 0.067
0.019 -0.013 0.071
0.031 -0.037 0.089
0.011 -0.027 0.093
0.009 -0.025 0.095
0.009 -0.023 0.093
0.007 -0.009 0.081
0.009 -0.011 0.087
0.037 -0.015 0.037
-0.009 0.029 0.033
0.041 -0.025 0.045
0.041 -0.027 0.051
0.039 -0.017 0.045
0.041 -0.021 0.043
0.029 -0.003 0.049
-0.001 0.019 0.041
0.031 -0.011 0.057
0.025 -0.013 0.063
-0.019 0.025 0.063
0.007 -0.013 0.091
0.019 -0.019 0.079
0.003 -0.003 0.073
-0.017 0.019 0.071
-0.013 0.013 0.093
-0.015 0.015 0.085
-0.011 0.009 0.091
-0.019 0.023 0.095
-0.017 0.021 0.087
-0.019 0.029 0.085
-0.033 0.045 0.091
-0.025 0.035 0.087
-0.009 0.003 0.101
-0.029 0.041 0.103
0.017 0.003 0.035
-0.003 -0.023 0.059
-0.017 -0.011 0.055
-0.015 -0.003 0.081
-0.029 -0.005 0.089
-0.029 -0.005 0.101
-0.005 -0.017 0.039
-0.005 -0.023 0.045
0.011 -0.037 0.071
-0.001 -0.031 0.043
0.005 -0.033 0.049
-0.001 -0.025 0.061
0.001 -0.021 0.063
-0.001 -0.029 0.059
-0.003 -0.017 0.055
-0.003 -0.019 0.057
-0.003 -0.017 0.055
-0.015 -0.015 0.075
-0.001 -0.029 0.059
0.011 -0.037 0.069
0.007 -0.035 0.077
0.017 -0.035 0.077
0.027 -0.041 0.083
0.005 -0.035 0.073
-0.015 -0.011 0.079
0.005 -0.025 0.093
-0.001 -0.019 0.093
0.015 -0.031 0.089
-0.035 0.003 0.039
-0.035 0.003 0.037
-0.049 0.021 0.039
-0.033 -0.001 0.037
-0.033 0.003 0.041
-0.029 0.011 0.053
-0.041 0.021 0.051
-0.037 0.029 0.065
-0.037 0.029 0.067
-0.033 0.005 0.091
-0.033 -0.001 0.097
-0.031 -0.005 0.097
-0.035 0.015 0.087
-0.035 0.013 0.089
-0.035 0.013 0.091
-0.035 0.009 0.095
-0.043 0.033 0.097
-0.039 0.041 0.091
-0.037 0.039 0.089
-0.037 0.029 0.087
-0.037 0.029 0.101
-0.033 0.003 0.103
-0.027 0.009 0.107
-0.033 0.003 0.103
-0.025 0.017 0.105
-0.035 0.033 0.105
-0.003 -0.019 0.057
-0.025 -0.005 0.053
-0.023 0.001 0.057
-0.013 -0.017 0.071
-0.017 -0.013 0.067
-0.001 -0.013 0.037
-0.029 -0.005 0.039
-0.001 -0.025 0.037
-0.025 -0.003 0.047
-0.025 0.001 0.053
-0.003 -0.027 0.053
-0.003 -0.023 0.057
-0.021 -0.007 0.055
-0.019 -0.001 0.065
0.003 -0.033 0.077
-0.015 -0.011 0.075
-0.019 -0.003 0.067
-0.039 0.007 0.037
-0.039 0.009 0.049
-0.037 0.029 0.037
-0.023 0.007 0.055
-0.037 0.017 0.063
-0.041 0.027 0.055
-0.013 0.041 0.041
-0.037 0.017 0.065
-0.039 0.027 0.085
-0.033 0.013 0.077
-0.033 0.031 0.069
-0.033 0.009 0.085
-0.035 0.005 0.097
-0.039 0.031 0.085
-0.041 0.023 0.093
-0.041 0.035 0.083
-0.039 0.043 0.091
-0.041 0.039 0.089
-0.033 0.001 0.101
-0.035 0.015 0.105
-0.037 0.015 0.101
-0.033 -0.003 0.035
-0.019 -0.005 0.069
-0.005 -0.017 0.091
0.035 -0.033 0.049
0.017 -0.023 0.049
0.007 -0.031 0.053
-0.001 -0.029 0.057
0.013 -0.035 0.063
0.017 -0.029 0.057
0.033 -0.033 0.049
0.037 -0.033 0.059
0.033 -0.035 0.065
0.021 -0.037 0.081
0.037 -0.041 0.087
0.021 -0.035 0.067
0.001 -0.023 0.093
-0.013 -0.005 0.039
-0.013 -0.007 0.043
-0.049 0.017 0.039
-0.041 0.011 0.051
-0.003 -0.009 0.055
-0.013 -0.011 0.053
-0.009 -0.021 0.075
-0.019 -0.007 0.067
-0.017 -0.011 0.073
-0.019 0.003 0.071
-0.015 -0.015 0.075
-0.019 -0.009 0.063
-0.029 0.013 0.055
-0.041 0.031 0.083
-0.039 0.023 0.083
-0.025 0.007 0.067
-0.017 -0.001 0.089
-0.011 0.001 0.093
-0.023 0.003 0.103
-0.023 0.001 0.105
-0.013 0.003 0.101
-0.027 0.007 0.109
-0.041 0.039 0.105
-0.001 -0.029 0.059
-0.001 -0.027 0.061
-0.001 -0.015 0.067
-0.005 -0.007 0.049
-0.015 -0.013 0.063
-0.005 -0.013 0.059
-0.007 -0.015 0.063
-0.015 -0.007 0.079
-0.015 -0.003 0.081
-0.007 -0.015 0.089
0.023 -0.035 0.033
0.027 -0.037 0.061
0.011 -0.031 0.047
0.023 -0.023 0.047
0.027 -0.025 0.049
0.015 -0.031 0.059
0.027 -0.035 0.059
0.019 -0.033 0.065
0.029 -0.029 0.047
0.029 -0.033 0.053
0.011 -0.037 0.073
0.027 -0.041 0.083
0.001 -0.027 0.067
0.001 -0.023 0.073
0.011 -0.033 0.087
-0.035 0.001 0.037
-0.039 0.009 0.045
-0.037 0.007 0.039
-0.007 -0.001 0.037
-0.011 -0.011 0.051
-0.021 -0.005 0.057
-0.013 -0.015 0.061
-0.039 0.009 0.047
-0.037 0.017 0.087
-0.021 0.009 0.065
-0.031 0.007 0.075
-0.013 -0.003 0.085
-0.013 0.001 0.095
-0.029 -0.007 0.097
-0.033 0.003 0.103
-0.031 0.001 0.103
-0.027 0.007 0.105
-0.031 -0.003 0.099
-0.031 -0.003 0.031
-0.009 -0.029 0.037
0.005 -0.033 0.047
-0.017 -0.011 0.057
-0.003 -0.027 0.053
0.019 -0.035 0.033
0.035 -0.033 0.063
0.017 -0.035 0.033
0.001 -0.025 0.035
0.015 -0.035 0.035
0.015 -0.027 0.045
0.015 -0.033 0.041
0.025 -0.031 0.043
0.021 -0.023 0.045
0.017 -0.031 0.061
0.015 -0.025 0.049
0.041 -0.023 0.041
0.041 -0.025 0.043
0.041 -0.027 0.051
0.025 -0.041 0.075
0.011 -0.037 0.069
0.021 -0.039 0.077
0.011 -0.031 0.089
-0.025 -0.003 0.031
-0.031 -0.003 0.037
-0.033 0.007 0.049
-0.039 0.009 0.049
-0.037 0.013 0.055
0.007 -0.033 0.047
-0.023 -0.005 0.053
-0.019 -0.009 0.053
-0.011 -0.015 0.061
0.003 -0.031 0.051
-0.003 -0.025 0.057
-0.001 -0.035 0.039
-0.005 -0.033 0.041
-0.031 0.011 0.065
-0.023 -0.001 0.089
-0.017 -0.001 0.091
-0.009 -0.021 0.081
-0.021 0.003 0.103
0.019 -0.035 0.037
-0.037 0.037 0.049
-0.035 0.035 0.057
-0.039 0.035 0.053
-0.041 0.025 0.047
-0.033 0.035 0.063
-0.035 0.047 0.091
-0.025 0.037 0.043
0.015 -0.005 0.051
-0.017 0.033 0.053
0.019 -0.005 0.049
-0.013 0.037 0.043
0.015 -0.003 0.047
-0.029 0.033 0.065
-0.023 0.033 0.061
0.021 -0.005 0.053
-0.001 0.001 0.071
0.005 -0.007 0.083
0.015 -0.017 0.067
-0.051 0.021 0.035
-0.041 0.023 0.045
-0.041 0.031 0.047
-0.039 0.027 0.037
-0.033 0.035 0.059
-0.025 0.033 0.065
-0.019 0.027 0.067
-0.025 0.035 0.061
-0.019 0.033 0.051
-0.019 0.033 0.055
-0.037 0.033 0.061
-0.031 0.037 0.041
-0.029 0.039 0.047
-0.043 0.035 0.095
-0.041 0.037 0.095
-0.005 0.005 0.067
-0.043 0.039 0.081
-0.023 0.027 0.073
-0.041 0.039 0.081
-0.039 0.043 0.091
-0.035 0.047 0.085
-0.043 0.037 0.097
-0.041 0.041 0.101
-0.025 0.011 0.111
-0.039 0.039 0.097
-0.033 0.039 0.099
-0.029 0.043 0.101
-0.033 0.043 0.105
