-0.029 -0.005 0.033
-0.009 -0.025 0.043
-0.003 -0.029 0.045
-0.013 -0.015 0.061
-0.015 -0.013 0.063
-0.009 -0.021 0.077
-0.013 -0.015 0.083
-0.003 -0.027 0.081
-0.005 -0.025 0.083
-0.029 -0.005 0.087
-0.027 -0.005 0.091
-0.027 -0.009 0.097
-0.031 -0.003 0.101
0.001 -0.035 0.037
0.021 -0.035 0.033
-0.001 -0.035 0.037
0.001 -0.035 0.037
0.007 -0.035 0.037
0.009 -0.033 0.045
0.027 -0.035 0.033
0.019 -0.033 0.063
0.027 -0.035 0.059
-0.005 -0.033 0.039
0.011 -0.031 0.045
0.023 -0.023 0.047
-0.005 -0.025 0.049
-0.005 -0.023 0.051
0.003 -0.031 0.049
0.001 -0.031 0.045
0.017 -0.025 0.051
0.001 -0.031 0.055
0.001 -0.031 0.055
0.009 -0.031 0.055
0.027 -0.027 0.053
0.015 -0.033 0.061
0.005 -0.033 0.067
0.001 -0.029 0.065
0.005 -0.033 0.065
0.005 -0.035 0.071
0.025 -0.023 0.049
0.033 -0.035 0.055
0.025 -0.037 0.063
0.017 -0.035 0.069
0.029 -0.041 0.073
0.021 -0.039 0.073
0.021 -0.039 0.079
0.007 -0.033 0.081
0.001 -0.027 0.075
0.003 -0.033 0.071
0.009 -0.035 0.077
-0.005 -0.025 0.079
-0.001 -0.029 0.081
-0.023 -0.007 0.043
-0.041 0.021 0.041
-0.041 0.015 0.055
-0.041 0.023 0.055
-0.029 0.005 0.047
-0.023 -0.007 0.043
-0.039 0.007 0.037
-0.033 0.003 0.043
-0.033 0.003 0.043
-0.035 0.005 0.043
-0.023 -0.007 0.047
-0.023 -0.003 0.055
-0.023 0.003 0.055
-0.027 0.013 0.057
-0.021 -0.001 0.059
-0.019 -0.001 0.065
-0.029 0.011 0.061
-0.033 0.011 0.069
-0.041 0.027 0.049
-0.037 0.013 0.055
-0.037 0.021 0.069
-0.035 0.007 0.093
-0.035 0.009 0.093
-0.037 0.011 0.095
-0.037 0.015 0.095
-0.039 0.019 0.095
-0.019 -0.001 0.065
-0.027 0.009 0.067
-0.031 0.009 0.071
-0.029 -0.001 0.085
-0.015 -0.015 0.073
-0.013 -0.015 0.083
-0.033 0.021 0.075
-0.023 -0.001 0.083
-0.019 -0.001 0.087
-0.019 -0.003 0.091
-0.035 0.013 0.087
-0.035 0.015 0.087
-0.035 0.005 0.097
-0.031 -0.003 0.097
-0.033 0.001 0.099
-0.039 0.033 0.089
-0.041 0.027 0.095
-0.041 0.023 0.093
-0.041 0.025 0.093
-0.039 0.025 0.091
-0.039 0.033 0.089
-0.035 0.005 0.103
-0.035 0.007 0.097
-0.035 0.003 0.107
-0.039 0.023 0.097
-0.037 0.023 0.099
-0.013 0.003 0.101
-0.015 0.005 0.101
-0.013 -0.009 0.047
-0.005 -0.025 0.047
-0.005 -0.025 0.049
-0.013 -0.015 0.065
0.007 -0.005 0.043
0.007 -0.005 0.043
0.001 -0.011 0.037
0.001 -0.011 0.049
0.001 -0.011 0.051
-0.015 0.033 0.047
-0.011 0.033 0.045
-0.017 0.033 0.053
0.001 -0.011 0.037
-0.003 0.005 0.065
-0.007 0.001 0.077
-0.005 0.001 0.077
-0.015 0.005 0.067
-0.013 0.001 0.075
-0.009 0.001 0.077
-0.001 -0.011 0.091
-0.003 -0.005 0.087
-0.013 -0.003 0.083
-0.009 -0.007 0.089
0.001 -0.007 0.089
-0.019 0.019 0.103
-0.021 0.007 0.107
0.025 -0.009 0.037
0.009 -0.015 0.061
0.019 -0.009 0.065
0.027 -0.029 0.065
0.037 -0.017 0.047
0.017 -0.005 0.041
0.015 -0.003 0.037
0.019 -0.003 0.039
0.019 -0.005 0.043
0.015 -0.009 0.051
0.029 -0.003 0.049
0.013 -0.003 0.039
0.007 0.001 0.039
0.017 0.005 0.037
0.017 0.005 0.035
0.015 -0.017 0.055
0.031 -0.005 0.053
0.021 -0.009 0.063
0.015 -0.005 0.051
0.031 -0.005 0.055
0.031 -0.007 0.057
0.035 -0.015 0.035
0.037 -0.015 0.041
0.037 -0.025 0.059
0.017 -0.017 0.081
0.031 -0.035 0.081
0.031 -0.035 0.087
0.007 -0.013 0.075
0.017 -0.011 0.065
0.019 -0.011 0.071
0.003 -0.007 0.071
0.005 -0.011 0.073
0.017 -0.021 0.087
-0.009 0.043 0.043
0.001 0.021 0.033
-0.019 0.037 0.043
-0.021 0.037 0.045
-0.035 0.037 0.043
-0.029 0.037 0.039
-0.043 0.027 0.035
-0.035 0.035 0.039
-0.039 0.033 0.043
-0.029 0.037 0.059
-0.035 0.037 0.055
-0.037 0.035 0.055
-0.009 0.043 0.043
-0.011 0.043 0.043
0.001 0.011 0.047
-0.007 0.039 0.037
-0.017 0.019 0.057
-0.021 0.029 0.065
-0.007 0.011 0.057
-0.017 0.027 0.059
-0.033 0.037 0.043
-0.033 0.037 0.047
-0.019 0.037 0.041
-0.007 0.039 0.039
-0.009 0.037 0.045
-0.011 0.043 0.043
-0.017 0.015 0.071
-0.021 0.025 0.073
-0.017 0.021 0.083
-0.023 0.035 0.083
-0.029 0.021 0.077
-0.017 0.013 0.073
-0.017 0.019 0.077
-0.019 0.027 0.087
-0.015 0.017 0.085
-0.015 0.015 0.093
-0.021 0.031 0.087
-0.019 0.029 0.083
-0.027 0.027 0.091
-0.043 0.045 0.083
-0.025 0.041 0.085
-0.023 0.035 0.083
-0.029 0.037 0.101
-0.033 0.043 0.103
-0.019 0.021 0.103
-0.015 0.015 0.099
-0.015 0.017 0.101
-0.023 0.011 0.111
-0.023 0.023 0.105
-0.011 0.007 0.097
-0.015 0.015 0.107
-0.019 0.027 0.097
-0.043 0.039 0.099
-0.029 0.043 0.103
0.027 -0.009 0.063
0.027 -0.011 0.061
0.027 -0.009 0.063
0.025 -0.011 0.065
-0.003 -0.013 0.063
0.017 -0.019 0.085
0.011 -0.025 0.091
-0.017 -0.001 0.091
-0.019 -0.003 0.091
-0.027 -0.001 0.101
0.041 -0.025 0.049
0.041 -0.023 0.043
0.037 -0.015 0.045
0.039 -0.017 0.045
0.019 -0.035 0.037
0.033 -0.033 0.067
0.039 -0.029 0.051
0.039 -0.031 0.057
0.041 -0.023 0.051
0.037 -0.019 0.051
0.041 -0.027 0.053
0.041 -0.025 0.051
0.037 -0.021 0.055
0.031 -0.009 0.051
0.031 -0.005 0.051
0.029 -0.007 0.045
0.031 -0.011 0.055
0.021 -0.015 0.045
0.033 -0.013 0.045
0.035 -0.029 0.063
0.031 -0.027 0.065
0.017 -0.017 0.063
0.021 -0.013 0.061
0.017 -0.017 0.065
0.029 -0.011 0.051
0.029 -0.005 0.057
0.029 -0.003 0.053
0.039 -0.019 0.037
0.039 -0.029 0.045
0.029 -0.035 0.077
0.027 -0.035 0.073
0.031 -0.035 0.081
0.035 -0.043 0.087
0.037 -0.039 0.087
0.021 -0.023 0.079
0.011 -0.027 0.093
0.011 -0.025 0.093
0.013 -0.029 0.091
0.017 -0.029 0.087
0.003 0.015 0.041
-0.003 0.031 0.037
-0.001 0.003 0.061
-0.011 0.021 0.053
-0.019 0.015 0.067
-0.001 0.005 0.047
0.001 0.021 0.037
-0.003 0.005 0.063
-0.003 0.007 0.061
-0.021 0.015 0.061
-0.001 0.005 0.061
-0.025 0.035 0.059
-0.025 0.031 0.069
-0.023 0.031 0.067
-0.007 0.035 0.039
-0.007 0.039 0.043
-0.023 0.029 0.071
-0.011 0.009 0.093
-0.019 0.025 0.089
-0.019 0.007 0.071
-0.015 0.011 0.079
-0.009 0.007 0.067
-0.005 0.005 0.069
-0.017 0.019 0.069
-0.021 0.027 0.071
-0.023 0.029 0.071
-0.021 0.023 0.075
-0.017 -0.001 0.087
-0.019 0.029 0.085
-0.019 0.025 0.091
-0.025 0.031 0.099
-0.031 0.043 0.091
-0.019 0.003 0.107
-0.015 0.009 0.105
-0.021 0.007 0.105
-0.019 0.003 0.109
-0.019 0.005 0.105
-0.009 0.001 0.097
-0.017 0.019 0.099
-0.021 0.027 0.103
-0.021 0.019 0.105
-0.021 0.021 0.105
-0.023 0.005 0.115
-0.023 0.037 0.099
0.015 0.007 0.037
0.005 0.011 0.035
0.001 0.001 0.067
-0.007 -0.027 0.045
-0.007 -0.027 0.045
-0.021 -0.007 0.055
-0.017 -0.011 0.063
-0.017 -0.011 0.059
-0.011 -0.019 0.077
-0.011 -0.019 0.075
-0.009 -0.021 0.079
-0.003 -0.027 0.085
-0.031 -0.005 0.097
-0.001 -0.017 0.033
-0.029 -0.005 0.039
-0.003 -0.025 0.057
0.003 -0.031 0.067
0.001 -0.027 0.067
-0.003 -0.013 0.041
-0.005 -0.025 0.047
-0.003 -0.013 0.039
-0.027 -0.001 0.043
-0.029 -0.003 0.043
-0.029 -0.003 0.043
0.001 -0.029 0.061
-0.001 -0.019 0.061
-0.001 -0.021 0.061
-0.023 0.001 0.057
-0.019 -0.003 0.065
-0.019 0.003 0.061
-0.019 -0.005 0.065
-0.003 -0.023 0.059
-0.021 -0.007 0.057
-0.015 -0.013 0.061
-0.001 -0.019 0.061
0.001 -0.021 0.063
0.001 -0.023 0.065
0.003 -0.031 0.069
0.003 -0.031 0.087
-0.003 -0.027 0.087
0.021 -0.039 0.079
0.001 -0.031 0.079
-0.001 -0.025 0.075
-0.019 -0.005 0.069
-0.013 -0.005 0.079
-0.019 -0.005 0.069
-0.005 -0.019 0.091
-0.029 -0.005 0.093
-0.051 0.021 0.037
-0.049 0.025 0.037
-0.047 0.015 0.039
-0.051 0.017 0.035
-0.049 0.019 0.039
-0.039 0.031 0.041
-0.039 0.029 0.059
-0.039 0.009 0.043
-0.041 0.013 0.047
-0.043 0.017 0.051
-0.039 0.023 0.041
-0.039 0.031 0.041
-0.037 0.019 0.065
-0.037 0.033 0.061
-0.037 0.035 0.041
-0.039 0.033 0.045
-0.035 0.037 0.047
-0.015 0.041 0.039
-0.037 0.035 0.055
-0.035 0.021 0.071
-0.037 0.027 0.069
-0.035 0.011 0.083
-0.033 0.009 0.091
-0.041 0.025 0.093
-0.043 0.029 0.095
-0.019 0.001 0.065
-0.033 0.013 0.067
-0.033 0.011 0.071
-0.031 0.007 0.077
-0.031 0.009 0.075
-0.031 0.007 0.079
-0.025 0.007 0.067
-0.031 0.009 0.073
-0.037 0.025 0.067
-0.033 0.019 0.077
-0.031 0.019 0.079
-0.029 0.003 0.081
-0.037 0.021 0.083
-0.035 0.023 0.089
-0.039 0.029 0.085
-0.041 0.045 0.087
-0.035 0.011 0.103
-0.039 0.031 0.101
-0.035 0.015 0.105
-0.017 0.013 0.107
-0.043 0.033 0.099
-0.041 0.039 0.105
-0.039 0.011 0.043
-0.045 0.021 0.041
-0.021 0.005 0.059
-0.005 -0.037 0.035
-0.003 -0.033 0.041
-0.025 -0.005 0.035
-0.031 -0.003 0.035
-0.019 -0.005 0.039
-0.025 -0.005 0.041
-0.017 -0.013 0.063
-0.009 -0.021 0.075
-0.007 -0.021 0.075
-0.015 -0.015 0.067
0.003 -0.033 0.067
0.003 -0.033 0.069
0.007 -0.035 0.073
-0.027 -0.009 0.095
-0.029 -0.003 0.091
-0.027 -0.009 0.095
-0.007 -0.023 0.083
-0.003 -0.027 0.085
0.003 -0.033 0.081
-0.015 -0.013 0.113
0.001 -0.033 0.035
0.001 -0.035 0.039
0.021 -0.035 0.033
0.003 -0.025 0.033
0.023 -0.033 0.039
0.019 -0.029 0.041
0.017 -0.035 0.037
0.011 -0.031 0.047
0.013 -0.031 0.043
0.025 -0.033 0.037
0.031 -0.027 0.033
0.033 -0.029 0.037
0.033 -0.033 0.047
0.017 -0.027 0.053
0.019 -0.027 0.055
0.029 -0.035 0.057
0.015 -0.025 0.049
0.029 -0.035 0.055
0.033 -0.033 0.051
0.023 -0.033 0.061
0.023 -0.033 0.061
0.033 -0.035 0.059
0.037 -0.031 0.061
0.039 -0.031 0.057
0.023 -0.039 0.069
0.025 -0.041 0.075
0.035 -0.043 0.087
0.005 -0.033 0.069
0.023 -0.041 0.077
0.009 -0.035 0.067
0.007 -0.033 0.087
-0.019 0.001 0.031
-0.025 -0.001 0.031
-0.035 0.001 0.035
-0.039 0.007 0.035
-0.035 0.013 0.055
-0.037 0.013 0.055
-0.037 0.017 0.059
0.001 -0.035 0.037
0.007 -0.033 0.043
-0.023 -0.005 0.035
0.003 -0.035 0.037
-0.021 -0.007 0.053
-0.029 0.013 0.057
0.007 -0.031 0.053
-0.001 -0.029 0.057
-0.009 -0.013 0.059
-0.023 -0.007 0.041
-0.033 0.015 0.055
-0.031 0.013 0.055
-0.021 -0.007 0.057
-0.007 -0.033 0.041
-0.013 -0.015 0.063
-0.031 0.009 0.073
-0.031 -0.001 0.085
-0.031 0.005 0.083
-0.025 -0.005 0.093
-0.029 -0.003 0.091
-0.013 -0.017 0.071
-0.023 0.001 0.079
0.003 -0.031 0.075
-0.009 -0.015 0.065
-0.009 -0.019 0.071
-0.023 0.001 0.077
-0.009 -0.019 0.073
-0.007 -0.023 0.081
-0.009 -0.021 0.081
-0.005 -0.025 0.081
-0.043 0.037 0.081
-0.029 0.003 0.081
-0.025 0.001 0.085
-0.025 -0.003 0.089
-0.021 -0.001 0.081
-0.011 -0.019 0.081
-0.031 -0.005 0.097
-0.027 -0.009 0.097
-0.025 0.005 0.109
-0.013 0.013 0.107
-0.015 0.005 0.101
0.013 -0.033 0.039
0.013 -0.033 0.041
0.023 -0.035 0.035
