-0.027 -0.007 0.041
-0.019 -0.009 0.057
-0.009 -0.021 0.075
-0.019 -0.005 0.067
-0.019 -0.007 0.067
-0.017 -0.001 0.079
-0.013 -0.017 0.071
-0.013 -0.015 0.081
-0.011 -0.017 0.085
-0.011 -0.011 0.085
-0.015 -0.003 0.081
-0.013 -0.005 0.085
-0.011 -0.011 0.085
-0.019 -0.007 0.109
-0.019 -0.007 0.111
-0.009 -0.001 0.103
-0.017 -0.011 0.113
0.011 -0.035 0.035
0.003 -0.033 0.063
0.029 -0.037 0.065
0.001 -0.035 0.039
0.025 -0.029 0.043
0.025 -0.023 0.049
-0.005 -0.023 0.053
0.001 -0.031 0.045
0.005 -0.031 0.053
0.005 -0.033 0.057
0.009 -0.033 0.059
0.029 -0.031 0.051
0.007 -0.031 0.053
0.007 -0.035 0.067
-0.003 -0.021 0.057
0.005 -0.035 0.071
0.033 -0.033 0.051
0.027 -0.027 0.053
0.025 -0.037 0.063
0.009 -0.035 0.071
0.029 -0.043 0.079
0.017 -0.033 0.087
0.031 -0.037 0.065
0.035 -0.043 0.077
0.003 -0.025 0.069
0.001 -0.029 0.075
0.005 -0.033 0.085
-0.009 -0.021 0.079
0.005 -0.033 0.075
-0.039 0.009 0.037
-0.037 0.005 0.035
-0.017 -0.001 0.035
-0.035 0.003 0.037
-0.041 0.013 0.045
-0.043 0.015 0.051
-0.035 0.015 0.063
-0.029 0.005 0.045
-0.027 0.003 0.045
-0.027 0.003 0.047
-0.017 -0.011 0.059
-0.017 -0.013 0.067
-0.019 -0.007 0.063
-0.031 0.011 0.063
-0.025 0.011 0.061
-0.041 0.021 0.041
-0.043 0.017 0.049
-0.041 0.017 0.047
-0.041 0.011 0.049
-0.041 0.013 0.053
-0.027 0.009 0.053
-0.031 0.011 0.053
-0.037 0.021 0.065
-0.037 0.023 0.067
-0.039 0.019 0.095
-0.027 0.005 0.071
-0.017 -0.013 0.071
-0.027 0.001 0.081
-0.033 0.007 0.085
-0.035 0.011 0.089
-0.031 -0.003 0.097
-0.037 0.017 0.091
-0.037 0.013 0.093
-0.039 0.023 0.091
-0.033 0.001 0.101
-0.037 0.017 0.099
-0.039 0.019 0.101
-0.033 0.001 0.107
-0.033 0.001 0.109
-0.025 0.005 0.107
-0.029 -0.005 0.103
-0.033 0.023 0.105
-0.005 -0.017 0.045
-0.001 0.003 0.051
-0.007 0.015 0.049
0.001 -0.011 0.053
0.001 -0.003 0.059
-0.015 0.015 0.055
-0.011 0.007 0.063
-0.017 0.005 0.065
0.001 0.001 0.061
0.005 -0.007 0.079
-0.001 -0.003 0.083
-0.015 0.003 0.071
-0.011 -0.001 0.079
-0.003 0.001 0.079
0.003 -0.011 0.091
-0.017 0.019 0.089
-0.019 0.021 0.093
-0.019 0.021 0.103
-0.019 0.019 0.103
0.015 0.007 0.037
0.019 0.001 0.035
0.025 -0.003 0.035
0.027 -0.003 0.047
0.007 -0.005 0.043
0.013 -0.003 0.045
0.011 0.001 0.039
0.021 -0.005 0.047
0.015 -0.011 0.051
0.005 -0.003 0.039
0.017 0.003 0.037
0.001 -0.009 0.047
0.007 -0.005 0.047
0.029 -0.011 0.037
0.019 -0.003 0.047
0.027 -0.003 0.047
0.029 -0.025 0.057
0.029 -0.005 0.061
0.035 -0.023 0.059
0.029 -0.029 0.069
0.021 -0.023 0.077
0.027 -0.035 0.077
0.011 -0.013 0.085
0.035 -0.039 0.083
0.027 -0.029 0.069
0.009 -0.013 0.077
0.007 -0.009 0.085
0.013 -0.027 0.091
0.019 -0.021 0.083
-0.005 0.033 0.039
-0.027 0.033 0.033
-0.023 0.037 0.045
-0.025 0.037 0.047
-0.001 0.017 0.041
-0.001 0.017 0.041
-0.013 0.041 0.041
-0.029 0.035 0.035
-0.015 0.041 0.037
-0.005 0.033 0.033
-0.015 0.027 0.057
-0.015 0.027 0.057
-0.015 0.031 0.055
-0.013 0.031 0.053
-0.033 0.037 0.045
-0.033 0.037 0.055
-0.011 0.043 0.043
-0.015 0.035 0.045
-0.031 0.037 0.051
-0.027 0.031 0.089
-0.023 0.029 0.093
-0.029 0.045 0.087
-0.029 0.041 0.097
-0.017 0.019 0.075
-0.029 0.031 0.069
-0.023 0.031 0.067
-0.019 0.027 0.085
-0.021 0.033 0.083
-0.025 0.037 0.087
-0.023 0.027 0.091
-0.031 0.043 0.091
-0.037 0.049 0.093
-0.021 0.033 0.083
-0.027 0.045 0.085
-0.029 0.039 0.095
-0.031 0.037 0.105
-0.029 0.041 0.103
-0.021 0.023 0.103
-0.013 0.013 0.097
-0.029 0.027 0.105
-0.037 0.037 0.107
0.003 0.013 0.041
0.033 -0.013 0.045
0.027 -0.017 0.047
0.001 0.007 0.043
-0.001 0.007 0.045
0.005 0.011 0.039
-0.003 0.005 0.039
0.015 -0.005 0.051
-0.001 0.005 0.055
0.001 -0.001 0.067
-0.003 0.005 0.063
0.005 -0.011 0.055
0.001 -0.005 0.061
0.001 -0.001 0.077
0.001 -0.009 0.067
-0.009 0.003 0.095
0.005 -0.007 0.085
-0.007 -0.001 0.081
-0.011 -0.003 0.083
-0.027 -0.005 0.103
-0.015 -0.005 0.111
0.023 -0.007 0.037
0.035 -0.013 0.043
0.033 -0.013 0.045
0.035 -0.013 0.041
0.031 -0.017 0.049
0.041 -0.019 0.043
0.031 -0.009 0.057
0.029 -0.009 0.061
0.031 -0.027 0.065
0.019 -0.009 0.063
0.037 -0.017 0.035
0.033 -0.033 0.067
0.029 -0.035 0.077
0.019 -0.025 0.083
0.009 -0.015 0.075
0.013 -0.017 0.073
0.007 -0.017 0.073
0.023 -0.011 0.067
0.011 -0.025 0.093
0.019 -0.023 0.083
0.003 -0.005 0.081
0.001 0.021 0.035
0.001 0.015 0.043
-0.005 0.029 0.045
-0.021 0.035 0.051
-0.023 0.037 0.053
-0.005 0.031 0.039
-0.005 0.029 0.043
-0.007 0.007 0.065
-0.021 0.015 0.065
-0.021 0.015 0.061
-0.001 0.005 0.051
-0.001 0.005 0.055
-0.011 0.015 0.055
-0.013 0.041 0.033
-0.009 0.041 0.039
-0.023 0.037 0.051
-0.017 0.033 0.051
-0.017 0.021 0.071
-0.015 0.019 0.087
-0.019 0.029 0.083
-0.019 0.027 0.083
-0.019 0.027 0.089
-0.021 0.033 0.083
-0.023 0.035 0.085
-0.017 0.013 0.073
-0.015 0.013 0.077
-0.001 0.003 0.067
-0.015 0.009 0.083
-0.011 0.009 0.091
-0.019 0.029 0.085
-0.037 0.049 0.093
-0.023 0.035 0.085
-0.015 0.011 0.105
-0.015 0.013 0.105
-0.017 0.019 0.101
-0.019 0.005 0.107
-0.009 0.005 0.101
-0.019 0.025 0.097
-0.021 0.019 0.105
-0.023 0.023 0.105
-0.025 0.039 0.101
0.017 0.005 0.037
0.013 0.009 0.033
0.029 -0.007 0.061
0.021 -0.023 0.069
0.001 -0.009 0.065
0.017 -0.017 0.071
0.015 -0.021 0.089
0.003 -0.003 0.077
0.001 -0.017 0.095
-0.025 -0.005 0.095
-0.007 -0.007 0.089
-0.027 -0.005 0.101
-0.015 -0.009 0.113
0.041 -0.025 0.049
0.039 -0.029 0.043
0.037 -0.033 0.053
0.037 -0.027 0.059
0.039 -0.031 0.047
0.031 -0.007 0.055
0.035 -0.013 0.041
0.039 -0.027 0.057
0.035 -0.019 0.051
0.019 -0.025 0.061
0.023 -0.005 0.061
0.041 -0.025 0.043
0.039 -0.019 0.039
0.039 -0.019 0.049
0.019 -0.033 0.085
0.021 -0.027 0.067
0.007 -0.013 0.091
-0.005 0.017 0.045
0.001 0.017 0.039
-0.011 0.011 0.057
-0.011 0.017 0.053
-0.009 0.027 0.051
-0.019 0.017 0.057
-0.003 0.003 0.039
-0.005 0.005 0.037
-0.001 0.001 0.047
-0.005 0.029 0.035
-0.003 0.025 0.039
-0.001 0.003 0.063
0.001 -0.001 0.069
-0.001 0.003 0.069
-0.017 0.025 0.059
-0.005 0.033 0.037
-0.007 0.035 0.045
-0.017 0.017 0.075
-0.011 0.007 0.091
-0.017 0.021 0.089
-0.019 0.023 0.091
-0.019 0.025 0.095
-0.017 0.005 0.075
-0.009 -0.001 0.081
-0.017 0.003 0.079
-0.017 0.003 0.077
-0.019 0.025 0.067
-0.009 -0.001 0.097
-0.009 0.001 0.089
-0.011 0.007 0.089
-0.011 0.007 0.093
-0.015 0.015 0.091
-0.017 0.025 0.085
-0.021 0.029 0.087
-0.027 0.039 0.089
-0.031 0.041 0.089
-0.025 0.037 0.085
-0.025 0.037 0.083
-0.019 0.005 0.109
-0.015 0.017 0.105
-0.023 0.021 0.105
-0.021 0.023 0.103
-0.009 0.001 0.103
-0.023 0.009 0.111
-0.009 0.005 0.101
-0.025 0.027 0.105
-0.027 0.031 0.099
0.017 0.005 0.037
0.015 0.007 0.037
0.005 0.011 0.037
-0.035 0.001 0.037
-0.035 0.003 0.039
-0.021 -0.007 0.053
-0.013 -0.017 0.079
-0.009 -0.021 0.079
-0.019 -0.005 0.065
-0.015 -0.013 0.073
-0.031 -0.003 0.091
-0.027 -0.009 0.101
-0.021 -0.005 0.109
-0.017 -0.009 0.113
-0.029 -0.005 0.041
-0.009 -0.029 0.039
-0.009 -0.027 0.037
-0.005 -0.017 0.043
-0.005 -0.025 0.047
-0.005 -0.015 0.045
-0.003 -0.015 0.049
-0.025 -0.003 0.049
-0.025 -0.005 0.047
-0.027 0.003 0.045
-0.003 -0.019 0.057
-0.013 -0.015 0.061
-0.021 -0.007 0.055
-0.021 -0.003 0.057
-0.021 -0.007 0.053
-0.003 -0.017 0.055
0.001 -0.021 0.063
0.009 -0.035 0.081
0.001 -0.031 0.079
0.025 -0.039 0.085
0.025 -0.039 0.085
-0.005 -0.021 0.073
-0.013 -0.017 0.079
-0.017 -0.007 0.075
-0.017 -0.005 0.075
0.003 -0.023 0.095
0.003 -0.029 0.089
-0.009 -0.015 0.087
-0.007 -0.013 0.091
-0.051 0.017 0.035
-0.049 0.023 0.039
-0.033 0.001 0.039
-0.041 0.029 0.057
-0.033 0.003 0.043
-0.041 0.011 0.039
-0.039 0.009 0.045
-0.043 0.017 0.051
-0.039 0.025 0.041
-0.039 0.031 0.039
-0.025 0.003 0.053
-0.041 0.013 0.053
-0.037 0.013 0.055
-0.027 0.009 0.053
-0.023 0.001 0.057
-0.021 0.001 0.059
-0.035 0.015 0.059
-0.035 0.037 0.043
-0.037 0.035 0.043
-0.037 0.035 0.041
-0.029 0.039 0.047
-0.037 0.037 0.049
-0.037 0.037 0.049
-0.035 0.037 0.051
-0.037 0.035 0.055
-0.039 0.027 0.065
-0.037 0.031 0.065
-0.035 0.015 0.081
-0.037 0.013 0.095
-0.037 0.023 0.085
-0.039 0.031 0.081
-0.041 0.031 0.083
-0.039 0.031 0.087
-0.039 0.017 0.093
-0.029 0.007 0.073
-0.033 0.011 0.075
-0.031 0.009 0.071
-0.037 0.017 0.081
-0.035 0.015 0.085
-0.033 0.007 0.091
-0.037 0.017 0.095
-0.035 0.007 0.103
-0.043 0.031 0.099
-0.033 0.029 0.103
-0.043 0.035 0.097
-0.031 0.041 0.097
-0.037 0.041 0.101
-0.027 0.005 0.071
-0.005 -0.037 0.037
-0.005 -0.033 0.041
-0.021 -0.001 0.035
-0.023 -0.007 0.045
-0.021 -0.007 0.041
0.001 -0.031 0.049
-0.001 -0.029 0.057
0.001 -0.031 0.063
-0.021 -0.007 0.051
0.003 -0.031 0.053
0.001 -0.031 0.055
-0.009 -0.015 0.063
-0.007 -0.015 0.063
0.007 -0.033 0.057
-0.009 -0.021 0.081
-0.029 -0.001 0.085
-0.027 -0.005 0.091
-0.001 -0.027 0.089
0.003 -0.033 0.043
0.009 -0.033 0.045
0.035 -0.035 0.053
0.003 -0.025 0.033
0.017 -0.031 0.041
0.009 -0.033 0.043
0.025 -0.035 0.035
0.015 -0.025 0.049
0.017 -0.027 0.055
0.007 -0.031 0.051
0.029 -0.037 0.069
0.031 -0.035 0.069
0.021 -0.039 0.075
0.027 -0.039 0.085
0.029 -0.041 0.085
0.019 -0.035 0.077
0.011 -0.037 0.075
0.009 -0.035 0.073
0.019 -0.033 0.083
0.015 -0.033 0.087
0.007 -0.029 0.091
0.019 -0.033 0.083
0.023 -0.041 0.079
0.019 -0.033 0.085
0.017 -0.035 0.079
-0.027 -0.003 0.031
-0.025 -0.005 0.033
-0.049 0.015 0.037
-0.043 0.013 0.039
-0.035 0.003 0.039
-0.023 -0.005 0.035
-0.041 0.011 0.049
-0.039 0.019 0.059
-0.029 0.005 0.047
0.011 -0.033 0.039
-0.029 0.011 0.063
0.003 -0.031 0.053
-0.021 -0.007 0.061
0.003 -0.035 0.041
0.007 -0.033 0.047
-0.027 -0.007 0.089
-0.031 0.007 0.081
-0.031 0.003 0.083
-0.031 -0.003 0.091
-0.027 0.009 0.065
-0.015 -0.015 0.067
-0.007 -0.021 0.075
-0.007 -0.019 0.071
-0.013 -0.017 0.071
-0.023 0.005 0.071
-0.023 0.001 0.081
-0.005 -0.025 0.081
-0.005 -0.025 0.083
-0.015 0.003 0.089
-0.017 0.003 0.093
-0.027 0.009 0.065
-0.029 0.003 0.081
-0.029 -0.007 0.087
-0.031 -0.005 0.097
-0.017 -0.005 0.107
-0.015 0.009 0.107
-0.017 0.005 0.099
-0.019 0.009 0.103
-0.019 -0.001 0.093
0.021 -0.035 0.035
0.009 -0.035 0.065
