-0.005 -0.037 0.035
-0.009 -0.031 0.041
-0.001 -0.029 0.047
-0.027 -0.007 0.037
-0.017 -0.001 0.033
-0.031 -0.001 0.041
-0.023 -0.007 0.045
-0.015 -0.009 0.047
-0.005 -0.017 0.045
-0.005 -0.023 0.051
-0.001 -0.025 0.059
-0.021 -0.007 0.051
-0.003 -0.015 0.053
-0.007 -0.011 0.055
-0.009 -0.017 0.067
-0.003 -0.027 0.079
-0.019 -0.007 0.067
-0.013 -0.015 0.083
-0.007 -0.021 0.087
-0.005 -0.019 0.091
-0.007 -0.013 0.091
-0.011 -0.007 0.089
-0.019 -0.007 0.111
-0.017 -0.009 0.113
0.017 -0.035 0.035
0.007 -0.035 0.037
0.005 -0.033 0.045
0.027 -0.037 0.061
0.033 -0.035 0.055
0.003 -0.033 0.043
0.027 -0.033 0.039
0.031 -0.033 0.045
-0.007 -0.027 0.043
-0.005 -0.021 0.047
0.001 -0.031 0.045
0.003 -0.031 0.053
0.003 -0.031 0.057
0.005 -0.031 0.053
0.001 -0.031 0.055
0.011 -0.035 0.063
0.027 -0.027 0.051
-0.003 -0.023 0.059
0.001 -0.031 0.057
-0.001 -0.029 0.059
-0.003 -0.025 0.057
0.007 -0.033 0.061
0.007 -0.035 0.067
0.003 -0.033 0.067
0.005 -0.035 0.073
0.003 -0.033 0.071
0.025 -0.031 0.041
0.033 -0.033 0.049
0.031 -0.035 0.055
0.023 -0.035 0.063
0.021 -0.035 0.067
0.025 -0.039 0.069
0.023 -0.039 0.071
0.023 -0.039 0.073
0.025 -0.041 0.081
0.007 -0.033 0.087
0.031 -0.041 0.085
0.025 -0.039 0.085
0.003 -0.025 0.069
0.003 -0.033 0.071
0.021 -0.037 0.069
0.009 -0.035 0.077
-0.005 -0.023 0.075
-0.009 -0.021 0.075
-0.003 -0.025 0.077
-0.005 -0.023 0.077
0.001 -0.031 0.079
0.011 -0.033 0.085
0.003 -0.027 0.091
0.007 -0.027 0.093
-0.001 -0.019 0.095
0.013 -0.035 0.083
0.005 -0.033 0.085
-0.001 -0.029 0.085
-0.003 -0.027 0.087
0.003 -0.029 0.089
-0.005 -0.019 0.091
-0.033 -0.001 0.035
-0.033 -0.003 0.035
-0.017 -0.001 0.035
-0.037 0.005 0.035
-0.033 0.005 0.045
-0.033 0.013 0.061
-0.041 0.025 0.057
-0.029 -0.003 0.039
-0.031 -0.001 0.041
-0.015 -0.005 0.041
-0.021 -0.007 0.053
-0.035 0.005 0.043
-0.025 -0.001 0.049
-0.023 -0.007 0.045
-0.023 -0.007 0.045
-0.029 0.011 0.053
-0.023 -0.001 0.057
-0.021 0.001 0.059
-0.021 0.001 0.059
-0.021 0.005 0.059
-0.041 0.025 0.057
-0.029 0.011 0.053
-0.041 0.021 0.055
-0.039 0.019 0.059
-0.035 0.015 0.063
-0.033 0.011 0.077
-0.035 0.017 0.073
-0.033 0.005 0.095
-0.037 0.017 0.083
-0.035 0.015 0.081
-0.039 0.023 0.083
-0.039 0.025 0.083
-0.037 0.021 0.089
-0.037 0.027 0.087
-0.027 0.009 0.065
-0.021 0.003 0.073
-0.025 0.003 0.077
-0.013 -0.017 0.071
-0.017 -0.013 0.071
-0.023 0.001 0.079
-0.033 0.015 0.077
-0.031 0.013 0.081
-0.033 0.009 0.083
-0.031 0.015 0.079
-0.033 0.015 0.077
-0.031 0.003 0.083
-0.029 -0.005 0.087
-0.027 -0.009 0.097
-0.019 -0.001 0.097
-0.033 0.005 0.087
-0.035 0.007 0.093
-0.033 0.001 0.097
-0.035 0.007 0.095
-0.041 0.035 0.087
-0.037 0.023 0.087
-0.037 0.021 0.089
-0.037 0.015 0.093
-0.041 0.023 0.093
-0.037 0.033 0.089
-0.041 0.025 0.093
-0.035 0.009 0.099
-0.035 0.013 0.103
-0.035 0.003 0.107
-0.037 0.019 0.103
-0.037 0.029 0.101
-0.033 0.001 0.107
-0.011 0.001 0.101
-0.015 0.005 0.101
-0.029 -0.007 0.103
-0.029 0.017 0.105
-0.043 0.035 0.101
-0.041 0.033 0.101
-0.045 0.037 0.101
-0.039 0.035 0.103
-0.039 0.035 0.105
-0.037 0.033 0.105
-0.039 0.037 0.105
-0.039 0.023 0.101
-0.039 0.023 0.101
-0.005 -0.017 0.045
0.005 -0.001 0.037
-0.017 -0.011 0.053
0.005 0.011 0.039
0.031 -0.007 0.049
0.025 -0.005 0.041
0.031 -0.009 0.053
0.031 -0.007 0.053
0.029 -0.003 0.049
-0.001 0.007 0.049
-0.003 -0.003 0.049
-0.001 -0.001 0.047
0.027 -0.003 0.055
0.025 -0.007 0.063
0.023 -0.009 0.065
-0.001 0.003 0.057
-0.001 0.005 0.059
0.001 0.001 0.067
-0.001 -0.005 0.055
0.005 -0.011 0.055
0.001 -0.003 0.061
-0.001 -0.007 0.059
0.001 -0.007 0.063
0.015 -0.015 0.081
0.009 -0.011 0.079
0.013 -0.015 0.077
0.005 -0.005 0.077
0.003 -0.005 0.079
0.003 -0.005 0.081
0.013 -0.015 0.087
-0.017 -0.001 0.107
-0.017 -0.003 0.109
0.037 -0.025 0.035
0.023 -0.007 0.037
0.035 -0.013 0.037
0.033 -0.013 0.035
0.025 -0.009 0.033
0.037 -0.017 0.049
0.035 -0.015 0.047
0.021 -0.023 0.067
0.037 -0.027 0.059
0.017 -0.021 0.049
0.037 -0.017 0.049
0.037 -0.017 0.047
0.033 -0.017 0.049
0.031 -0.015 0.047
0.027 -0.009 0.039
0.011 0.003 0.039
0.019 0.001 0.035
0.031 -0.009 0.051
0.033 -0.013 0.045
0.029 -0.005 0.045
0.017 -0.019 0.057
0.025 -0.009 0.065
0.033 -0.019 0.051
0.033 -0.027 0.063
0.017 -0.019 0.063
0.025 -0.003 0.055
0.031 -0.005 0.055
0.027 -0.005 0.061
0.001 -0.001 0.061
0.029 -0.003 0.055
0.029 -0.009 0.059
0.027 -0.005 0.059
0.037 -0.017 0.035
0.039 -0.019 0.037
0.033 -0.013 0.045
0.041 -0.027 0.051
0.037 -0.021 0.055
0.029 -0.031 0.069
0.029 -0.033 0.071
0.027 -0.035 0.075
0.029 -0.037 0.075
0.031 -0.037 0.079
0.025 -0.033 0.077
0.017 -0.031 0.085
0.033 -0.037 0.083
0.027 -0.033 0.085
0.031 -0.037 0.089
0.035 -0.041 0.083
0.035 -0.039 0.085
0.019 -0.019 0.073
0.015 -0.017 0.077
0.013 -0.017 0.073
0.027 -0.029 0.067
0.019 -0.019 0.073
0.021 -0.023 0.077
0.005 -0.011 0.073
0.021 -0.009 0.065
0.017 -0.027 0.087
0.015 -0.027 0.089
0.011 -0.025 0.091
0.009 -0.015 0.091
0.005 -0.021 0.095
0.019 -0.021 0.081
0.011 -0.013 0.085
0.005 -0.011 0.089
0.003 0.015 0.039
-0.005 0.027 0.039
-0.003 0.031 0.035
-0.005 0.033 0.041
-0.011 0.029 0.049
-0.013 0.031 0.053
-0.023 0.037 0.047
-0.011 0.019 0.053
-0.013 0.029 0.055
-0.015 0.029 0.057
-0.001 0.013 0.047
0.005 0.011 0.037
0.005 0.013 0.037
0.001 0.007 0.043
0.003 0.011 0.043
-0.005 0.015 0.045
-0.007 0.039 0.039
-0.003 0.031 0.037
-0.003 0.025 0.037
-0.005 0.023 0.043
-0.005 0.031 0.045
-0.005 0.009 0.057
-0.011 0.015 0.055
-0.011 0.013 0.055
-0.021 0.013 0.059
-0.005 0.013 0.051
-0.013 0.007 0.063
-0.009 0.011 0.057
-0.017 0.019 0.057
-0.021 0.029 0.063
-0.009 0.041 0.035
-0.007 0.039 0.033
-0.025 0.035 0.059
-0.021 0.023 0.075
-0.017 0.021 0.087
-0.011 0.011 0.093
-0.017 0.021 0.095
-0.021 0.023 0.093
-0.019 0.027 0.097
-0.039 0.027 0.091
-0.017 0.013 0.069
-0.009 0.003 0.075
-0.021 0.023 0.075
-0.017 0.019 0.083
-0.009 0.005 0.089
-0.011 0.009 0.091
-0.013 0.013 0.091
-0.017 0.021 0.083
-0.017 0.019 0.083
-0.017 0.025 0.085
-0.021 0.033 0.085
-0.017 0.025 0.085
-0.017 0.019 0.089
-0.017 0.021 0.091
-0.019 0.025 0.095
-0.021 0.029 0.095
-0.027 0.043 0.085
-0.027 0.039 0.089
-0.029 0.041 0.089
-0.029 0.033 0.065
-0.027 0.047 0.085
-0.027 0.037 0.089
-0.031 0.049 0.085
-0.015 0.015 0.099
-0.015 0.011 0.105
-0.021 0.027 0.099
-0.027 0.029 0.101
-0.011 0.007 0.103
-0.019 0.005 0.105
-0.009 0.005 0.097
-0.011 0.007 0.101
-0.021 0.019 0.105
-0.021 0.019 0.105
-0.029 0.043 0.101
-0.029 0.043 0.103
-0.033 0.043 0.103
-0.025 0.039 0.101
-0.029 0.043 0.103
0.003 0.019 0.031
0.013 0.009 0.035
0.019 0.001 0.033
0.005 0.017 0.035
0.001 0.021 0.037
-0.009 0.009 0.061
-0.015 0.011 0.057
-0.009 0.009 0.061
-0.023 0.035 0.055
-0.027 0.035 0.061
-0.025 0.033 0.065
-0.005 0.013 0.051
-0.019 0.033 0.055
-0.017 0.027 0.059
-0.005 0.007 0.061
-0.007 0.001 0.079
-0.023 0.031 0.089
-0.019 0.027 0.089
-0.019 0.027 0.089
-0.001 -0.001 0.081
-0.005 -0.009 0.089
-0.013 0.015 0.095
-0.009 0.005 0.095
-0.001 -0.017 0.095
-0.029 0.043 0.101
-0.015 0.017 0.093
-0.015 0.019 0.091
-0.009 0.005 0.095
-0.033 0.009 0.105
-0.031 0.011 0.105
-0.019 0.003 0.109
0.019 -0.005 0.045
0.017 -0.005 0.041
0.013 0.005 0.039
-0.001 0.005 0.059
-0.001 0.001 0.077
0.029 -0.025 0.061
0.023 -0.029 0.065
0.033 -0.023 0.059
0.007 -0.005 0.047
-0.005 0.011 0.053
-0.005 0.007 0.061
0.011 -0.013 0.055
0.025 -0.003 0.049
0.023 -0.003 0.051
-0.001 0.013 0.047
0.009 -0.001 0.039
0.015 -0.001 0.037
0.003 -0.009 0.049
0.023 -0.003 0.035
0.015 -0.005 0.051
0.025 -0.003 0.049
0.017 -0.003 0.045
0.013 -0.015 0.053
0.015 -0.017 0.059
0.013 -0.015 0.065
0.013 -0.017 0.071
0.005 -0.011 0.051
-0.003 0.005 0.067
0.007 -0.015 0.061
-0.001 0.003 0.069
0.023 -0.005 0.053
0.025 -0.005 0.059
0.019 -0.005 0.051
0.027 -0.003 0.055
0.035 -0.013 0.041
0.031 -0.007 0.057
0.037 -0.015 0.045
0.035 -0.025 0.061
0.001 -0.003 0.081
0.009 -0.011 0.079
0.007 -0.009 0.081
-0.001 -0.005 0.085
0.001 -0.007 0.089
0.005 -0.009 0.087
0.017 -0.019 0.083
0.017 -0.019 0.085
0.021 -0.023 0.079
0.009 -0.015 0.091
0.031 -0.035 0.083
0.031 -0.029 0.067
0.031 -0.035 0.085
-0.001 0.001 0.077
0.001 -0.001 0.075
-0.001 0.001 0.073
0.003 -0.003 0.077
0.017 -0.011 0.071
-0.003 -0.009 0.089
0.013 -0.017 0.089
0.005 -0.021 0.095
0.017 -0.021 0.087
0.015 -0.021 0.089
0.007 -0.009 0.087
0.001 -0.007 0.087
0.001 -0.007 0.089
0.001 -0.015 0.093
-0.017 0.033 0.047
-0.037 0.035 0.055
-0.041 0.031 0.051
-0.037 0.037 0.049
-0.043 0.027 0.039
-0.041 0.031 0.047
-0.039 0.035 0.053
-0.037 0.033 0.063
-0.039 0.029 0.063
-0.025 0.037 0.053
-0.023 0.037 0.047
-0.031 0.033 0.065
-0.009 0.027 0.051
-0.017 0.033 0.047
-0.005 0.023 0.047
-0.021 0.035 0.037
-0.005 0.033 0.043
-0.015 0.039 0.043
-0.027 0.031 0.069
-0.009 0.009 0.059
-0.019 0.027 0.063
-0.023 0.031 0.067
-0.023 0.029 0.069
-0.019 0.027 0.065
-0.009 0.017 0.053
-0.013 0.029 0.055
-0.009 0.027 0.051
-0.037 0.037 0.049
-0.039 0.035 0.051
-0.033 0.035 0.061
-0.017 0.039 0.039
-0.029 0.039 0.047
-0.009 0.043 0.039
-0.015 0.041 0.039
-0.021 0.035 0.049
-0.035 0.047 0.091
-0.033 0.025 0.089
-0.037 0.039 0.105
-0.041 0.041 0.101
-0.035 0.047 0.089
-0.031 0.037 0.089
-0.027 0.039 0.089
-0.023 0.033 0.087
-0.027 0.031 0.089
-0.035 0.047 0.093
-0.033 0.049 0.087
-0.033 0.045 0.091
-0.031 0.043 0.091
-0.033 0.033 0.097
-0.011 0.011 0.089
-0.013 0.015 0.095
-0.031 0.033 0.089
-0.031 0.043 0.103
-0.033 0.043 0.105
-0.029 0.039 0.095
-0.037 0.047 0.087
-0.039 0.047 0.087
-0.041 0.041 0.089
-0.031 0.045 0.089
-0.025 0.037 0.087
-0.035 0.007 0.105
-0.035 0.007 0.105
-0.035 0.015 0.105
-0.039 0.023 0.103
-0.041 0.041 0.103
-0.035 0.037 0.107
-0.021 0.017 0.105
-0.019 0.003 0.109
-0.027 0.013 0.107
-0.027 0.017 0.105
-0.017 0.019 0.103
-0.015 0.015 0.107
-0.013 0.013 0.099
-0.015 0.017 0.105
-0.033 0.043 0.101
-0.033 0.037 0.107
-0.037 0.039 0.105
-0.029 0.043 0.103
-0.025 0.037 0.101
0.001 0.021 0.037
0.003 0.017 0.037
