0.001 -0.003 0.069
0.013 0.001 0.037
0.031 -0.023 0.055
0.009 -0.011 0.085
0.019 -0.027 0.081
0.017 -0.019 0.085
-0.019 0.027 0.063
-0.005 0.031 0.045
-0.007 0.041 0.043
-0.027 0.033 0.063
-0.023 0.035 0.083
-0.025 0.043 0.083
-0.023 0.035 0.085
-0.013 0.031 0.053
-0.019 0.025 0.071
-0.013 0.013 0.055
-0.019 0.023 0.063
-0.019 0.035 0.047
-0.009 0.037 0.045
-0.007 0.037 0.045
-0.027 0.031 0.099
-0.023 0.035 0.097
-0.013 0.013 0.101
-0.023 0.021 0.105
-0.007 -0.033 0.039
-0.007 -0.029 0.045
-0.011 -0.015 0.061
0.005 -0.035 0.039
0.033 -0.033 0.045
0.029 -0.037 0.063
0.021 -0.039 0.079
0.003 -0.023 0.069
-0.003 -0.023 0.075
0.011 -0.035 0.081
0.003 -0.031 0.075
-0.015 -0.001 0.035
-0.027 -0.007 0.041
-0.035 0.001 0.035
-0.043 0.013 0.039
-0.041 0.027 0.059
-0.021 -0.007 0.051
-0.023 -0.001 0.055
-0.019 -0.005 0.065
-0.021 0.009 0.057
-0.013 -0.015 0.061
-0.031 0.009 0.051
-0.029 0.013 0.055
-0.025 0.011 0.053
-0.041 0.019 0.055
-0.033 0.003 0.093
-0.015 -0.011 0.075
-0.019 -0.003 0.091
-0.029 -0.005 0.099
-0.027 -0.009 0.101
-0.039 0.045 0.093
-0.043 0.035 0.101
-0.037 0.033 0.105
-0.037 0.031 0.103
-0.001 -0.015 0.095
0.005 -0.029 0.089
-0.013 -0.005 0.085
-0.001 -0.021 0.091
-0.007 -0.007 0.089
0.019 -0.029 0.083
0.019 -0.013 0.065
0.021 -0.017 0.045
0.027 -0.015 0.045
0.019 -0.023 0.083
0.019 -0.035 0.081
0.033 -0.041 0.087
0.009 -0.015 0.091
-0.015 -0.011 0.113
-0.023 0.007 0.115
-0.027 0.013 0.107
-0.007 0.027 0.045
-0.007 0.021 0.049
-0.007 0.029 0.045
0.001 0.001 0.071
-0.025 0.019 0.105
-0.023 0.003 0.109
-0.027 0.007 0.111
-0.029 0.007 0.103
-0.029 0.017 0.105
-0.023 0.003 0.109
-0.013 0.011 0.099
-0.009 0.005 0.093
-0.027 0.019 0.105
-0.027 0.035 0.101
-0.027 0.037 0.101
-0.021 0.009 0.109
-0.013 0.009 0.103
-0.015 0.009 0.107
-0.021 0.027 0.099
-0.041 0.033 0.101
-0.015 0.039 0.043
-0.001 0.003 0.063
-0.011 -0.001 0.081
-0.013 0.003 0.073
-0.019 0.021 0.101
0.017 0.005 0.037
0.031 -0.015 0.031
0.023 -0.003 0.049
0.029 -0.005 0.049
0.027 -0.005 0.061
0.041 -0.019 0.043
0.021 -0.009 0.067
0.003 -0.003 0.071
-0.007 0.039 0.033
-0.027 0.037 0.047
-0.027 0.037 0.043
-0.025 0.037 0.043
-0.013 0.041 0.035
-0.017 0.013 0.071
-0.021 0.033 0.083
-0.025 0.037 0.087
-0.027 0.047 0.085
-0.031 0.049 0.087
-0.031 0.049 0.085
-0.033 0.049 0.085
-0.029 0.047 0.085
-0.027 0.023 0.105
-0.013 0.011 0.103
0.001 0.019 0.037
0.015 -0.019 0.049
-0.001 0.003 0.051
-0.009 0.003 0.091
-0.015 -0.007 0.109
-0.015 -0.005 0.109
0.023 -0.005 0.037
0.025 -0.009 0.039
0.037 -0.023 0.035
0.035 -0.013 0.041
0.029 -0.005 0.045
0.029 -0.027 0.063
0.041 -0.027 0.047
0.035 -0.023 0.059
0.029 -0.029 0.069
0.027 -0.031 0.073
0.029 -0.035 0.087
0.015 -0.017 0.085
0.017 -0.021 0.085
-0.017 0.025 0.057
0.001 0.017 0.039
-0.019 0.017 0.063
-0.011 0.023 0.053
-0.031 0.037 0.053
-0.009 0.043 0.043
-0.017 0.017 0.077
-0.019 0.007 0.071
-0.017 0.005 0.075
-0.017 0.021 0.069
-0.021 0.023 0.077
-0.025 0.037 0.087
-0.031 0.047 0.089
-0.025 0.041 0.083
-0.027 0.041 0.087
-0.021 0.021 0.105
-0.011 0.011 0.057
-0.021 0.033 0.059
-0.007 0.011 0.057
-0.011 0.003 0.073
0.025 -0.003 0.041
-0.005 0.007 0.063
0.027 -0.029 0.065
0.017 -0.007 0.053
0.025 -0.003 0.055
0.025 -0.007 0.063
0.029 -0.003 0.055
-0.003 -0.005 0.087
0.003 -0.003 0.077
0.003 -0.017 0.093
0.011 -0.013 0.085
0.011 -0.015 0.089
0.003 -0.009 0.089
-0.031 0.039 0.049
-0.007 0.037 0.045
-0.029 0.035 0.035
-0.049 0.025 0.037
-0.039 0.029 0.063
-0.005 0.013 0.049
-0.005 0.013 0.051
-0.003 0.013 0.051
-0.005 0.023 0.047
-0.009 0.011 0.057
-0.017 0.031 0.057
-0.009 0.043 0.041
-0.011 0.037 0.045
-0.015 0.033 0.047
-0.035 0.047 0.089
-0.009 0.005 0.071
-0.031 0.049 0.085
-0.023 0.029 0.089
-0.039 0.049 0.091
-0.027 0.039 0.097
-0.045 0.039 0.101
0.037 -0.033 0.059
0.027 -0.009 0.063
0.017 -0.019 0.063
-0.019 -0.001 0.097
0.005 -0.015 0.091
0.039 -0.025 0.041
0.029 -0.033 0.071
0.041 -0.027 0.049
0.039 -0.019 0.049
0.037 -0.031 0.059
0.031 -0.031 0.035
0.023 -0.005 0.037
0.017 -0.017 0.069
0.035 -0.025 0.061
0.031 -0.007 0.057
0.017 -0.017 0.065
0.029 -0.033 0.071
0.021 -0.025 0.067
0.017 -0.031 0.089
-0.017 0.015 0.071
0.001 0.015 0.043
-0.001 0.019 0.039
-0.005 0.007 0.063
-0.021 0.013 0.063
-0.001 0.007 0.051
-0.001 0.011 0.049
-0.021 0.029 0.065
-0.007 0.035 0.045
-0.017 0.019 0.103
-0.007 0.007 0.065
-0.019 0.023 0.069
-0.017 0.021 0.073
-0.015 0.017 0.083
-0.021 0.029 0.087
-0.029 0.043 0.089
-0.025 0.017 0.105
-0.025 0.021 0.105
-0.029 0.023 0.105
-0.015 0.017 0.105
-0.033 0.037 0.107
0.001 0.019 0.037
0.011 -0.033 0.043
0.039 -0.027 0.055
0.037 -0.029 0.061
0.027 -0.033 0.073
0.021 -0.025 0.079
0.037 -0.041 0.087
0.015 -0.021 0.089
0.029 -0.025 0.031
0.025 -0.033 0.039
0.039 -0.029 0.043
0.021 -0.039 0.073
0.033 -0.039 0.079
0.033 -0.029 0.065
0.041 -0.021 0.045
0.029 -0.011 0.053
-0.019 0.021 0.059
0.017 0.003 0.037
0.031 -0.009 0.053
0.029 -0.003 0.053
-0.017 0.023 0.059
0.001 0.001 0.067
-0.017 0.017 0.073
-0.015 0.011 0.083
-0.015 0.017 0.085
-0.015 0.015 0.091
-0.019 0.027 0.083
0.001 -0.035 0.039
0.001 -0.031 0.059
-0.007 -0.019 0.071
-0.007 -0.023 0.081
-0.001 -0.027 0.089
0.015 -0.033 0.039
0.035 -0.027 0.037
0.015 -0.029 0.043
0.023 -0.025 0.043
0.027 -0.037 0.063
0.035 -0.035 0.053
0.035 -0.035 0.057
0.029 -0.043 0.081
0.017 -0.033 0.085
0.005 -0.031 0.087
-0.015 -0.007 0.043
-0.009 -0.019 0.071
0.001 -0.031 0.083
0.021 -0.037 0.081
-0.023 0.001 0.077
0.001 -0.021 0.095
-0.009 -0.001 0.103
-0.019 0.003 0.099
-0.013 0.009 0.103
-0.011 0.007 0.103
0.029 -0.037 0.063
0.027 -0.037 0.069
-0.003 -0.033 0.041
-0.031 -0.003 0.037
-0.019 -0.009 0.061
-0.019 -0.009 0.063
-0.011 -0.017 0.071
-0.003 -0.015 0.037
-0.005 -0.015 0.043
0.027 -0.037 0.063
-0.003 -0.013 0.041
-0.003 -0.021 0.055
-0.003 -0.021 0.059
-0.003 -0.023 0.057
-0.007 -0.023 0.085
-0.039 0.009 0.035
-0.041 0.017 0.047
-0.031 0.005 0.045
-0.035 0.015 0.063
-0.039 0.031 0.063
-0.041 0.027 0.043
-0.041 0.029 0.049
-0.041 0.023 0.057
-0.031 0.009 0.079
-0.031 -0.001 0.093
-0.031 -0.003 0.095
-0.043 0.043 0.087
-0.037 0.035 0.089
-0.035 0.007 0.097
-0.037 0.021 0.103
-0.027 -0.001 0.101
-0.037 0.029 0.101
-0.033 0.029 0.103
-0.021 -0.007 0.047
-0.021 -0.007 0.051
-0.027 0.005 0.051
-0.001 -0.023 0.061
-0.023 -0.001 0.057
-0.025 0.001 0.079
-0.029 0.003 0.081
-0.003 -0.017 0.037
-0.017 -0.011 0.057
-0.021 0.001 0.061
0.005 -0.035 0.073
0.003 -0.029 0.071
0.001 -0.029 0.075
0.025 -0.039 0.085
-0.017 -0.001 0.069
-0.049 0.017 0.039
-0.049 0.023 0.035
-0.039 0.011 0.035
-0.049 0.017 0.039
-0.041 0.027 0.045
-0.023 0.001 0.055
-0.013 0.041 0.043
-0.033 0.011 0.069
-0.041 0.031 0.083
-0.031 0.009 0.073
-0.033 0.009 0.089
-0.039 0.023 0.091
-0.041 0.025 0.093
-0.043 0.035 0.095
-0.041 0.029 0.099
-0.041 0.039 0.105
-0.043 0.015 0.041
-0.041 0.015 0.045
-0.005 -0.029 0.043
-0.005 -0.017 0.051
-0.001 -0.035 0.039
0.009 -0.033 0.045
0.005 -0.033 0.047
0.011 -0.029 0.051
0.009 -0.031 0.053
0.027 -0.033 0.055
0.037 -0.031 0.043
0.029 -0.037 0.061
0.033 -0.035 0.061
0.023 -0.039 0.083
0.035 -0.041 0.083
0.003 -0.033 0.071
0.011 -0.037 0.069
0.013 -0.037 0.071
-0.039 0.009 0.039
-0.045 0.015 0.037
-0.039 0.009 0.045
-0.029 0.011 0.053
-0.023 0.011 0.061
-0.017 -0.011 0.055
-0.021 -0.007 0.059
-0.031 0.013 0.059
-0.033 0.005 0.093
-0.039 0.019 0.095
-0.019 0.001 0.077
-0.031 -0.003 0.093
-0.043 0.037 0.083
-0.023 0.001 0.099
-0.021 0.003 0.103
-0.035 0.033 0.105
-0.033 -0.003 0.033
-0.029 -0.003 0.043
0.001 -0.031 0.045
-0.017 -0.011 0.053
0.003 -0.031 0.051
-0.017 -0.013 0.065
-0.025 -0.007 0.095
-0.001 -0.029 0.085
0.027 -0.035 0.033
0.019 -0.035 0.033
0.011 -0.035 0.061
0.021 -0.025 0.043
0.009 -0.033 0.041
0.031 -0.033 0.047
0.011 -0.029 0.053
0.003 -0.031 0.061
0.025 -0.029 0.057
0.039 -0.023 0.037
0.037 -0.033 0.053
0.021 -0.037 0.081
-0.019 0.001 0.031
-0.023 -0.001 0.033
-0.041 0.011 0.051
0.011 -0.033 0.041
0.007 -0.033 0.045
0.005 -0.033 0.059
-0.027 0.005 0.073
-0.029 -0.007 0.093
-0.033 0.001 0.093
-0.025 -0.005 0.093
-0.009 -0.017 0.067
-0.003 -0.027 0.085
-0.019 -0.001 0.083
-0.031 -0.003 0.099
-0.029 -0.007 0.101
-0.009 -0.001 0.095
-0.009 -0.027 0.037
-0.025 -0.003 0.045
-0.041 0.023 0.047
-0.025 -0.001 0.051
-0.029 0.007 0.073
-0.031 -0.003 0.091
-0.039 0.009 0.045
-0.041 0.017 0.055
-0.039 0.021 0.059
-0.043 0.019 0.049
-0.041 0.021 0.051
-0.035 0.035 0.061
-0.003 -0.023 0.055
-0.039 0.029 0.061
-0.035 0.031 0.067
-0.039 0.029 0.061
-0.039 0.031 0.059
0.003 -0.031 0.067
-0.013 -0.017 0.071
-0.035 0.007 0.093
-0.031 0.007 0.075
-0.039 0.021 0.093
-0.043 0.015 0.041
-0.045 0.027 0.037
-0.043 0.021 0.041
-0.039 0.021 0.061
-0.039 0.029 0.063
-0.033 0.037 0.047
-0.041 0.027 0.059
-0.039 0.031 0.059
-0.033 0.037 0.057
-0.029 0.031 0.069
-0.039 0.023 0.097
-0.043 0.045 0.083
-0.039 0.045 0.085
-0.041 0.041 0.089
-0.043 0.031 0.099
-0.037 0.023 0.099
-0.043 0.041 0.101
-0.045 0.039 0.101
-0.045 0.039 0.101
-0.039 0.035 0.049
-0.041 0.021 0.041
-0.041 0.031 0.053
-0.035 0.037 0.055
-0.031 0.037 0.057
-0.043 0.043 0.083
-0.033 0.021 0.075
-0.029 0.033 0.095
-0.041 0.023 0.093
-0.027 0.037 0.055
-0.015 0.031 0.049
-0.013 0.031 0.049
-0.031 0.033 0.067
0.019 -0.007 0.053
-0.031 0.039 0.049
-0.017 0.033 0.055
-0.025 0.037 0.051
0.025 -0.003 0.039
0.017 -0.003 0.045
-0.033 0.035 0.063
-0.019 0.031 0.059
0.029 -0.003 0.051
0.015 -0.015 0.081
-0.025 0.029 0.071
0.015 -0.017 0.077
-0.045 0.025 0.039
-0.041 0.023 0.057
-0.039 0.027 0.063
-0.017 0.033 0.051
-0.019 0.037 0.035
-0.041 0.031 0.055
-0.021 0.033 0.059
-0.023 0.033 0.061
-0.035 0.037 0.055
-0.029 0.033 0.033
-0.019 0.037 0.035
-0.015 0.041 0.037
-0.039 0.023 0.065
-0.031 0.025 0.075
-0.025 0.029 0.071
-0.039 0.025 0.083
-0.043 0.039 0.083
-0.039 0.047 0.093
-0.029 0.039 0.095
-0.031 0.049 0.085
-0.043 0.035 0.097
-0.035 0.043 0.103
-0.015 0.015 0.107
-0.031 0.039 0.097
-0.011 0.043 0.041
