-0.005 -0.027 0.045
-0.013 -0.011 0.053
-0.009 -0.011 0.053
-0.013 -0.013 0.059
-0.019 -0.009 0.067
-0.007 -0.019 0.071
-0.019 -0.003 0.091
-0.005 -0.033 0.041
-0.007 -0.029 0.043
-0.005 -0.023 0.047
0.035 -0.033 0.047
0.029 -0.029 0.051
0.023 -0.039 0.073
0.025 -0.041 0.075
0.001 -0.031 0.077
0.003 -0.033 0.081
-0.003 -0.027 0.087
-0.035 0.007 0.049
-0.013 -0.003 0.037
-0.023 0.007 0.055
-0.023 0.011 0.057
-0.027 0.011 0.061
-0.021 0.013 0.059
-0.021 0.009 0.057
-0.041 0.019 0.045
-0.041 0.027 0.045
-0.033 0.015 0.057
-0.033 0.013 0.075
-0.015 -0.005 0.077
-0.033 0.011 0.075
-0.033 0.017 0.077
-0.025 -0.007 0.097
-0.039 0.039 0.089
-0.037 0.013 0.095
-0.031 0.001 0.107
-0.009 -0.001 0.101
-0.005 -0.023 0.049
0.011 -0.031 0.045
0.017 -0.029 0.043
0.015 -0.027 0.045
0.007 -0.035 0.077
0.003 -0.029 0.089
0.009 -0.033 0.087
0.011 -0.029 0.091
0.011 -0.025 0.093
-0.015 -0.009 0.111
0.021 -0.035 0.033
0.027 -0.033 0.039
0.005 -0.033 0.043
0.017 -0.029 0.043
0.017 -0.029 0.043
0.037 -0.031 0.047
0.039 -0.023 0.053
0.035 -0.017 0.033
0.041 -0.027 0.053
0.031 -0.033 0.069
0.035 -0.041 0.083
0.013 -0.035 0.037
0.009 -0.033 0.041
0.011 -0.029 0.051
0.009 -0.033 0.059
0.009 -0.031 0.053
0.031 -0.037 0.059
0.027 -0.035 0.057
0.035 -0.035 0.053
0.035 -0.033 0.047
0.009 -0.035 0.077
0.027 -0.037 0.065
0.029 -0.041 0.073
-0.011 0.009 0.095
0.037 -0.043 0.081
-0.013 0.013 0.097
-0.013 0.013 0.107
0.009 -0.025 0.095
-0.019 -0.009 0.067
0.003 -0.011 0.091
0.003 -0.011 0.091
-0.009 -0.019 0.087
0.003 -0.017 0.093
-0.011 -0.013 0.087
-0.009 -0.011 0.091
0.029 -0.021 0.051
0.019 -0.023 0.083
0.025 -0.037 0.085
0.009 -0.003 0.039
0.005 -0.001 0.037
0.021 -0.007 0.061
0.021 -0.023 0.079
0.021 -0.013 0.071
0.021 -0.009 0.067
0.035 -0.031 0.063
0.039 -0.027 0.057
0.037 -0.023 0.057
0.041 -0.025 0.051
0.035 -0.021 0.055
0.021 -0.023 0.069
0.015 -0.021 0.089
0.005 -0.021 0.095
0.013 -0.021 0.089
0.007 -0.013 0.091
-0.027 0.003 0.101
-0.009 0.025 0.051
-0.011 0.027 0.053
-0.023 0.005 0.109
-0.027 0.017 0.105
-0.023 0.019 0.105
-0.029 -0.003 0.103
-0.029 0.015 0.105
-0.003 0.001 0.079
-0.021 0.007 0.109
-0.011 0.011 0.093
-0.015 0.017 0.105
-0.017 0.021 0.097
-0.027 0.015 0.105
-0.035 0.035 0.107
-0.031 0.037 0.105
-0.029 0.041 0.103
-0.015 0.007 0.103
0.013 -0.001 0.037
-0.001 -0.011 0.043
-0.019 0.027 0.097
0.029 -0.027 0.065
0.017 -0.003 0.039
0.019 -0.003 0.041
0.017 -0.005 0.051
0.035 -0.015 0.045
0.019 -0.005 0.051
0.015 -0.017 0.055
0.023 -0.009 0.065
0.015 -0.015 0.081
0.029 -0.035 0.079
0.019 -0.011 0.071
0.009 -0.011 0.087
-0.043 0.027 0.035
-0.037 0.035 0.059
-0.037 0.033 0.063
-0.015 0.029 0.057
-0.021 0.033 0.055
-0.027 0.039 0.095
-0.025 0.029 0.071
-0.019 0.027 0.087
-0.013 0.013 0.087
0.005 0.017 0.035
0.035 -0.015 0.047
-0.003 -0.003 0.049
0.029 -0.007 0.059
-0.001 -0.007 0.059
0.011 -0.013 0.085
0.041 -0.019 0.043
0.035 -0.033 0.063
0.035 -0.033 0.063
0.019 -0.017 0.047
0.031 -0.027 0.065
0.031 -0.005 0.053
0.031 -0.041 0.073
0.025 -0.033 0.077
0.019 -0.023 0.083
0.031 -0.035 0.081
0.021 -0.029 0.073
0.001 -0.001 0.067
0.011 -0.013 0.087
0.005 0.011 0.037
-0.003 0.031 0.035
-0.007 0.037 0.043
-0.027 0.033 0.065
-0.003 0.031 0.037
-0.007 0.007 0.061
-0.007 0.015 0.049
-0.019 0.019 0.061
-0.009 0.043 0.039
-0.021 0.023 0.077
-0.019 0.029 0.083
-0.019 0.025 0.087
-0.017 0.023 0.085
-0.025 0.041 0.083
-0.023 0.033 0.095
-0.027 0.029 0.103
-0.013 0.011 0.103
-0.013 0.011 0.103
-0.031 0.039 0.105
-0.031 0.033 0.103
0.015 0.003 0.037
-0.029 0.033 0.065
-0.021 0.025 0.073
-0.019 0.023 0.073
-0.015 0.015 0.075
-0.005 0.007 0.063
-0.021 0.027 0.101
-0.019 0.025 0.099
0.031 -0.011 0.037
0.009 -0.007 0.049
0.009 -0.011 0.053
0.001 0.001 0.071
0.011 -0.015 0.059
0.027 -0.033 0.079
0.025 -0.033 0.087
-0.001 -0.001 0.081
-0.003 -0.001 0.081
-0.025 0.037 0.039
-0.049 0.023 0.039
-0.047 0.025 0.039
-0.047 0.023 0.041
-0.003 0.013 0.051
-0.021 0.037 0.045
-0.011 0.043 0.043
-0.005 0.031 0.045
-0.009 0.043 0.043
-0.037 0.041 0.103
-0.021 0.023 0.077
-0.031 0.031 0.089
-0.033 0.029 0.089
-0.021 0.029 0.089
-0.031 0.043 0.103
-0.041 0.043 0.089
-0.039 0.039 0.099
-0.041 0.039 0.105
0.003 0.017 0.037
0.001 0.001 0.063
0.035 -0.035 0.055
0.037 -0.029 0.059
0.035 -0.027 0.061
0.029 -0.007 0.061
0.001 -0.007 0.065
0.019 -0.019 0.079
0.017 -0.023 0.087
-0.001 -0.001 0.081
0.009 -0.017 0.091
-0.011 -0.001 0.081
0.041 -0.023 0.049
0.041 -0.023 0.051
0.039 -0.027 0.041
0.041 -0.021 0.041
0.023 -0.013 0.047
0.021 -0.013 0.047
0.029 -0.005 0.047
0.027 -0.007 0.043
0.035 -0.025 0.061
0.033 -0.027 0.063
0.027 -0.007 0.061
0.031 -0.035 0.083
0.021 -0.027 0.077
0.019 -0.021 0.073
0.017 -0.017 0.075
0.001 -0.003 0.079
-0.017 0.019 0.067
0.029 -0.005 0.059
0.001 -0.001 0.057
-0.003 0.017 0.043
-0.003 0.005 0.067
-0.003 0.005 0.067
-0.007 0.039 0.037
-0.013 0.031 0.051
-0.019 0.021 0.093
-0.023 0.029 0.099
-0.017 0.015 0.069
-0.003 0.001 0.079
-0.019 0.025 0.069
-0.009 0.003 0.091
-0.015 0.015 0.091
-0.017 0.019 0.089
-0.017 0.021 0.091
-0.037 0.049 0.093
-0.027 0.023 0.105
-0.019 0.003 0.107
-0.019 0.005 0.107
-0.017 0.019 0.099
-0.019 0.021 0.103
-0.031 0.039 0.103
-0.001 -0.035 0.035
0.037 -0.033 0.051
0.035 -0.035 0.053
0.039 -0.031 0.055
0.041 -0.027 0.053
0.021 -0.023 0.075
0.011 -0.015 0.089
0.039 -0.031 0.047
0.039 -0.017 0.043
0.041 -0.027 0.053
0.023 -0.013 0.059
0.037 -0.029 0.059
0.031 -0.035 0.067
0.039 -0.027 0.043
0.037 -0.015 0.045
0.027 -0.011 0.049
-0.005 0.031 0.045
-0.017 0.027 0.059
-0.019 0.029 0.061
-0.017 0.015 0.073
0.001 0.001 0.067
-0.015 0.011 0.075
0.007 -0.011 0.089
-0.015 0.017 0.087
-0.021 0.033 0.085
-0.033 0.033 0.105
-0.029 -0.005 0.041
-0.019 -0.009 0.051
-0.007 -0.023 0.081
-0.029 -0.005 0.095
0.003 -0.033 0.043
-0.003 -0.035 0.039
0.005 -0.033 0.049
-0.003 -0.021 0.057
0.003 -0.033 0.065
0.003 -0.033 0.073
-0.015 -0.015 0.067
-0.001 -0.029 0.085
-0.009 -0.021 0.077
-0.009 -0.017 0.087
-0.035 0.003 0.035
-0.039 0.019 0.059
-0.025 0.007 0.053
-0.021 -0.005 0.059
-0.019 0.007 0.061
-0.033 0.013 0.061
-0.039 0.033 0.053
-0.041 0.027 0.049
-0.035 0.015 0.087
-0.035 0.015 0.087
-0.029 -0.007 0.087
-0.035 0.021 0.071
-0.041 0.023 0.093
-0.039 0.047 0.093
-0.039 0.023 0.103
-0.035 0.007 0.105
-0.029 -0.003 0.103
-0.039 0.033 0.103
-0.039 0.031 0.101
-0.031 0.003 0.043
-0.017 -0.011 0.063
-0.013 -0.017 0.079
-0.033 0.001 0.089
-0.013 -0.011 0.083
-0.031 0.001 0.085
-0.003 -0.025 0.053
-0.005 -0.019 0.039
-0.025 -0.005 0.053
0.001 -0.027 0.063
0.001 -0.023 0.063
-0.003 -0.027 0.081
-0.005 -0.021 0.089
-0.039 0.009 0.037
-0.043 0.025 0.039
-0.035 0.015 0.063
-0.037 0.005 0.037
-0.037 0.007 0.045
-0.039 0.009 0.047
-0.037 0.033 0.061
-0.041 0.027 0.057
-0.037 0.035 0.041
-0.035 0.037 0.043
-0.037 0.037 0.049
-0.035 0.037 0.055
-0.037 0.025 0.067
-0.037 0.027 0.067
-0.029 0.003 0.079
-0.027 0.005 0.071
-0.029 0.005 0.073
-0.029 0.005 0.077
-0.029 0.005 0.081
-0.037 0.025 0.067
-0.035 0.005 0.097
-0.035 0.007 0.095
-0.037 0.021 0.085
-0.037 0.019 0.091
-0.039 0.023 0.097
-0.029 0.027 0.089
-0.039 0.033 0.081
-0.037 0.025 0.101
-0.017 -0.001 0.035
-0.023 -0.007 0.041
-0.019 -0.007 0.045
-0.009 -0.015 0.061
-0.015 -0.013 0.075
-0.029 -0.007 0.093
0.007 -0.031 0.035
0.005 -0.033 0.057
0.035 -0.035 0.059
0.005 -0.033 0.041
0.007 -0.035 0.065
0.041 -0.025 0.043
0.035 -0.043 0.087
0.001 -0.029 0.073
0.001 -0.029 0.075
0.001 -0.031 0.077
0.007 -0.031 0.089
0.003 -0.029 0.089
0.001 -0.021 0.095
0.007 -0.031 0.089
-0.003 -0.027 0.087
-0.039 0.007 0.035
-0.037 0.007 0.039
-0.041 0.023 0.057
-0.017 -0.011 0.055
-0.019 -0.009 0.057
-0.037 0.017 0.087
-0.023 -0.001 0.087
-0.037 0.017 0.091
-0.033 0.001 0.089
-0.033 -0.001 0.097
-0.027 -0.005 0.099
-0.019 -0.005 0.107
-0.003 -0.015 0.067
-0.005 -0.029 0.043
-0.023 -0.005 0.037
-0.007 -0.023 0.087
0.005 -0.033 0.085
0.003 -0.029 0.089
0.017 -0.035 0.031
0.025 -0.033 0.039
0.027 -0.031 0.041
0.019 -0.027 0.041
0.029 -0.033 0.037
0.025 -0.025 0.045
0.013 -0.027 0.051
0.033 -0.035 0.057
0.039 -0.029 0.045
0.039 -0.027 0.041
0.011 -0.033 0.085
0.025 -0.041 0.081
0.007 -0.031 0.089
-0.007 -0.035 0.033
-0.039 0.011 0.053
-0.027 -0.007 0.041
0.001 -0.033 0.035
0.009 -0.035 0.039
-0.009 -0.015 0.063
0.001 -0.031 0.047
-0.029 -0.007 0.089
-0.031 -0.003 0.093
-0.027 0.003 0.077
-0.007 -0.019 0.071
-0.009 -0.019 0.087
-0.027 -0.007 0.087
-0.029 -0.007 0.101
-0.027 -0.009 0.095
-0.011 0.001 0.101
0.021 -0.033 0.039
-0.041 0.011 0.049
-0.041 0.011 0.047
-0.021 -0.005 0.059
-0.029 -0.007 0.101
-0.041 0.017 0.045
-0.005 -0.025 0.049
-0.041 0.011 0.049
-0.039 0.033 0.057
-0.001 -0.029 0.057
-0.033 0.011 0.069
-0.039 0.021 0.063
-0.033 0.005 0.091
-0.031 0.007 0.075
-0.033 0.011 0.077
-0.031 0.013 0.079
-0.039 0.029 0.059
-0.041 0.027 0.045
-0.035 0.037 0.045
-0.011 0.037 0.045
-0.037 0.019 0.091
-0.037 0.021 0.069
-0.035 0.027 0.071
-0.041 0.023 0.093
-0.043 0.037 0.085
-0.041 0.043 0.089
-0.041 0.031 0.093
-0.043 0.035 0.097
-0.043 0.043 0.087
-0.033 0.017 0.105
-0.031 0.041 0.097
-0.033 0.043 0.101
-0.039 0.035 0.049
-0.039 0.033 0.043
-0.029 0.039 0.051
-0.021 0.031 0.063
-0.037 0.037 0.107
-0.013 0.041 0.043
-0.033 0.037 0.051
-0.027 0.033 0.067
0.021 -0.011 0.059
-0.027 0.037 0.047
-0.029 0.039 0.045
-0.009 0.027 0.051
0.015 -0.005 0.051
0.011 -0.005 0.049
-0.021 0.037 0.043
-0.017 0.037 0.043
0.015 -0.017 0.059
0.013 -0.005 0.049
0.015 -0.005 0.051
0.023 -0.005 0.061
0.013 -0.017 0.073
0.017 -0.017 0.077
-0.041 0.031 0.051
-0.039 0.023 0.063
-0.041 0.031 0.049
-0.041 0.031 0.049
-0.019 0.035 0.035
-0.009 0.035 0.045
-0.017 0.033 0.053
-0.037 0.023 0.067
-0.043 0.045 0.085
-0.033 0.031 0.069
-0.027 0.023 0.077
-0.033 0.023 0.075
-0.019 0.019 0.079
-0.033 0.049 0.085
-0.029 0.039 0.095
-0.033 0.049 0.085
-0.035 0.041 0.083
-0.043 0.031 0.099
-0.043 0.041 0.101
-0.037 0.041 0.101
-0.031 0.041 0.099
-0.043 0.041 0.101
