-0.005 0.005 0.069
0.001 -0.003 0.079
-0.007 -0.007 0.089
-0.015 -0.005 0.109
0.007 -0.013 0.059
0.033 -0.015 0.047
0.009 0.001 0.039
0.009 -0.005 0.047
0.023 -0.011 0.067
0.013 -0.007 0.051
0.039 -0.017 0.039
0.033 -0.029 0.065
0.011 -0.017 0.089
0.009 -0.011 0.079
0.007 -0.021 0.093
0.001 -0.019 0.095
0.003 -0.019 0.095
-0.035 0.035 0.061
-0.025 0.037 0.045
-0.035 0.037 0.047
-0.017 0.023 0.097
-0.015 0.007 0.079
-0.037 0.049 0.093
-0.023 0.033 0.087
-0.005 -0.031 0.041
-0.001 -0.015 0.067
-0.009 -0.015 0.087
-0.017 -0.011 0.113
0.017 -0.035 0.037
0.007 -0.033 0.047
0.013 -0.031 0.045
-0.005 -0.017 0.043
0.001 -0.023 0.065
-0.001 -0.025 0.063
0.029 -0.031 0.053
0.017 -0.035 0.071
0.021 -0.037 0.069
-0.005 -0.019 0.071
-0.007 -0.021 0.077
-0.001 -0.027 0.079
-0.027 -0.007 0.041
-0.043 0.017 0.041
-0.043 0.015 0.051
-0.041 0.029 0.053
-0.039 0.029 0.061
-0.013 -0.015 0.065
-0.025 0.009 0.065
-0.021 0.009 0.057
-0.041 0.025 0.059
-0.041 0.011 0.049
-0.033 0.013 0.067
-0.037 0.017 0.065
-0.035 0.007 0.093
-0.039 0.023 0.083
-0.037 0.015 0.093
-0.039 0.025 0.097
-0.031 0.009 0.079
-0.015 -0.015 0.071
-0.033 0.019 0.075
-0.029 -0.007 0.101
-0.035 0.007 0.097
-0.039 0.019 0.101
-0.005 -0.023 0.049
0.009 -0.033 0.041
0.011 -0.035 0.061
0.013 -0.027 0.051
0.015 -0.035 0.069
0.015 -0.035 0.075
0.025 -0.041 0.081
0.013 -0.035 0.035
0.031 -0.033 0.047
0.035 -0.025 0.035
0.039 -0.031 0.049
0.041 -0.025 0.047
0.017 -0.035 0.069
0.031 -0.035 0.067
0.023 -0.013 0.067
0.001 -0.031 0.035
0.013 -0.035 0.037
0.031 -0.033 0.051
0.031 -0.037 0.061
0.013 -0.035 0.069
0.013 -0.037 0.071
0.035 -0.045 0.081
0.035 -0.043 0.079
-0.025 0.041 0.085
-0.021 0.007 0.103
-0.009 0.003 0.099
-0.013 0.011 0.099
0.001 -0.035 0.039
-0.009 -0.015 0.087
0.001 -0.025 0.091
0.003 -0.015 0.091
-0.011 -0.015 0.085
-0.001 -0.017 0.095
-0.017 -0.005 0.111
0.023 -0.035 0.085
0.033 -0.019 0.053
0.011 -0.023 0.091
0.007 -0.005 0.047
0.025 -0.007 0.063
0.033 -0.015 0.047
0.033 -0.025 0.061
0.021 -0.013 0.067
0.039 -0.031 0.055
0.037 -0.023 0.057
0.035 -0.039 0.087
0.007 -0.027 0.093
0.009 -0.013 0.089
0.009 -0.013 0.089
-0.017 -0.009 0.113
-0.025 0.011 0.111
0.001 0.001 0.067
-0.007 0.023 0.049
-0.019 -0.001 0.067
-0.017 0.027 0.059
-0.011 0.015 0.055
-0.013 0.031 0.053
-0.019 -0.001 0.111
-0.015 0.017 0.105
-0.013 0.011 0.101
-0.015 0.013 0.107
-0.021 0.019 0.105
-0.025 0.037 0.101
0.003 -0.003 0.077
-0.013 0.003 0.073
-0.019 0.023 0.099
0.019 0.001 0.035
0.033 -0.023 0.057
0.013 -0.003 0.041
0.019 -0.001 0.037
0.029 -0.003 0.047
0.029 -0.005 0.049
0.011 0.005 0.037
0.011 -0.003 0.043
0.013 -0.015 0.053
0.011 -0.015 0.061
0.005 -0.011 0.055
0.035 -0.015 0.035
0.007 -0.017 0.069
0.007 -0.009 0.077
0.005 -0.007 0.077
0.025 -0.009 0.065
-0.003 0.021 0.031
-0.031 0.039 0.049
-0.031 0.037 0.059
-0.039 0.035 0.053
-0.003 0.023 0.033
-0.007 0.041 0.041
-0.017 0.027 0.059
-0.015 0.041 0.037
-0.017 0.013 0.071
-0.019 0.025 0.065
-0.015 0.017 0.083
-0.013 0.013 0.087
-0.021 0.025 0.093
-0.023 0.033 0.095
-0.031 0.043 0.091
-0.027 0.039 0.095
-0.025 0.027 0.105
-0.029 0.043 0.101
-0.017 0.019 0.103
-0.023 0.013 0.107
-0.009 0.005 0.097
0.031 -0.007 0.053
0.001 0.007 0.041
-0.001 0.005 0.059
-0.001 -0.005 0.053
0.005 -0.007 0.079
0.003 -0.009 0.089
0.037 -0.025 0.035
0.019 -0.021 0.047
0.041 -0.023 0.043
0.033 -0.013 0.035
0.013 -0.003 0.045
0.025 -0.009 0.035
0.029 -0.007 0.047
0.025 -0.033 0.081
0.019 -0.019 0.079
0.003 -0.005 0.069
0.003 -0.005 0.073
-0.011 0.039 0.031
-0.003 0.021 0.043
-0.023 0.035 0.055
-0.017 0.023 0.061
-0.005 0.033 0.039
-0.009 0.043 0.039
-0.029 0.039 0.049
-0.019 0.023 0.091
-0.019 0.027 0.089
-0.019 0.023 0.099
-0.013 0.011 0.101
-0.017 0.015 0.107
-0.009 0.005 0.101
-0.017 0.021 0.099
-0.011 0.011 0.057
-0.011 0.015 0.055
-0.013 0.009 0.061
-0.021 0.031 0.095
-0.003 -0.015 0.095
-0.019 -0.005 0.111
-0.001 0.013 0.045
0.007 0.001 0.039
0.023 -0.003 0.047
-0.001 0.013 0.049
0.013 -0.015 0.059
0.013 -0.015 0.065
-0.001 0.003 0.067
0.029 -0.009 0.061
0.019 -0.023 0.083
0.027 -0.033 0.081
0.015 -0.017 0.085
0.001 -0.011 0.091
0.017 -0.013 0.073
0.005 -0.007 0.079
-0.037 0.035 0.043
-0.027 0.037 0.055
-0.005 0.013 0.051
-0.007 0.009 0.059
-0.039 0.039 0.099
-0.025 0.041 0.085
-0.007 0.001 0.079
-0.029 0.047 0.083
-0.015 0.017 0.095
-0.019 0.027 0.087
-0.033 0.045 0.091
-0.037 0.041 0.105
-0.027 0.021 0.105
-0.009 0.005 0.101
0.015 -0.019 0.055
-0.011 -0.003 0.085
-0.017 -0.001 0.109
0.041 -0.023 0.051
0.029 -0.007 0.045
0.037 -0.027 0.061
0.015 -0.019 0.053
0.031 -0.035 0.083
0.035 -0.041 0.079
0.019 -0.019 0.067
0.021 -0.027 0.073
-0.003 0.011 0.051
-0.019 0.017 0.065
0.001 0.007 0.041
0.001 0.017 0.039
-0.005 0.031 0.045
-0.001 0.003 0.053
-0.003 0.013 0.051
-0.003 0.007 0.059
-0.019 0.035 0.047
-0.005 0.035 0.035
-0.025 0.037 0.055
-0.017 0.003 0.079
-0.025 0.027 0.105
-0.023 0.009 0.111
-0.011 0.009 0.099
-0.029 0.017 0.105
-0.029 0.043 0.103
0.013 0.009 0.035
0.029 -0.033 0.071
0.021 -0.023 0.071
0.025 -0.033 0.037
0.029 -0.033 0.039
0.039 -0.025 0.039
0.039 -0.019 0.041
0.035 -0.015 0.035
0.031 -0.011 0.037
0.039 -0.019 0.047
0.009 -0.031 0.049
0.011 -0.037 0.071
0.027 -0.037 0.071
0.035 -0.043 0.085
0.033 -0.033 0.065
0.019 -0.019 0.065
0.019 -0.019 0.079
0.023 -0.013 0.065
0.011 -0.023 0.091
-0.019 0.019 0.065
0.041 -0.027 0.051
0.035 -0.013 0.043
0.017 0.003 0.037
-0.015 0.015 0.087
0.017 -0.013 0.073
0.021 -0.013 0.071
0.007 -0.011 0.089
-0.015 0.013 0.085
-0.011 0.009 0.095
-0.027 0.039 0.087
-0.009 0.001 0.097
-0.009 0.005 0.101
-0.015 0.017 0.101
-0.009 -0.029 0.041
-0.021 -0.007 0.055
-0.031 -0.003 0.089
-0.031 -0.001 0.091
-0.007 -0.027 0.043
0.017 -0.035 0.037
-0.007 -0.033 0.041
0.005 -0.033 0.045
-0.003 -0.013 0.041
-0.015 -0.011 0.051
-0.009 -0.011 0.053
-0.013 -0.017 0.069
0.029 -0.031 0.047
0.029 -0.039 0.087
0.007 -0.033 0.087
-0.043 0.017 0.049
-0.041 0.025 0.047
-0.041 0.011 0.049
-0.041 0.027 0.041
-0.041 0.013 0.053
-0.021 0.005 0.059
-0.017 0.003 0.065
-0.037 0.021 0.069
-0.037 0.035 0.057
-0.041 0.019 0.055
-0.039 0.033 0.057
-0.035 0.017 0.071
-0.031 0.015 0.079
-0.031 -0.003 0.089
-0.039 0.019 0.095
-0.043 0.041 0.087
-0.043 0.033 0.097
-0.039 0.023 0.103
-0.035 0.031 0.103
-0.033 0.001 0.101
-0.031 0.001 0.105
-0.031 0.011 0.105
-0.007 -0.027 0.041
-0.031 -0.001 0.039
-0.025 -0.005 0.047
-0.025 -0.005 0.049
-0.017 -0.013 0.063
-0.017 -0.013 0.067
-0.005 -0.023 0.047
-0.027 0.001 0.043
-0.025 -0.003 0.049
-0.005 -0.023 0.051
0.001 -0.031 0.079
-0.009 -0.021 0.077
-0.019 -0.001 0.079
-0.001 -0.025 0.091
-0.035 0.029 0.033
-0.039 0.009 0.043
-0.039 0.031 0.039
-0.043 0.017 0.041
-0.041 0.019 0.053
-0.039 0.033 0.053
-0.035 0.015 0.063
-0.027 0.003 0.075
-0.029 0.005 0.075
-0.037 0.019 0.069
-0.037 0.015 0.095
-0.041 0.025 0.095
-0.041 0.027 0.093
-0.041 0.039 0.089
-0.037 0.021 0.097
-0.027 0.013 0.107
-0.043 0.019 0.051
-0.009 -0.021 0.085
-0.009 -0.009 0.091
0.009 -0.015 0.091
-0.001 -0.007 0.089
0.011 -0.017 0.089
0.007 -0.015 0.091
-0.001 -0.017 0.095
0.005 -0.009 0.087
0.035 -0.019 0.051
0.029 -0.037 0.089
0.001 -0.017 0.095
0.003 -0.007 0.085
-0.031 0.017 0.105
-0.043 0.031 0.099
-0.037 0.025 0.103
-0.019 0.025 0.099
-0.009 0.019 0.051
-0.015 0.029 0.057
-0.015 0.031 0.055
-0.021 0.037 0.045
-0.021 0.023 0.103
-0.031 0.015 0.105
-0.011 0.009 0.101
-0.013 0.013 0.101
-0.029 0.027 0.105
-0.031 0.029 0.105
-0.029 0.039 0.101
-0.037 0.021 0.103
-0.013 0.005 0.103
-0.043 0.039 0.103
-0.003 -0.035 0.039
-0.005 -0.023 0.075
-0.001 -0.029 0.083
-0.005 -0.023 0.089
-0.031 -0.003 0.091
-0.009 -0.019 0.087
0.025 -0.037 0.063
0.013 -0.033 0.041
0.023 -0.029 0.043
-0.003 -0.029 0.045
0.015 -0.025 0.047
0.017 -0.023 0.047
0.011 -0.035 0.065
0.015 -0.031 0.059
0.031 -0.037 0.061
0.027 -0.037 0.067
0.025 -0.041 0.077
0.031 -0.041 0.085
0.003 -0.031 0.073
0.007 -0.035 0.079
0.007 -0.031 0.089
-0.041 0.013 0.053
-0.037 0.017 0.057
-0.029 0.009 0.067
-0.037 0.017 0.067
-0.023 0.005 0.071
-0.011 -0.009 0.087
-0.019 -0.001 0.097
-0.027 -0.005 0.091
-0.035 0.003 0.105
-0.031 0.001 0.107
-0.015 0.005 0.099
-0.021 -0.007 0.043
0.003 -0.031 0.045
-0.019 -0.009 0.057
-0.013 -0.015 0.067
-0.003 -0.027 0.079
-0.009 -0.021 0.083
-0.029 -0.007 0.101
-0.017 -0.007 0.109
0.023 -0.035 0.035
0.013 -0.031 0.043
0.025 -0.033 0.039
0.017 -0.033 0.063
0.019 -0.027 0.055
0.037 -0.027 0.039
0.039 -0.029 0.055
0.025 -0.041 0.077
0.027 -0.039 0.087
0.007 -0.035 0.067
0.033 -0.035 0.065
0.015 -0.033 0.085
-0.027 -0.007 0.041
0.003 -0.035 0.039
-0.003 -0.035 0.039
-0.029 0.005 0.077
-0.031 -0.003 0.091
-0.003 -0.021 0.073
-0.009 -0.017 0.069
-0.007 -0.021 0.075
-0.027 0.001 0.083
-0.029 -0.007 0.093
-0.015 0.003 0.091
-0.019 -0.001 0.093
-0.021 0.001 0.099
-0.035 0.001 0.033
-0.017 -0.011 0.073
-0.031 -0.003 0.093
-0.041 0.021 0.049
-0.041 0.013 0.047
-0.039 0.035 0.049
-0.039 0.033 0.057
-0.037 0.035 0.057
-0.003 -0.025 0.057
-0.035 0.019 0.071
-0.035 0.015 0.073
-0.039 0.021 0.063
-0.039 0.021 0.063
-0.039 0.027 0.065
0.003 -0.031 0.067
-0.031 0.001 0.085
-0.035 0.013 0.083
-0.035 0.013 0.089
-0.033 0.035 0.037
-0.039 0.033 0.053
-0.039 0.035 0.053
-0.029 0.039 0.045
-0.033 0.035 0.037
-0.011 0.037 0.045
-0.037 0.019 0.067
-0.025 0.025 0.075
-0.037 0.023 0.087
-0.043 0.029 0.097
-0.035 0.015 0.105
-0.045 0.027 0.037
-0.039 0.035 0.051
-0.027 0.013 0.107
-0.015 0.031 0.049
0.015 -0.017 0.063
-0.007 0.007 0.063
0.027 -0.005 0.057
0.027 -0.003 0.055
-0.029 0.029 0.073
-0.027 0.021 0.079
-0.033 0.043 0.083
0.031 -0.037 0.089
0.017 -0.017 0.077
0.017 -0.019 0.073
0.009 -0.013 0.089
-0.027 0.047 0.085
-0.031 0.049 0.087
-0.035 0.029 0.033
-0.033 0.031 0.033
-0.039 0.031 0.063
-0.031 0.033 0.065
-0.023 0.023 0.077
-0.037 0.033 0.081
-0.019 0.023 0.073
-0.029 0.035 0.095
-0.043 0.043 0.087
-0.039 0.047 0.093
-0.033 0.043 0.105
-0.025 0.039 0.097
-0.013 0.041 0.037
