-0.003 -0.035 0.039
-0.027 -0.007 0.035
-0.009 -0.009 0.047
-0.009 -0.009 0.047
-0.003 -0.023 0.059
-0.019 -0.009 0.061
-0.011 -0.015 0.063
-0.007 -0.017 0.067
-0.013 -0.017 0.077
-0.007 -0.015 0.065
-0.009 -0.017 0.067
-0.003 -0.023 0.091
-0.011 -0.013 0.085
-0.007 -0.017 0.089
0.015 -0.035 0.031
-0.007 -0.031 0.037
-0.003 -0.035 0.039
0.019 -0.035 0.035
-0.003 -0.035 0.039
0.005 -0.035 0.039
0.031 -0.031 0.043
0.031 -0.033 0.045
0.005 -0.033 0.049
0.005 -0.033 0.045
0.001 -0.031 0.051
0.001 -0.031 0.055
0.007 -0.033 0.057
0.001 -0.031 0.059
0.007 -0.033 0.057
0.025 -0.029 0.057
-0.005 -0.021 0.053
-0.001 -0.025 0.063
0.025 -0.031 0.059
0.009 -0.035 0.067
0.029 -0.037 0.067
0.019 -0.035 0.079
0.007 -0.033 0.083
0.029 -0.043 0.081
0.001 -0.027 0.067
0.003 -0.031 0.071
0.001 -0.027 0.067
0.001 -0.025 0.067
0.001 -0.029 0.073
0.023 -0.039 0.069
0.005 -0.033 0.075
0.011 -0.033 0.087
-0.039 0.009 0.039
-0.033 0.009 0.051
-0.041 0.025 0.053
-0.035 0.015 0.063
-0.023 -0.007 0.043
-0.033 0.003 0.043
-0.023 -0.005 0.051
-0.015 -0.013 0.061
-0.019 -0.009 0.057
-0.041 0.025 0.045
-0.025 0.009 0.053
-0.035 0.015 0.073
-0.037 0.019 0.085
-0.041 0.023 0.093
-0.031 0.009 0.067
-0.017 -0.009 0.071
-0.017 -0.011 0.073
-0.017 -0.009 0.075
-0.037 0.021 0.069
-0.013 0.001 0.095
-0.011 0.001 0.093
-0.035 0.007 0.101
-0.041 0.035 0.081
-0.039 0.033 0.089
-0.041 0.027 0.097
-0.035 0.003 0.107
-0.033 0.001 0.109
-0.037 0.029 0.101
-0.017 -0.009 0.047
0.007 -0.005 0.043
0.007 -0.005 0.043
0.001 0.001 0.057
0.001 -0.003 0.061
-0.011 0.007 0.065
-0.009 0.011 0.057
0.001 -0.001 0.073
-0.015 0.003 0.069
-0.013 0.001 0.075
0.001 -0.011 0.091
-0.021 0.029 0.089
-0.009 -0.007 0.089
-0.005 -0.009 0.091
-0.015 -0.007 0.113
0.007 -0.011 0.051
0.011 -0.003 0.039
0.023 -0.003 0.045
0.019 -0.003 0.047
0.029 -0.005 0.045
0.027 -0.003 0.047
0.029 -0.005 0.047
0.015 -0.017 0.053
0.001 -0.017 0.061
0.031 -0.017 0.049
0.031 -0.021 0.053
0.009 -0.011 0.051
0.011 -0.015 0.063
0.025 -0.003 0.055
0.037 -0.015 0.045
0.041 -0.023 0.047
0.025 -0.029 0.065
0.011 -0.013 0.087
0.009 -0.017 0.071
0.019 -0.019 0.077
0.009 -0.013 0.077
0.021 -0.011 0.069
0.011 -0.013 0.085
0.003 -0.005 0.081
0.033 -0.029 0.065
-0.011 0.039 0.031
-0.037 0.033 0.039
-0.039 0.033 0.043
-0.045 0.025 0.039
-0.035 0.037 0.045
-0.035 0.037 0.055
-0.011 0.043 0.043
-0.021 0.035 0.053
-0.005 0.033 0.039
-0.005 0.033 0.033
-0.005 0.029 0.037
-0.017 0.007 0.061
-0.009 0.017 0.053
-0.007 0.015 0.051
-0.017 0.027 0.059
-0.007 0.025 0.049
-0.009 0.019 0.051
-0.015 0.029 0.057
-0.033 0.037 0.041
-0.031 0.035 0.061
-0.017 0.039 0.039
-0.005 0.033 0.041
-0.007 0.039 0.043
-0.009 0.043 0.041
-0.023 0.037 0.097
-0.023 0.037 0.097
-0.027 0.039 0.089
-0.029 0.041 0.097
-0.027 0.023 0.077
-0.023 0.021 0.079
-0.029 0.029 0.073
-0.023 0.025 0.075
-0.023 0.035 0.083
-0.023 0.037 0.097
-0.021 0.031 0.095
-0.029 0.047 0.085
-0.027 0.039 0.095
-0.015 0.017 0.101
-0.021 0.009 0.107
-0.017 0.015 0.107
-0.015 0.017 0.105
-0.021 0.019 0.105
-0.017 0.015 0.107
-0.019 0.023 0.101
-0.025 0.039 0.101
-0.033 0.043 0.105
-0.023 0.035 0.097
0.015 0.007 0.035
0.015 0.007 0.037
0.001 0.021 0.037
0.035 -0.013 0.043
-0.001 0.005 0.047
-0.003 -0.001 0.045
0.001 -0.001 0.063
-0.001 -0.005 0.053
-0.001 -0.005 0.053
-0.001 -0.009 0.059
0.003 -0.005 0.081
-0.009 0.001 0.089
0.001 -0.011 0.091
-0.015 -0.007 0.111
0.039 -0.021 0.037
0.039 -0.023 0.037
0.037 -0.017 0.047
0.033 -0.033 0.065
0.037 -0.015 0.043
0.039 -0.019 0.037
0.035 -0.013 0.037
0.031 -0.011 0.037
0.025 -0.009 0.037
0.023 -0.003 0.037
0.019 -0.003 0.047
0.015 -0.003 0.047
0.011 -0.005 0.049
0.029 -0.011 0.035
0.029 -0.011 0.035
0.025 -0.003 0.043
0.017 -0.019 0.059
0.027 -0.027 0.063
0.021 -0.005 0.057
0.027 -0.003 0.055
0.029 -0.003 0.055
0.041 -0.019 0.043
0.039 -0.017 0.045
0.041 -0.021 0.049
0.031 -0.029 0.067
0.033 -0.033 0.067
0.025 -0.033 0.077
0.031 -0.037 0.079
0.017 -0.031 0.085
0.031 -0.035 0.087
0.035 -0.039 0.085
0.023 -0.011 0.067
0.023 -0.013 0.067
0.021 -0.031 0.075
0.001 -0.001 0.065
0.017 -0.021 0.085
0.017 -0.019 0.083
0.005 0.015 0.035
0.003 0.019 0.033
-0.005 0.023 0.043
-0.005 0.031 0.045
-0.017 0.023 0.057
-0.007 0.015 0.049
0.005 0.013 0.037
-0.003 0.001 0.041
-0.005 0.019 0.047
-0.003 0.011 0.053
0.001 0.001 0.059
-0.019 0.019 0.059
-0.019 0.023 0.063
-0.011 0.023 0.053
-0.013 0.029 0.055
-0.021 0.035 0.047
-0.021 0.027 0.069
-0.027 0.033 0.067
-0.021 0.023 0.075
-0.015 0.019 0.087
-0.021 0.031 0.087
-0.019 0.027 0.097
-0.017 0.019 0.067
-0.015 0.015 0.075
-0.007 0.007 0.065
-0.017 0.021 0.069
-0.021 0.023 0.077
-0.013 0.013 0.087
-0.011 0.007 0.085
-0.015 0.019 0.085
-0.021 0.033 0.083
-0.023 0.035 0.083
-0.015 0.011 0.105
-0.023 0.019 0.105
-0.021 0.021 0.105
-0.013 0.011 0.103
-0.031 0.039 0.105
0.015 0.007 0.035
0.015 0.005 0.037
-0.009 0.009 0.059
-0.033 0.035 0.063
-0.033 0.035 0.063
-0.009 0.007 0.065
-0.023 0.029 0.071
-0.005 0.005 0.065
-0.003 0.003 0.071
-0.019 0.025 0.091
-0.017 0.023 0.087
-0.029 0.025 0.105
-0.021 0.027 0.103
0.007 0.001 0.039
0.033 -0.013 0.035
0.005 -0.007 0.047
-0.001 0.005 0.061
0.007 -0.005 0.045
0.013 -0.005 0.047
0.013 -0.009 0.051
0.017 -0.007 0.053
0.021 -0.005 0.055
0.007 -0.005 0.043
0.015 -0.003 0.043
0.025 -0.003 0.041
-0.005 0.003 0.075
0.023 -0.009 0.065
0.015 -0.009 0.051
0.021 -0.005 0.055
0.039 -0.021 0.051
0.041 -0.021 0.045
0.001 -0.005 0.085
0.027 -0.035 0.075
0.035 -0.043 0.077
0.017 -0.017 0.075
0.029 -0.027 0.065
0.017 -0.019 0.083
0.019 -0.023 0.083
0.011 -0.013 0.087
-0.031 0.037 0.045
-0.031 0.037 0.043
-0.041 0.031 0.051
-0.035 0.037 0.049
-0.035 0.037 0.051
-0.035 0.037 0.043
-0.039 0.033 0.041
-0.045 0.023 0.041
-0.037 0.029 0.067
-0.013 0.037 0.043
-0.027 0.033 0.065
-0.009 0.013 0.055
-0.001 0.003 0.063
-0.019 0.031 0.059
-0.011 0.029 0.053
-0.011 0.043 0.039
-0.011 0.043 0.039
-0.037 0.033 0.095
-0.037 0.039 0.105
-0.039 0.047 0.093
-0.037 0.049 0.093
-0.037 0.045 0.089
-0.039 0.039 0.099
-0.011 0.003 0.071
-0.019 0.025 0.069
-0.021 0.033 0.097
-0.023 0.029 0.103
-0.019 0.021 0.103
-0.011 0.009 0.099
-0.039 0.047 0.087
-0.043 0.045 0.085
-0.035 0.047 0.089
-0.033 0.003 0.109
-0.035 0.037 0.107
-0.019 0.005 0.107
-0.023 0.013 0.107
-0.033 0.043 0.103
-0.029 0.043 0.103
-0.023 0.037 0.099
-0.001 -0.027 0.061
-0.021 -0.003 0.057
-0.023 -0.001 0.057
-0.021 -0.007 0.053
-0.021 -0.007 0.055
-0.017 -0.011 0.059
-0.017 -0.013 0.067
-0.033 0.001 0.093
-0.031 -0.001 0.085
-0.033 0.001 0.097
-0.009 -0.027 0.037
-0.001 -0.023 0.035
-0.029 -0.003 0.039
-0.001 -0.027 0.061
-0.001 -0.015 0.035
0.001 -0.029 0.049
-0.001 -0.013 0.037
-0.027 0.001 0.043
-0.025 -0.003 0.045
-0.025 -0.001 0.045
-0.037 0.007 0.045
-0.017 -0.011 0.055
0.001 -0.019 0.063
-0.019 -0.009 0.059
-0.021 0.003 0.059
-0.019 -0.003 0.063
0.003 -0.033 0.071
0.003 -0.031 0.071
-0.003 -0.027 0.081
0.001 -0.031 0.085
0.003 -0.031 0.087
0.001 -0.031 0.083
0.001 -0.023 0.065
0.003 -0.027 0.069
-0.009 -0.021 0.077
-0.017 -0.001 0.071
-0.017 -0.003 0.069
-0.001 -0.029 0.081
-0.003 -0.027 0.081
-0.011 -0.013 0.085
-0.011 -0.017 0.083
-0.011 -0.015 0.085
-0.029 -0.007 0.093
-0.031 -0.001 0.091
-0.041 0.013 0.037
-0.049 0.017 0.039
-0.049 0.019 0.039
-0.045 0.017 0.039
-0.045 0.029 0.035
-0.035 0.001 0.035
-0.051 0.019 0.037
-0.051 0.019 0.037
-0.045 0.027 0.037
-0.047 0.025 0.039
-0.047 0.015 0.039
-0.041 0.011 0.045
-0.043 0.015 0.041
-0.041 0.027 0.045
-0.043 0.027 0.039
-0.041 0.027 0.043
-0.039 0.031 0.043
-0.041 0.027 0.045
-0.019 0.007 0.061
-0.041 0.025 0.059
-0.035 0.033 0.037
-0.033 0.037 0.039
-0.037 0.033 0.039
-0.031 0.037 0.059
-0.037 0.019 0.083
-0.039 0.027 0.085
-0.039 0.021 0.093
-0.041 0.025 0.093
-0.031 0.009 0.073
-0.031 0.009 0.071
-0.033 0.005 0.089
-0.035 0.017 0.089
-0.041 0.033 0.085
-0.039 0.021 0.093
-0.041 0.025 0.095
-0.043 0.039 0.083
-0.043 0.041 0.083
-0.041 0.043 0.089
-0.035 0.003 0.107
-0.033 0.005 0.107
-0.043 0.031 0.097
-0.035 0.009 0.103
-0.033 0.009 0.105
-0.037 0.025 0.103
-0.037 0.031 0.103
-0.035 0.027 0.101
-0.045 0.037 0.099
-0.039 0.037 0.105
-0.039 0.041 0.105
-0.043 0.017 0.041
-0.003 -0.035 0.037
0.001 -0.035 0.037
-0.027 -0.005 0.033
0.003 -0.035 0.039
0.001 -0.033 0.043
-0.017 -0.013 0.063
-0.015 -0.013 0.061
-0.011 -0.015 0.061
0.005 -0.033 0.057
-0.013 -0.017 0.073
-0.011 -0.019 0.077
-0.007 -0.021 0.077
-0.001 -0.029 0.085
-0.003 -0.027 0.087
-0.017 -0.009 0.109
-0.015 -0.007 0.109
0.031 -0.023 0.031
0.003 -0.033 0.063
0.013 -0.035 0.063
0.033 -0.033 0.051
0.017 -0.025 0.045
0.023 -0.023 0.047
0.013 -0.035 0.037
0.027 -0.033 0.037
0.003 -0.031 0.059
0.001 -0.031 0.061
0.007 -0.031 0.049
0.025 -0.023 0.049
0.033 -0.035 0.053
0.033 -0.035 0.057
0.035 -0.035 0.053
0.027 -0.041 0.077
0.013 -0.035 0.081
0.027 -0.039 0.087
0.033 -0.043 0.079
0.019 -0.035 0.077
0.023 -0.041 0.077
0.007 -0.035 0.069
0.009 -0.035 0.073
0.015 -0.031 0.089
0.013 -0.029 0.091
0.013 -0.031 0.089
0.009 -0.029 0.091
0.019 -0.035 0.081
0.009 -0.035 0.035
0.003 -0.035 0.037
-0.031 -0.003 0.033
-0.031 -0.003 0.033
-0.037 0.007 0.041
-0.047 0.015 0.037
0.003 -0.035 0.037
0.005 -0.033 0.041
-0.023 -0.005 0.035
0.009 -0.031 0.049
0.007 -0.033 0.057
0.007 -0.033 0.057
-0.021 -0.007 0.049
-0.017 -0.005 0.041
-0.003 -0.035 0.039
-0.003 -0.029 0.043
-0.001 -0.029 0.045
0.005 -0.033 0.043
-0.011 -0.013 0.057
-0.031 -0.003 0.093
-0.033 0.001 0.091
-0.025 -0.005 0.093
-0.017 -0.013 0.071
-0.013 -0.017 0.069
-0.027 0.003 0.077
0.003 -0.033 0.071
-0.007 -0.017 0.067
-0.017 -0.013 0.069
-0.027 0.001 0.083
-0.015 0.003 0.095
-0.009 -0.011 0.091
-0.021 -0.001 0.083
-0.015 0.003 0.089
-0.031 0.007 0.081
-0.031 0.007 0.079
-0.021 -0.001 0.087
-0.029 -0.007 0.095
-0.025 0.005 0.103
-0.023 0.003 0.103
-0.015 0.007 0.103
-0.019 -0.005 0.107
-0.009 0.003 0.099
-0.011 0.001 0.095
-0.017 0.005 0.097
-0.023 0.001 0.097
-0.019 -0.001 0.095
0.011 -0.033 0.043
