0.003 -0.013 0.059
-0.005 0.001 0.079
-0.021 0.017 0.105
-0.009 -0.005 0.087
-0.003 -0.015 0.095
0.019 -0.009 0.065
0.013 -0.017 0.071
0.031 -0.023 0.057
0.025 -0.003 0.055
0.027 -0.033 0.087
0.021 -0.009 0.067
0.011 -0.027 0.093
-0.001 0.009 0.049
0.001 0.011 0.047
-0.011 0.031 0.047
-0.009 0.031 0.047
-0.027 0.047 0.083
-0.023 0.037 0.047
-0.013 0.041 0.033
-0.021 0.027 0.103
-0.019 0.027 0.097
-0.021 0.033 0.097
-0.021 0.031 0.087
-0.013 0.011 0.103
-0.021 0.031 0.095
-0.035 0.047 0.093
-0.035 0.047 0.091
-0.031 0.035 0.105
-0.027 0.035 0.101
-0.031 0.037 0.105
0.007 0.003 0.033
0.017 0.005 0.035
0.001 0.001 0.071
-0.005 -0.015 0.047
-0.003 -0.027 0.053
-0.021 -0.003 0.057
-0.015 -0.011 0.079
-0.009 -0.011 0.091
-0.029 -0.005 0.099
0.001 -0.031 0.047
0.023 -0.033 0.061
0.001 -0.025 0.065
0.005 -0.035 0.071
0.013 -0.035 0.077
0.029 -0.043 0.079
0.005 -0.033 0.085
0.005 -0.029 0.089
0.009 -0.031 0.089
-0.041 0.011 0.045
-0.043 0.015 0.035
-0.047 0.015 0.039
-0.041 0.029 0.053
-0.039 0.025 0.065
-0.027 0.005 0.051
-0.023 0.005 0.055
-0.027 0.013 0.055
-0.041 0.019 0.055
-0.035 0.015 0.059
-0.037 0.027 0.087
-0.025 0.005 0.071
-0.025 0.003 0.077
-0.029 0.005 0.075
-0.031 -0.001 0.085
-0.027 0.007 0.111
0.003 -0.035 0.039
0.005 -0.033 0.045
0.013 -0.029 0.055
0.013 -0.035 0.063
0.005 -0.035 0.071
0.013 -0.037 0.073
0.003 -0.033 0.081
-0.019 -0.001 0.095
0.009 -0.031 0.089
0.031 -0.035 0.055
0.039 -0.027 0.043
0.027 -0.035 0.059
0.029 -0.041 0.085
0.013 -0.029 0.091
0.009 -0.025 0.095
0.031 -0.039 0.087
0.019 -0.035 0.037
-0.003 -0.033 0.041
0.037 -0.031 0.045
0.037 -0.031 0.043
0.037 -0.027 0.039
0.009 -0.035 0.077
0.011 -0.035 0.077
0.017 -0.035 0.071
0.025 -0.039 0.071
0.027 -0.037 0.069
0.025 -0.039 0.071
0.025 -0.041 0.081
0.029 -0.043 0.079
0.035 -0.041 0.083
-0.021 0.005 0.103
0.005 -0.025 0.093
0.005 -0.021 0.095
-0.011 -0.007 0.089
-0.015 -0.007 0.113
-0.005 -0.009 0.091
0.019 -0.013 0.045
0.019 -0.033 0.085
0.015 -0.005 0.051
0.023 -0.013 0.047
0.029 -0.013 0.045
0.037 -0.033 0.059
0.019 -0.021 0.083
0.009 -0.019 0.091
0.003 -0.005 0.083
-0.001 -0.007 0.089
-0.011 0.005 0.101
-0.011 0.017 0.053
-0.029 0.003 0.101
-0.015 -0.007 0.113
-0.009 0.001 0.103
-0.007 0.011 0.057
-0.019 0.029 0.059
-0.023 0.003 0.109
-0.023 0.005 0.109
-0.031 0.007 0.105
-0.009 -0.001 0.081
-0.013 0.013 0.099
-0.025 0.033 0.099
-0.019 -0.001 0.111
-0.023 0.005 0.109
-0.013 0.011 0.109
-0.041 0.035 0.101
-0.015 0.039 0.043
-0.009 0.001 0.089
0.015 0.005 0.037
0.029 -0.005 0.047
0.015 -0.021 0.053
0.039 -0.025 0.053
0.035 -0.025 0.061
0.019 -0.021 0.073
0.025 -0.029 0.067
0.011 -0.025 0.093
0.011 -0.013 0.083
-0.027 0.033 0.033
-0.001 0.021 0.033
-0.033 0.037 0.041
-0.001 0.013 0.045
-0.019 0.027 0.061
-0.021 0.035 0.037
-0.031 0.037 0.041
-0.013 0.039 0.043
-0.011 0.043 0.043
-0.023 0.037 0.097
-0.023 0.037 0.099
-0.017 0.021 0.071
-0.015 0.017 0.085
-0.017 0.019 0.083
-0.023 0.033 0.095
0.031 -0.007 0.053
-0.001 0.001 0.047
0.015 -0.017 0.079
-0.001 0.003 0.069
0.013 -0.017 0.089
0.019 -0.025 0.061
0.019 -0.025 0.063
0.031 -0.011 0.041
0.029 -0.015 0.047
0.033 -0.017 0.049
0.041 -0.021 0.045
0.037 -0.025 0.035
0.013 -0.003 0.043
0.023 -0.007 0.037
0.019 -0.025 0.063
0.029 -0.003 0.051
0.027 -0.009 0.063
0.025 -0.007 0.063
0.005 -0.005 0.077
-0.001 0.021 0.039
-0.003 0.033 0.035
-0.021 0.013 0.063
-0.003 0.011 0.053
-0.017 0.019 0.057
-0.019 0.023 0.091
-0.021 0.033 0.097
-0.007 0.003 0.075
-0.009 0.005 0.099
-0.009 0.005 0.101
-0.013 0.013 0.107
-0.013 0.013 0.097
-0.003 -0.009 0.089
-0.029 0.017 0.105
0.007 -0.001 0.039
0.013 -0.003 0.045
0.013 -0.009 0.051
0.009 -0.003 0.039
0.015 -0.005 0.051
0.023 -0.003 0.045
0.037 -0.019 0.051
0.037 -0.015 0.045
-0.001 -0.011 0.091
-0.037 0.035 0.051
-0.039 0.035 0.053
-0.047 0.025 0.039
-0.027 0.037 0.045
-0.011 0.037 0.045
-0.025 0.031 0.069
-0.019 0.027 0.065
-0.009 0.021 0.051
-0.037 0.037 0.107
-0.037 0.047 0.093
-0.039 0.043 0.091
-0.021 0.023 0.077
-0.017 0.021 0.071
-0.013 0.013 0.101
-0.021 0.029 0.089
-0.015 0.017 0.101
0.029 -0.009 0.061
0.011 -0.023 0.091
0.031 -0.011 0.041
0.013 -0.015 0.063
0.039 -0.023 0.039
0.041 -0.025 0.049
0.031 -0.039 0.087
0.033 -0.039 0.087
0.019 -0.021 0.071
0.007 -0.011 0.077
0.013 -0.017 0.089
-0.025 0.035 0.059
-0.005 0.035 0.035
-0.011 0.011 0.091
-0.019 0.007 0.073
-0.025 0.035 0.087
-0.023 0.003 0.109
-0.009 0.003 0.103
-0.031 0.039 0.103
-0.005 -0.025 0.049
-0.013 -0.009 0.083
-0.013 -0.017 0.079
-0.015 -0.013 0.079
0.011 -0.037 0.075
-0.007 -0.021 0.087
0.001 -0.031 0.083
-0.001 -0.025 0.091
-0.009 -0.017 0.087
0.005 -0.013 0.091
0.009 -0.033 0.087
-0.003 -0.025 0.089
0.025 -0.033 0.085
0.001 -0.023 0.093
0.007 -0.017 0.091
-0.033 -0.001 0.037
-0.043 0.015 0.051
-0.043 0.015 0.051
-0.037 0.015 0.101
-0.041 0.029 0.057
-0.041 0.025 0.095
-0.035 0.011 0.103
-0.033 0.015 0.105
-0.033 0.015 0.105
-0.037 0.033 0.105
-0.037 0.045 0.093
-0.033 0.035 0.105
-0.025 0.003 0.107
-0.021 0.017 0.105
-0.025 0.025 0.105
0.035 -0.029 0.039
0.041 -0.027 0.045
0.037 -0.027 0.059
0.029 -0.031 0.033
0.039 -0.017 0.043
0.017 -0.019 0.061
0.025 -0.011 0.051
0.023 -0.039 0.069
0.019 -0.021 0.069
0.039 -0.023 0.039
0.025 -0.005 0.035
-0.003 0.031 0.033
0.027 -0.013 0.055
-0.009 0.027 0.051
0.005 -0.007 0.075
-0.017 0.021 0.067
0.001 -0.003 0.081
0.005 -0.007 0.075
0.001 0.001 0.067
0.007 -0.009 0.077
-0.019 0.027 0.083
-0.011 0.009 0.095
-0.013 0.013 0.095
-0.011 0.007 0.099
-0.021 0.023 0.103
-0.019 0.025 0.099
0.017 0.003 0.033
-0.005 -0.033 0.041
0.009 -0.035 0.077
-0.025 -0.001 0.097
-0.015 -0.011 0.111
0.011 -0.033 0.041
0.029 -0.011 0.059
0.027 -0.041 0.081
0.015 -0.035 0.065
0.011 -0.033 0.085
0.013 -0.031 0.089
0.017 -0.035 0.077
-0.007 -0.017 0.069
-0.025 -0.001 0.093
-0.017 -0.001 0.087
-0.009 -0.001 0.101
-0.015 0.015 0.103
-0.023 0.005 0.113
-0.009 0.003 0.099
-0.017 0.011 0.107
0.019 -0.027 0.055
-0.021 -0.003 0.059
-0.013 -0.005 0.085
-0.007 -0.033 0.041
0.029 -0.031 0.047
-0.001 -0.017 0.059
-0.003 -0.027 0.085
-0.037 0.007 0.039
-0.045 0.021 0.041
-0.031 0.009 0.067
-0.025 0.011 0.061
-0.039 0.031 0.039
-0.035 0.011 0.087
-0.041 0.023 0.095
-0.037 0.015 0.095
-0.037 0.017 0.099
-0.037 0.029 0.087
-0.039 0.031 0.101
-0.037 0.025 0.103
-0.039 0.033 0.103
-0.035 0.003 0.039
-0.029 -0.003 0.087
-0.009 -0.027 0.037
-0.009 -0.029 0.039
-0.007 -0.027 0.041
-0.005 -0.023 0.051
-0.025 -0.003 0.049
-0.023 0.001 0.055
-0.019 -0.009 0.057
-0.017 -0.011 0.059
-0.019 -0.009 0.067
-0.025 -0.005 0.053
-0.017 -0.011 0.073
-0.015 -0.005 0.075
-0.039 0.023 0.061
-0.041 0.029 0.057
-0.035 0.015 0.063
-0.039 0.035 0.053
-0.037 0.019 0.089
-0.029 0.023 0.077
-0.039 0.027 0.085
-0.039 0.021 0.093
-0.041 0.023 0.095
-0.027 0.013 0.107
-0.027 0.011 0.109
-0.041 0.023 0.045
-0.003 -0.035 0.039
-0.007 -0.023 0.083
-0.011 -0.017 0.085
-0.027 -0.009 0.097
0.013 -0.035 0.035
0.021 -0.033 0.037
0.007 -0.033 0.047
0.015 -0.033 0.041
0.021 -0.037 0.073
0.001 -0.029 0.075
-0.035 0.015 0.061
-0.021 -0.005 0.037
-0.005 -0.023 0.051
-0.021 -0.005 0.063
-0.005 -0.013 0.061
-0.021 0.001 0.061
-0.023 0.011 0.061
-0.023 -0.007 0.043
-0.031 -0.001 0.085
-0.043 0.037 0.103
-0.041 0.037 0.103
-0.005 -0.025 0.047
-0.003 -0.027 0.087
0.003 -0.033 0.081
0.011 -0.035 0.033
0.005 -0.033 0.041
0.007 -0.033 0.043
0.021 -0.035 0.033
0.013 -0.033 0.041
0.019 -0.033 0.063
0.029 -0.031 0.049
0.031 -0.033 0.051
0.011 -0.033 0.083
0.003 -0.023 0.095
0.019 -0.033 0.085
-0.031 -0.003 0.037
-0.027 -0.007 0.041
0.007 -0.031 0.049
0.003 -0.035 0.039
-0.011 -0.013 0.057
-0.015 0.005 0.093
-0.003 -0.027 0.083
-0.025 -0.003 0.089
-0.023 0.001 0.105
-0.009 -0.001 0.097
-0.019 0.009 0.103
-0.007 -0.029 0.045
-0.031 -0.001 0.041
-0.011 -0.019 0.083
-0.019 -0.007 0.111
0.023 -0.035 0.035
0.023 -0.025 0.043
-0.001 -0.021 0.061
0.003 -0.033 0.069
0.017 -0.035 0.073
0.025 -0.037 0.063
0.027 -0.039 0.087
0.033 -0.043 0.085
0.003 -0.029 0.089
0.003 -0.033 0.081
0.009 -0.027 0.093
-0.041 0.025 0.053
-0.037 0.007 0.045
-0.033 0.011 0.077
-0.033 0.003 0.095
-0.035 0.007 0.097
-0.017 0.001 0.073
-0.027 0.003 0.077
-0.021 0.001 0.075
-0.015 -0.003 0.081
-0.035 0.007 0.101
-0.031 0.001 0.103
-0.035 0.007 0.105
-0.037 0.017 0.103
-0.019 -0.001 0.111
-0.019 -0.007 0.067
-0.025 -0.005 0.051
-0.029 -0.003 0.043
-0.025 -0.005 0.053
-0.025 -0.005 0.053
-0.021 -0.001 0.059
-0.015 -0.011 0.079
-0.031 -0.003 0.089
-0.033 0.003 0.089
-0.035 0.013 0.089
-0.039 0.019 0.093
-0.035 0.017 0.073
-0.041 0.031 0.053
-0.035 0.017 0.073
-0.039 0.031 0.063
-0.035 0.029 0.069
-0.041 0.029 0.051
0.001 -0.029 0.065
-0.037 0.019 0.085
-0.039 0.021 0.061
-0.039 0.023 0.061
-0.043 0.027 0.039
-0.041 0.031 0.055
-0.041 0.019 0.055
-0.029 0.035 0.063
-0.033 0.033 0.065
-0.031 0.007 0.081
-0.033 0.025 0.073
-0.041 0.025 0.095
-0.035 0.005 0.097
-0.043 0.033 0.099
-0.009 0.011 0.057
-0.025 0.037 0.101
-0.003 0.005 0.065
-0.015 0.011 0.109
-0.035 0.015 0.105
0.017 -0.011 0.051
-0.003 0.003 0.069
0.009 -0.009 0.049
0.037 -0.017 0.047
0.025 -0.029 0.069
0.003 -0.005 0.081
-0.029 0.039 0.051
-0.041 0.039 0.089
-0.041 0.017 0.055
-0.023 0.033 0.061
-0.023 0.035 0.057
-0.011 0.039 0.043
-0.045 0.037 0.101
-0.041 0.039 0.105
-0.027 0.029 0.101
-0.037 0.031 0.103
-0.027 0.039 0.101
-0.033 0.033 0.105
-0.029 0.025 0.105
-0.041 0.041 0.103
-0.035 0.037 0.107
-0.037 0.035 0.051
-0.039 0.035 0.049
-0.033 0.037 0.057
-0.031 0.029 0.071
-0.027 0.029 0.073
-0.039 0.045 0.091
-0.035 0.007 0.101
-0.017 0.037 0.043
0.017 -0.017 0.061
0.011 -0.015 0.061
-0.003 0.007 0.059
0.021 -0.011 0.059
-0.023 0.027 0.073
-0.003 0.003 0.071
-0.029 0.047 0.085
-0.029 0.045 0.089
-0.029 0.037 0.041
-0.019 0.037 0.043
-0.023 0.037 0.053
-0.021 0.035 0.039
-0.037 0.033 0.063
-0.033 0.021 0.075
-0.023 0.021 0.079
-0.039 0.025 0.085
-0.033 0.049 0.085
-0.041 0.037 0.095
-0.035 0.007 0.097
-0.017 0.039 0.037
