-0.007 -0.029 0.043
-0.027 -0.005 0.033
-0.021 -0.007 0.041
-0.019 -0.009 0.055
-0.015 -0.011 0.051
-0.009 -0.015 0.061
-0.015 -0.009 0.077
-0.021 -0.005 0.109
0.001 -0.033 0.041
0.027 -0.033 0.039
0.029 -0.031 0.047
0.007 -0.031 0.053
0.005 -0.033 0.057
0.011 -0.033 0.057
0.009 -0.035 0.061
-0.001 -0.023 0.061
0.025 -0.039 0.073
0.011 -0.033 0.087
0.027 -0.039 0.085
0.001 -0.029 0.073
0.001 -0.025 0.073
0.003 -0.031 0.075
-0.027 -0.007 0.037
-0.031 0.003 0.043
-0.033 0.005 0.045
-0.033 0.007 0.049
-0.041 0.027 0.051
-0.039 0.025 0.065
-0.015 -0.005 0.039
-0.027 0.001 0.047
-0.027 0.009 0.053
-0.019 -0.007 0.063
-0.019 -0.007 0.067
-0.041 0.013 0.043
-0.027 0.003 0.049
-0.037 0.017 0.061
-0.035 0.015 0.061
-0.035 0.015 0.065
-0.035 0.017 0.073
-0.019 -0.001 0.079
-0.029 0.005 0.077
-0.035 0.021 0.073
-0.029 0.003 0.079
-0.021 -0.001 0.091
-0.033 0.005 0.087
-0.033 0.007 0.089
-0.035 0.009 0.099
-0.033 0.003 0.097
-0.043 0.039 0.087
-0.031 -0.003 0.101
-0.025 0.003 0.107
-0.021 -0.001 0.109
-0.017 -0.009 0.047
-0.015 -0.013 0.079
-0.011 -0.013 0.087
-0.003 -0.019 0.091
-0.007 -0.019 0.089
-0.001 -0.023 0.091
-0.005 -0.013 0.093
0.013 -0.037 0.073
0.019 -0.035 0.081
0.035 -0.035 0.061
0.011 -0.035 0.081
0.023 -0.019 0.047
0.027 -0.017 0.047
0.029 -0.011 0.053
0.027 -0.011 0.061
0.021 -0.009 0.067
0.023 -0.013 0.067
0.039 -0.021 0.053
0.041 -0.023 0.051
0.035 -0.015 0.047
0.039 -0.031 0.057
0.039 -0.029 0.057
0.011 -0.035 0.081
0.023 -0.037 0.085
0.007 -0.029 0.091
0.003 -0.031 0.087
-0.017 0.005 0.099
-0.003 0.005 0.067
-0.035 0.005 0.041
-0.017 -0.009 0.113
-0.029 0.009 0.105
-0.023 0.013 0.107
-0.023 0.015 0.105
-0.003 0.007 0.061
-0.021 0.019 0.105
-0.027 0.019 0.105
-0.025 0.021 0.105
-0.011 0.037 0.045
-0.017 0.023 0.097
-0.031 0.023 0.105
-0.013 -0.003 0.085
-0.011 0.009 0.101
-0.021 0.025 0.101
-0.023 0.023 0.105
-0.033 0.025 0.105
-0.031 0.031 0.101
-0.033 0.031 0.103
-0.033 0.037 0.107
0.011 0.001 0.039
0.001 0.009 0.045
0.023 -0.005 0.061
0.005 -0.007 0.047
0.001 -0.009 0.043
-0.001 -0.003 0.083
-0.017 0.023 0.097
0.023 -0.003 0.041
0.021 -0.003 0.039
0.015 0.007 0.037
0.011 -0.013 0.051
0.037 -0.023 0.057
0.011 -0.003 0.039
0.021 -0.007 0.061
0.025 -0.005 0.057
0.037 -0.015 0.045
0.029 -0.033 0.071
0.029 -0.037 0.089
0.003 -0.007 0.073
0.005 -0.011 0.073
0.005 -0.009 0.087
-0.031 0.037 0.053
-0.035 0.037 0.043
-0.035 0.037 0.053
-0.039 0.035 0.051
-0.017 0.033 0.051
-0.003 0.013 0.047
-0.009 0.043 0.041
-0.031 0.037 0.057
-0.017 0.039 0.041
-0.027 0.023 0.077
-0.029 0.033 0.089
-0.029 0.047 0.087
-0.027 0.039 0.097
-0.019 0.019 0.079
-0.019 0.025 0.091
-0.017 0.021 0.095
-0.023 0.031 0.089
-0.025 0.039 0.097
-0.015 0.017 0.089
-0.037 0.047 0.085
-0.017 0.019 0.103
-0.013 0.013 0.107
-0.027 0.027 0.105
-0.031 0.043 0.105
-0.003 -0.015 0.065
-0.007 0.001 0.079
0.009 -0.013 0.089
-0.017 0.001 0.081
-0.009 0.005 0.097
0.001 -0.005 0.085
0.035 -0.017 0.049
0.023 -0.019 0.047
0.021 -0.003 0.037
0.025 -0.003 0.041
0.017 -0.003 0.045
0.017 -0.023 0.051
0.035 -0.023 0.059
0.025 -0.005 0.057
0.025 -0.013 0.063
0.027 -0.005 0.057
0.029 -0.035 0.079
0.017 -0.029 0.085
0.005 -0.009 0.073
0.015 -0.025 0.089
0.011 -0.013 0.087
-0.007 0.015 0.051
-0.007 0.023 0.049
-0.005 0.031 0.045
-0.013 0.017 0.055
0.001 0.021 0.037
0.003 0.019 0.035
-0.013 0.033 0.047
-0.005 0.021 0.045
-0.001 0.005 0.053
-0.013 0.025 0.055
-0.007 0.041 0.041
-0.015 0.017 0.087
-0.019 0.027 0.089
-0.017 0.015 0.069
-0.001 0.001 0.075
-0.023 0.021 0.079
-0.007 0.001 0.095
-0.017 0.025 0.085
-0.019 0.023 0.095
-0.025 0.039 0.085
-0.029 0.043 0.089
-0.029 0.033 0.065
-0.027 0.047 0.085
-0.021 0.019 0.105
-0.013 0.009 0.097
-0.029 0.043 0.101
-0.007 0.009 0.059
-0.013 0.015 0.095
-0.009 0.003 0.073
-0.019 0.027 0.097
-0.001 0.003 0.063
0.013 -0.013 0.051
0.025 -0.003 0.051
0.009 0.003 0.039
0.011 -0.003 0.043
0.025 -0.003 0.051
0.017 -0.011 0.067
0.021 -0.011 0.069
0.017 -0.017 0.061
0.021 -0.005 0.053
0.037 -0.021 0.055
0.031 -0.029 0.067
0.003 -0.005 0.081
0.017 -0.011 0.071
0.015 -0.029 0.089
0.001 -0.005 0.085
-0.035 0.037 0.051
-0.033 0.037 0.051
-0.033 0.037 0.045
-0.051 0.021 0.037
-0.037 0.035 0.041
-0.003 0.013 0.051
-0.007 0.031 0.047
-0.027 0.047 0.083
-0.019 0.023 0.073
-0.015 0.011 0.057
-0.035 0.035 0.061
-0.019 0.037 0.033
-0.017 0.039 0.035
-0.021 0.037 0.045
-0.021 0.033 0.057
-0.037 0.033 0.093
-0.035 0.031 0.089
-0.029 0.047 0.087
-0.007 0.005 0.071
-0.025 0.027 0.073
-0.033 0.023 0.089
-0.017 0.021 0.091
-0.017 0.019 0.093
-0.031 0.029 0.089
-0.041 0.043 0.089
-0.039 0.039 0.105
0.027 -0.009 0.063
0.029 -0.007 0.059
0.029 -0.007 0.059
0.029 -0.005 0.059
-0.011 -0.003 0.085
-0.025 -0.001 0.097
-0.001 -0.007 0.089
0.035 -0.035 0.055
0.013 -0.035 0.037
0.023 -0.035 0.035
0.041 -0.027 0.045
0.041 -0.023 0.049
0.037 -0.021 0.055
0.019 -0.015 0.047
0.033 -0.013 0.045
0.031 -0.009 0.051
0.001 -0.001 0.059
0.039 -0.023 0.037
0.025 -0.033 0.077
0.031 -0.035 0.087
0.035 -0.043 0.085
0.019 -0.021 0.081
0.005 -0.009 0.073
0.021 -0.009 0.067
0.011 -0.027 0.093
0.009 -0.011 0.083
-0.001 0.007 0.045
-0.005 0.001 0.037
-0.009 0.017 0.053
0.003 0.009 0.039
-0.003 0.017 0.043
-0.003 0.027 0.041
-0.003 0.025 0.041
-0.007 0.021 0.049
-0.007 0.039 0.043
-0.011 0.009 0.091
-0.021 0.025 0.073
-0.017 0.021 0.089
-0.025 0.037 0.087
-0.037 0.049 0.091
-0.021 0.027 0.103
-0.021 0.027 0.103
-0.017 0.001 0.109
-0.023 0.011 0.111
-0.023 0.011 0.111
-0.029 0.035 0.101
-0.001 -0.035 0.037
0.015 -0.031 0.043
0.029 -0.035 0.077
0.009 -0.015 0.091
0.013 -0.019 0.089
0.027 -0.035 0.033
0.033 -0.035 0.055
0.029 -0.033 0.039
0.039 -0.019 0.045
0.007 -0.031 0.051
0.039 -0.027 0.055
0.033 -0.027 0.063
0.039 -0.029 0.043
0.039 -0.017 0.041
0.037 -0.029 0.061
0.033 -0.043 0.083
0.033 -0.033 0.067
0.009 -0.029 0.091
0.029 -0.005 0.045
0.039 -0.021 0.053
0.029 -0.011 0.051
0.039 -0.025 0.057
-0.001 -0.005 0.055
0.025 -0.013 0.057
0.015 0.007 0.037
0.017 0.005 0.037
0.037 -0.025 0.059
0.025 -0.011 0.063
0.025 -0.011 0.053
-0.015 0.029 0.057
-0.011 0.021 0.053
-0.013 0.031 0.053
-0.019 0.031 0.059
0.001 -0.003 0.079
-0.017 0.015 0.071
-0.011 0.011 0.093
-0.015 0.015 0.085
-0.017 0.021 0.083
-0.025 0.039 0.083
-0.027 0.043 0.085
-0.031 0.043 0.091
-0.031 0.003 0.103
-0.015 0.009 0.107
-0.021 0.021 0.105
-0.029 0.033 0.101
-0.027 0.035 0.101
-0.025 -0.005 0.045
-0.027 0.003 0.049
-0.021 -0.001 0.061
-0.017 -0.013 0.069
-0.017 -0.011 0.069
-0.031 -0.001 0.085
-0.031 0.001 0.087
-0.031 -0.003 0.089
-0.027 -0.009 0.095
0.005 -0.027 0.035
-0.005 -0.025 0.049
-0.005 -0.017 0.039
-0.023 -0.003 0.053
0.003 -0.023 0.067
-0.021 0.003 0.057
-0.019 -0.009 0.055
0.003 -0.029 0.067
0.003 -0.031 0.069
0.001 -0.027 0.073
-0.017 -0.001 0.071
-0.015 -0.007 0.079
-0.039 0.025 0.041
-0.041 0.025 0.043
-0.041 0.015 0.055
-0.041 0.025 0.059
-0.041 0.027 0.057
-0.035 0.037 0.045
-0.033 0.005 0.095
-0.037 0.013 0.099
-0.043 0.031 0.099
-0.035 0.005 0.099
-0.033 0.027 0.105
-0.043 0.041 0.101
-0.037 0.007 0.047
-0.041 0.011 0.047
-0.027 -0.005 0.043
-0.015 -0.009 0.047
-0.005 -0.023 0.051
-0.001 -0.025 0.063
-0.003 -0.023 0.059
-0.023 -0.005 0.053
-0.005 -0.011 0.055
-0.015 -0.013 0.057
-0.013 -0.015 0.067
-0.031 -0.003 0.095
-0.013 -0.005 0.085
-0.009 -0.013 0.089
-0.009 -0.001 0.097
-0.001 -0.035 0.035
-0.003 -0.035 0.037
0.007 -0.033 0.047
0.025 -0.031 0.043
0.023 -0.025 0.043
0.015 -0.031 0.043
0.011 -0.029 0.051
0.015 -0.033 0.041
0.029 -0.031 0.051
0.015 -0.029 0.057
0.019 -0.033 0.065
0.031 -0.043 0.075
0.029 -0.043 0.077
0.031 -0.043 0.081
0.015 -0.035 0.069
0.013 -0.031 0.089
-0.033 0.013 0.061
-0.011 -0.001 0.035
-0.009 0.001 0.035
-0.015 -0.005 0.039
-0.015 -0.011 0.051
-0.031 0.011 0.053
-0.005 -0.021 0.053
-0.009 -0.013 0.055
-0.021 -0.005 0.059
-0.019 -0.009 0.059
-0.021 -0.007 0.059
-0.021 -0.007 0.061
-0.033 0.001 0.039
-0.023 -0.007 0.041
-0.033 0.001 0.093
-0.035 0.013 0.089
-0.017 -0.011 0.073
-0.031 -0.001 0.085
-0.015 0.005 0.083
-0.033 0.001 0.091
-0.031 -0.003 0.091
-0.033 0.003 0.097
-0.033 -0.001 0.097
-0.037 0.017 0.087
-0.035 0.011 0.089
-0.033 0.003 0.087
-0.033 0.003 0.105
-0.027 0.007 0.105
-0.023 0.001 0.105
-0.009 0.003 0.099
-0.039 0.031 0.101
-0.005 -0.037 0.035
-0.005 -0.037 0.037
-0.003 -0.035 0.039
-0.029 -0.005 0.037
-0.001 -0.029 0.051
-0.021 -0.007 0.053
-0.011 -0.017 0.073
-0.027 -0.007 0.087
-0.025 -0.007 0.095
-0.029 -0.007 0.101
0.023 -0.035 0.031
0.027 -0.029 0.031
0.027 -0.035 0.057
0.017 -0.027 0.053
0.021 -0.031 0.063
0.015 -0.025 0.051
0.027 -0.035 0.057
0.029 -0.037 0.061
0.035 -0.033 0.049
0.001 -0.031 0.079
0.009 -0.035 0.077
0.009 -0.035 0.075
0.021 -0.037 0.069
-0.027 -0.003 0.031
-0.035 0.001 0.037
-0.033 0.005 0.045
-0.035 0.011 0.053
-0.035 0.015 0.063
-0.027 -0.007 0.041
0.009 -0.035 0.037
-0.005 -0.037 0.037
-0.019 -0.009 0.061
0.007 -0.033 0.057
-0.021 -0.007 0.041
-0.027 -0.007 0.087
-0.013 -0.017 0.075
-0.019 0.001 0.077
0.007 -0.035 0.065
0.005 -0.035 0.071
-0.009 -0.019 0.071
-0.027 0.001 0.085
-0.009 -0.021 0.085
-0.007 -0.023 0.085
-0.021 -0.001 0.093
-0.025 -0.003 0.089
-0.019 -0.001 0.093
-0.029 -0.007 0.097
-0.031 -0.003 0.099
-0.019 0.001 0.099
0.015 -0.033 0.039
-0.041 0.031 0.051
-0.037 0.037 0.049
-0.035 0.035 0.057
-0.037 0.035 0.051
-0.037 0.035 0.047
-0.041 0.023 0.047
-0.039 0.031 0.059
-0.041 0.045 0.087
-0.043 0.031 0.099
0.019 -0.009 0.063
-0.017 0.033 0.047
-0.035 0.035 0.061
0.013 -0.015 0.063
0.027 -0.003 0.043
0.015 -0.017 0.075
-0.039 0.047 0.087
0.001 -0.001 0.077
-0.011 0.011 0.093
0.007 -0.011 0.089
0.007 -0.011 0.089
-0.029 0.035 0.037
-0.045 0.029 0.035
-0.019 0.037 0.039
-0.027 0.037 0.059
-0.039 0.023 0.065
-0.037 0.023 0.067
-0.037 0.025 0.069
-0.033 0.019 0.077
-0.041 0.031 0.083
-0.025 0.021 0.093
-0.033 0.049 0.087
-0.037 0.047 0.087
-0.045 0.037 0.099
-0.037 0.017 0.103
-0.033 0.041 0.099
-0.033 0.043 0.103
-0.009 0.043 0.043
