-0.027 -0.007 0.037
-0.021 -0.003 0.061
-0.001 -0.029 0.047
0.009 -0.033 0.057
0.005 -0.033 0.065
0.005 -0.033 0.059
0.007 -0.035 0.063
0.007 -0.035 0.077
0.001 -0.031 0.083
0.013 -0.031 0.089
-0.039 0.009 0.047
-0.041 0.025 0.049
-0.029 0.003 0.043
-0.023 0.001 0.055
-0.029 0.011 0.053
-0.015 -0.013 0.057
-0.013 -0.017 0.069
-0.021 0.007 0.057
-0.027 0.005 0.051
-0.029 0.011 0.053
-0.031 0.011 0.063
-0.033 0.013 0.065
-0.037 0.017 0.085
-0.037 0.021 0.085
-0.031 0.009 0.067
-0.019 -0.005 0.069
-0.021 -0.001 0.081
-0.031 -0.001 0.087
-0.041 0.031 0.083
-0.029 -0.005 0.099
-0.043 0.037 0.103
-0.005 -0.017 0.043
-0.007 -0.031 0.041
0.003 -0.025 0.091
-0.025 -0.005 0.053
-0.001 -0.015 0.095
-0.009 -0.017 0.087
-0.009 -0.019 0.087
-0.013 -0.005 0.085
-0.003 -0.019 0.091
-0.007 -0.015 0.089
0.033 -0.029 0.065
0.025 -0.009 0.065
0.009 -0.035 0.083
0.013 -0.019 0.089
0.029 -0.007 0.059
0.031 -0.007 0.057
0.033 -0.043 0.085
0.031 -0.037 0.089
0.033 -0.033 0.067
0.035 -0.039 0.087
0.019 -0.031 0.083
0.009 -0.015 0.091
0.005 -0.023 0.095
-0.003 0.007 0.057
-0.029 0.001 0.103
-0.019 -0.007 0.111
-0.023 0.001 0.109
-0.031 0.005 0.107
-0.023 0.007 0.111
-0.015 -0.011 0.113
-0.019 -0.001 0.081
-0.007 0.025 0.049
-0.019 0.015 0.105
-0.021 0.023 0.103
-0.027 0.011 0.109
-0.027 0.025 0.105
-0.001 0.003 0.069
-0.023 0.015 0.105
-0.015 0.017 0.105
-0.021 0.019 0.105
-0.029 0.029 0.103
-0.031 0.003 0.107
-0.023 0.037 0.099
0.005 -0.007 0.047
0.007 -0.005 0.047
-0.001 0.003 0.049
-0.007 0.001 0.079
-0.011 -0.001 0.079
-0.007 -0.007 0.087
-0.001 -0.011 0.091
-0.007 -0.007 0.087
0.009 -0.005 0.043
0.033 -0.013 0.043
0.021 -0.001 0.035
0.019 -0.007 0.053
0.005 -0.015 0.063
0.019 -0.019 0.071
0.033 -0.039 0.077
0.017 -0.011 0.065
0.007 -0.009 0.079
0.005 -0.005 0.077
0.005 -0.007 0.075
0.019 -0.011 0.067
0.007 -0.011 0.089
-0.031 0.035 0.037
-0.003 0.025 0.037
-0.019 0.031 0.059
-0.017 0.007 0.061
-0.025 0.033 0.063
-0.017 0.025 0.059
-0.019 0.025 0.065
-0.015 0.031 0.055
-0.021 0.033 0.097
-0.027 0.039 0.089
-0.015 0.011 0.081
-0.015 0.019 0.085
-0.027 0.047 0.085
-0.027 0.037 0.101
-0.015 0.017 0.101
-0.021 0.019 0.105
-0.033 0.043 0.105
0.035 -0.013 0.043
0.031 -0.007 0.055
-0.001 0.005 0.059
0.007 -0.009 0.079
0.001 -0.011 0.067
-0.009 0.003 0.089
0.039 -0.025 0.057
0.039 -0.031 0.057
0.013 -0.003 0.039
0.015 -0.003 0.045
0.029 -0.011 0.035
0.027 -0.003 0.043
0.027 -0.009 0.063
0.025 -0.031 0.071
0.027 -0.033 0.079
0.003 -0.003 0.071
0.017 -0.019 0.083
0.009 -0.025 0.095
0.009 -0.015 0.091
-0.015 0.027 0.057
-0.001 0.013 0.047
-0.019 0.013 0.057
-0.011 0.025 0.053
-0.011 0.009 0.095
-0.013 0.015 0.095
-0.021 0.033 0.097
-0.017 0.011 0.073
-0.001 0.001 0.073
-0.025 0.031 0.069
-0.017 0.017 0.079
-0.017 0.023 0.085
-0.023 0.033 0.087
-0.025 0.041 0.081
-0.021 0.021 0.105
-0.011 0.007 0.103
-0.019 0.005 0.109
-0.021 0.027 0.103
-0.023 0.025 0.105
0.003 0.019 0.035
-0.011 0.015 0.055
-0.007 0.005 0.071
-0.009 0.009 0.061
-0.011 0.007 0.065
-0.023 0.035 0.085
-0.017 0.021 0.089
-0.001 -0.015 0.095
-0.015 0.017 0.097
0.009 -0.005 0.045
0.015 -0.003 0.045
0.013 -0.007 0.051
0.005 -0.005 0.077
0.005 -0.011 0.055
0.023 -0.005 0.055
0.011 0.003 0.039
-0.001 0.005 0.055
0.021 -0.003 0.043
0.017 -0.019 0.059
0.021 -0.005 0.057
0.025 -0.005 0.057
0.035 -0.021 0.055
0.029 -0.035 0.077
0.019 -0.011 0.071
0.019 -0.019 0.079
0.015 -0.017 0.083
0.015 -0.015 0.081
0.003 -0.017 0.093
0.005 -0.019 0.093
-0.037 0.035 0.059
-0.041 0.029 0.057
-0.049 0.027 0.035
-0.007 0.025 0.049
-0.033 0.037 0.045
-0.011 0.041 0.043
-0.035 0.037 0.051
-0.035 0.027 0.071
-0.035 0.047 0.091
-0.023 0.035 0.085
-0.025 0.043 0.083
-0.021 0.031 0.087
-0.009 0.005 0.095
-0.023 0.031 0.089
-0.029 0.043 0.103
-0.021 0.027 0.099
-0.039 0.041 0.105
-0.001 0.013 0.047
0.019 -0.019 0.047
0.029 -0.027 0.065
0.019 -0.021 0.061
-0.025 -0.003 0.091
0.033 -0.033 0.043
0.029 -0.033 0.071
0.037 -0.033 0.053
0.041 -0.025 0.051
0.031 -0.005 0.053
0.035 -0.015 0.047
0.027 -0.011 0.061
0.031 -0.035 0.083
0.035 -0.039 0.083
0.035 -0.043 0.085
0.009 -0.011 0.079
0.017 -0.025 0.087
-0.003 0.001 0.043
-0.003 0.007 0.059
-0.025 0.035 0.059
-0.007 0.031 0.047
-0.007 0.035 0.045
-0.009 0.043 0.041
-0.011 0.009 0.101
-0.021 0.025 0.093
-0.017 0.003 0.081
-0.003 0.003 0.071
-0.017 0.021 0.067
-0.015 0.017 0.083
-0.035 0.045 0.093
-0.021 0.007 0.105
-0.015 0.015 0.101
-0.035 0.035 0.107
0.005 0.017 0.035
0.023 -0.031 0.041
0.033 -0.033 0.045
0.037 -0.033 0.049
0.039 -0.031 0.051
0.039 -0.029 0.053
0.037 -0.027 0.061
0.033 -0.029 0.065
0.005 -0.005 0.077
0.011 -0.019 0.091
-0.027 -0.003 0.101
0.029 -0.033 0.039
0.009 -0.031 0.053
0.037 -0.029 0.059
0.039 -0.021 0.037
0.037 -0.033 0.055
0.039 -0.025 0.057
0.033 -0.039 0.077
0.033 -0.043 0.083
0.021 -0.027 0.079
0.035 -0.043 0.085
0.009 -0.031 0.089
0.011 -0.013 0.087
0.041 -0.021 0.045
0.037 -0.021 0.055
0.041 -0.027 0.051
0.003 0.015 0.039
0.005 0.017 0.035
-0.003 0.029 0.035
0.025 -0.013 0.063
0.025 -0.011 0.065
-0.009 0.017 0.051
0.021 -0.011 0.071
-0.011 0.009 0.091
0.019 -0.013 0.073
0.005 0.015 0.035
-0.003 -0.031 0.041
0.001 -0.031 0.051
0.003 -0.031 0.059
-0.001 -0.029 0.051
-0.017 -0.011 0.055
-0.015 -0.013 0.059
-0.001 -0.027 0.089
-0.025 -0.001 0.097
0.003 -0.033 0.043
0.021 -0.035 0.035
0.031 -0.031 0.037
0.029 -0.031 0.043
0.019 -0.023 0.047
0.033 -0.035 0.057
0.013 -0.031 0.057
0.009 -0.035 0.081
0.037 -0.043 0.081
0.017 -0.031 0.089
-0.001 -0.029 0.059
0.013 -0.035 0.065
0.017 -0.035 0.067
-0.047 0.015 0.039
-0.045 0.015 0.039
-0.019 -0.009 0.053
-0.031 0.007 0.049
-0.019 -0.005 0.039
0.011 -0.035 0.079
0.017 -0.035 0.077
-0.019 -0.001 0.083
-0.023 -0.001 0.083
-0.007 -0.023 0.085
0.003 -0.023 0.095
-0.015 0.019 0.091
-0.017 0.003 0.095
-0.013 -0.011 0.113
-0.019 -0.001 0.105
-0.011 0.001 0.099
-0.023 0.007 0.111
-0.013 0.013 0.107
-0.025 0.005 0.113
-0.007 -0.025 0.045
-0.027 -0.007 0.039
-0.003 -0.027 0.079
-0.017 -0.009 0.073
-0.029 -0.005 0.087
-0.007 -0.013 0.093
0.001 -0.015 0.033
0.027 -0.033 0.055
0.007 -0.031 0.053
-0.003 -0.023 0.055
-0.017 -0.009 0.047
-0.003 -0.015 0.055
0.007 -0.033 0.087
0.025 -0.035 0.087
0.005 -0.033 0.083
-0.011 -0.017 0.081
0.001 -0.023 0.093
-0.007 -0.019 0.089
-0.035 0.003 0.039
-0.031 0.001 0.039
-0.041 0.013 0.043
-0.049 0.021 0.039
-0.025 0.003 0.051
-0.021 0.001 0.061
-0.029 0.009 0.065
-0.035 0.015 0.061
-0.039 0.033 0.045
-0.041 0.023 0.045
-0.041 0.027 0.045
-0.041 0.031 0.053
-0.041 0.027 0.053
-0.039 0.031 0.059
-0.027 0.001 0.081
-0.029 0.029 0.073
-0.031 -0.001 0.087
-0.035 0.017 0.089
-0.037 0.017 0.097
-0.027 0.007 0.111
-0.027 0.007 0.111
-0.037 0.035 0.107
-0.025 0.001 0.053
-0.003 -0.025 0.051
-0.005 -0.017 0.049
-0.033 0.001 0.089
-0.009 -0.027 0.037
-0.003 -0.019 0.037
-0.003 -0.023 0.037
-0.005 -0.021 0.043
-0.029 -0.005 0.041
-0.025 -0.005 0.047
-0.001 -0.027 0.059
-0.017 -0.013 0.063
-0.003 -0.023 0.059
-0.019 -0.009 0.063
-0.021 -0.007 0.049
0.003 -0.033 0.077
0.003 -0.031 0.071
-0.015 -0.015 0.073
-0.017 -0.007 0.071
-0.005 -0.023 0.089
-0.013 -0.015 0.083
-0.009 -0.011 0.091
-0.039 0.009 0.035
-0.041 0.015 0.055
-0.039 0.023 0.061
-0.035 0.003 0.037
-0.049 0.017 0.039
-0.041 0.013 0.045
-0.037 0.031 0.037
-0.039 0.033 0.051
-0.039 0.025 0.041
-0.031 0.013 0.059
-0.033 0.013 0.063
-0.037 0.037 0.049
-0.035 0.011 0.091
-0.041 0.031 0.093
-0.031 0.009 0.069
-0.043 0.029 0.095
-0.041 0.045 0.087
-0.039 0.033 0.089
-0.039 0.045 0.091
-0.035 0.007 0.105
-0.035 0.005 0.099
-0.037 0.021 0.103
-0.041 0.039 0.105
-0.041 0.017 0.043
-0.007 -0.033 0.041
-0.005 -0.033 0.041
-0.007 -0.033 0.041
-0.003 -0.021 0.073
-0.001 -0.021 0.073
-0.017 -0.013 0.071
-0.015 -0.015 0.075
-0.015 -0.013 0.077
-0.007 -0.023 0.081
-0.029 -0.007 0.095
-0.005 -0.019 0.091
0.023 -0.023 0.047
0.011 -0.035 0.065
0.039 -0.027 0.041
0.035 -0.033 0.047
0.033 -0.035 0.059
0.003 -0.031 0.085
-0.009 -0.003 0.039
-0.005 -0.007 0.049
-0.015 -0.007 0.043
-0.007 -0.007 0.045
-0.017 -0.013 0.065
-0.017 -0.009 0.049
-0.035 0.015 0.073
-0.035 0.007 0.093
-0.019 0.003 0.073
-0.015 0.003 0.095
-0.029 -0.007 0.095
-0.029 -0.007 0.095
-0.037 0.017 0.091
-0.031 -0.005 0.097
-0.001 -0.029 0.051
-0.001 -0.029 0.055
0.001 -0.031 0.055
-0.005 -0.023 0.075
-0.019 -0.001 0.095
0.003 -0.027 0.091
-0.001 -0.019 0.095
0.005 -0.033 0.045
0.031 -0.035 0.055
0.003 -0.035 0.041
0.021 -0.033 0.039
0.021 -0.023 0.045
0.009 -0.029 0.051
0.003 -0.031 0.061
0.025 -0.037 0.063
0.013 -0.031 0.057
0.027 -0.037 0.061
0.033 -0.035 0.057
0.037 -0.033 0.055
0.003 -0.033 0.073
0.003 -0.031 0.075
0.017 -0.035 0.077
0.023 -0.039 0.075
-0.037 0.007 0.041
-0.049 0.015 0.035
-0.045 0.015 0.035
-0.025 -0.005 0.033
0.009 -0.033 0.041
-0.001 -0.029 0.057
-0.007 -0.015 0.063
-0.009 -0.013 0.057
-0.007 -0.011 0.055
0.005 -0.031 0.051
-0.001 -0.033 0.041
-0.013 -0.013 0.057
-0.029 0.003 0.081
-0.035 0.011 0.083
-0.011 -0.017 0.067
-0.025 0.003 0.073
-0.023 -0.001 0.087
-0.027 0.001 0.081
-0.021 -0.001 0.085
-0.025 -0.003 0.087
-0.009 -0.021 0.083
-0.031 -0.003 0.095
-0.017 -0.005 0.107
-0.013 0.003 0.099
-0.019 -0.001 0.097
-0.019 0.009 0.103
0.009 -0.031 0.049
-0.039 0.035 0.049
-0.037 0.037 0.049
-0.033 0.035 0.059
-0.043 0.043 0.087
-0.037 0.047 0.085
-0.031 0.037 0.051
-0.023 0.035 0.057
-0.015 0.035 0.045
-0.009 0.039 0.045
0.011 -0.015 0.059
0.017 -0.007 0.053
-0.003 0.007 0.057
0.035 -0.013 0.039
0.027 -0.003 0.045
0.037 -0.015 0.041
0.023 -0.005 0.055
0.025 -0.005 0.057
-0.021 0.025 0.073
0.017 -0.017 0.069
-0.039 0.027 0.037
-0.037 0.029 0.035
-0.041 0.031 0.047
-0.015 0.041 0.039
-0.017 0.039 0.039
-0.009 0.041 0.035
-0.037 0.035 0.057
-0.019 0.033 0.055
-0.035 0.037 0.051
-0.035 0.035 0.061
-0.033 0.035 0.063
-0.011 0.043 0.043
-0.031 0.037 0.059
-0.035 0.047 0.087
-0.035 0.047 0.091
-0.031 0.047 0.089
-0.029 0.033 0.065
-0.037 0.015 0.099
-0.045 0.037 0.099
-0.011 0.043 0.041
-0.013 0.041 0.043
