-0.019 -0.031 0.075
-0.019 -0.029 0.083
-0.019 -0.023 0.089
-0.005 -0.043 0.037
-0.011 -0.045 0.073
-0.013 -0.035 0.037
-0.007 -0.039 0.039
-0.011 -0.043 0.081
-0.009 -0.049 0.085
-0.011 -0.047 0.081
-0.009 -0.045 0.085
-0.011 -0.045 0.083
-0.011 -0.041 0.077
-0.011 -0.045 0.083
-0.013 -0.037 0.079
-0.015 -0.035 0.081
-0.017 -0.035 0.075
-0.017 -0.035 0.079
-0.013 -0.037 0.081
-0.021 -0.027 0.043
-0.021 -0.025 0.045
-0.021 -0.021 0.045
-0.021 -0.023 0.063
-0.023 -0.019 0.045
-0.025 -0.017 0.045
-0.015 -0.031 0.043
-0.019 -0.033 0.077
-0.019 -0.029 0.069
-0.017 -0.027 0.089
-0.019 -0.033 0.071
-0.013 -0.033 0.089
-0.017 -0.031 0.085
-0.025 -0.015 0.045
-0.021 -0.013 0.045
-0.021 -0.019 0.059
-0.017 -0.017 0.063
-0.021 -0.017 0.085
-0.015 -0.017 0.093
-0.017 -0.007 0.089
-0.021 -0.025 0.049
-0.019 -0.031 0.073
-0.019 -0.031 0.069
-0.021 -0.027 0.075
-0.021 -0.023 0.063
-0.019 -0.017 0.061
-0.021 -0.019 0.085
-0.019 -0.031 0.081
-0.015 -0.033 0.085
-0.015 -0.033 0.085
-0.011 -0.027 0.093
-0.009 -0.027 0.091
-0.013 -0.021 0.095
-0.021 -0.015 0.053
-0.019 -0.011 0.053
-0.019 -0.011 0.053
-0.021 -0.013 0.079
-0.019 -0.013 0.089
-0.013 -0.021 0.095
-0.015 -0.017 0.093
-0.019 -0.007 0.087
-0.019 -0.007 0.087
-0.017 -0.009 0.091
-0.017 -0.017 0.091
-0.017 -0.019 0.091
-0.019 -0.009 0.089
-0.017 -0.011 0.091
-0.007 -0.051 0.087
-0.005 -0.055 0.085
-0.019 -0.033 0.077
-0.017 -0.033 0.081
-0.011 -0.043 0.079
-0.009 -0.047 0.085
-0.009 -0.045 0.085
-0.009 -0.041 0.085
-0.007 -0.043 0.087
-0.013 -0.037 0.077
-0.013 -0.037 0.081
-0.015 -0.035 0.081
-0.007 -0.041 0.087
-0.001 -0.039 0.069
-0.011 -0.037 0.083
-0.009 -0.047 0.085
-0.009 -0.043 0.085
-0.007 -0.047 0.087
-0.013 -0.037 0.081
-0.011 -0.039 0.081
-0.011 -0.037 0.083
-0.009 -0.033 0.087
-0.007 -0.033 0.085
-0.005 -0.033 0.083
-0.003 -0.053 0.087
-0.007 -0.051 0.087
-0.003 -0.055 0.087
-0.007 -0.041 0.087
-0.015 -0.035 0.081
-0.007 -0.033 0.085
-0.007 -0.033 0.085
-0.019 -0.029 0.073
-0.021 -0.027 0.075
-0.021 -0.023 0.083
-0.019 -0.031 0.079
-0.019 -0.027 0.079
-0.019 -0.031 0.081
-0.009 -0.033 0.087
-0.005 -0.031 0.085
-0.019 -0.021 0.089
-0.017 -0.019 0.091
-0.011 -0.025 0.093
-0.007 -0.025 0.089
-0.009 -0.021 0.093
-0.007 -0.021 0.091
-0.021 -0.003 0.075
-0.021 -0.003 0.079
-0.021 -0.015 0.087
-0.021 -0.011 0.087
-0.021 -0.015 0.085
-0.021 -0.017 0.087
-0.017 -0.013 0.091
-0.019 -0.011 0.089
-0.017 -0.011 0.091
-0.021 -0.011 0.087
-0.017 -0.017 0.091
-0.017 -0.015 0.091
-0.005 -0.009 0.089
-0.017 -0.031 0.085
-0.017 -0.029 0.087
-0.019 -0.025 0.087
-0.019 -0.019 0.089
-0.013 -0.031 0.091
-0.009 -0.031 0.089
-0.009 -0.029 0.089
-0.005 -0.029 0.087
-0.003 -0.029 0.085
-0.003 -0.023 0.087
-0.011 -0.031 0.091
-0.011 -0.025 0.093
-0.013 -0.023 0.095
-0.013 -0.021 0.095
-0.009 -0.017 0.093
-0.021 -0.015 0.087
-0.017 -0.011 0.091
-0.015 -0.011 0.091
-0.003 -0.011 0.089
-0.009 -0.005 0.091
-0.011 -0.001 0.091
-0.011 -0.039 0.079
-0.009 -0.041 0.085
-0.009 -0.035 0.085
-0.015 -0.023 0.091
-0.009 -0.045 0.085
0.011 -0.033 0.047
0.005 -0.041 0.061
0.011 -0.043 0.055
-0.003 -0.047 0.087
-0.003 -0.049 0.085
-0.009 -0.041 0.083
-0.009 -0.041 0.085
-0.009 -0.039 0.081
0.013 -0.035 0.049
0.015 -0.037 0.045
0.013 -0.035 0.049
-0.003 -0.049 0.085
0.009 -0.049 0.053
-0.003 -0.049 0.085
-0.009 -0.049 0.085
-0.003 -0.049 0.085
0.009 -0.045 0.057
0.009 -0.047 0.057
0.007 -0.043 0.061
0.005 -0.035 0.049
0.011 -0.037 0.051
-0.005 -0.047 0.089
-0.005 -0.041 0.087
-0.009 -0.035 0.085
-0.011 -0.029 0.091
-0.005 -0.031 0.085
-0.015 -0.025 0.091
-0.007 -0.027 0.089
-0.007 -0.027 0.089
-0.003 -0.025 0.087
-0.003 -0.023 0.087
-0.005 -0.031 0.085
-0.003 -0.029 0.085
-0.011 -0.027 0.093
-0.005 -0.025 0.089
0.007 -0.025 0.067
0.005 -0.025 0.069
0.007 -0.021 0.069
0.007 -0.021 0.069
-0.013 -0.017 0.095
-0.013 -0.017 0.095
-0.007 -0.019 0.091
-0.005 -0.017 0.091
-0.013 -0.013 0.095
-0.003 -0.013 0.089
-0.005 -0.011 0.091
-0.009 -0.015 0.093
-0.005 -0.013 0.091
-0.009 -0.019 0.093
-0.009 -0.017 0.093
-0.011 -0.017 0.095
-0.009 -0.017 0.093
-0.009 -0.015 0.093
-0.005 -0.019 0.091
0.011 -0.029 0.059
0.013 -0.029 0.059
-0.007 -0.023 0.091
0.011 -0.027 0.061
0.007 -0.025 0.067
0.015 -0.025 0.061
0.019 -0.025 0.055
-0.011 -0.021 0.095
-0.011 -0.019 0.095
-0.005 -0.019 0.091
0.007 -0.025 0.067
0.011 -0.025 0.065
-0.019 0.007 0.071
-0.017 0.023 0.049
-0.021 0.023 0.103
-0.021 0.011 0.047
-0.021 0.013 0.051
-0.021 0.013 0.053
-0.019 0.009 0.057
-0.019 0.005 0.075
-0.019 -0.005 0.085
-0.017 -0.005 0.089
-0.019 0.025 0.043
-0.021 0.029 0.043
-0.023 0.025 0.039
-0.021 0.029 0.045
-0.021 0.021 0.041
-0.017 0.021 0.047
-0.017 0.021 0.049
-0.021 0.029 0.047
-0.021 0.031 0.049
-0.017 0.021 0.047
-0.021 -0.001 0.071
-0.021 -0.001 0.075
-0.021 0.003 0.071
-0.019 0.005 0.065
-0.019 0.005 0.069
-0.019 0.003 0.113
-0.019 0.005 0.113
-0.023 0.015 0.103
-0.015 0.011 0.089
-0.019 0.005 0.113
-0.023 0.019 0.103
-0.023 0.017 0.103
-0.019 0.017 0.099
-0.015 0.019 0.101
-0.017 0.015 0.109
-0.017 0.015 0.109
-0.021 0.029 0.047
-0.021 0.033 0.045
-0.019 0.033 0.051
-0.021 0.035 0.051
-0.019 0.043 0.041
-0.021 0.041 0.039
-0.021 0.031 0.049
-0.015 0.033 0.053
-0.025 0.021 0.099
-0.017 0.031 0.051
-0.015 0.035 0.055
-0.015 0.041 0.057
-0.023 0.025 0.101
-0.019 0.029 0.105
-0.017 0.039 0.055
-0.017 0.047 0.041
-0.019 0.033 0.101
-0.017 0.037 0.095
-0.021 0.037 0.051
-0.019 0.037 0.053
-0.013 0.041 0.059
-0.015 0.043 0.055
-0.013 0.041 0.067
-0.013 0.039 0.065
-0.017 0.037 0.095
-0.013 0.041 0.067
-0.015 0.037 0.085
-0.017 0.035 0.095
-0.011 0.043 0.069
-0.017 0.037 0.095
-0.009 0.047 0.061
-0.009 0.049 0.059
-0.017 0.037 0.095
-0.015 0.037 0.103
-0.013 0.041 0.085
-0.015 0.039 0.095
-0.013 0.037 0.103
-0.019 0.005 0.071
-0.019 0.003 0.079
-0.017 0.005 0.079
-0.015 0.011 0.069
-0.013 0.011 0.071
-0.017 0.001 0.113
-0.003 0.007 0.077
-0.019 0.003 0.111
-0.017 0.001 0.113
-0.013 0.009 0.079
-0.019 0.007 0.111
-0.017 0.003 0.113
-0.017 0.007 0.113
-0.023 0.017 0.103
-0.023 0.021 0.101
-0.017 0.015 0.091
-0.017 0.013 0.109
-0.017 0.011 0.111
-0.013 0.015 0.109
-0.021 0.021 0.101
-0.017 0.011 0.109
-0.015 0.011 0.111
-0.017 0.011 0.111
-0.015 0.011 0.111
-0.013 0.011 0.109
-0.015 0.005 0.081
-0.019 0.001 0.113
-0.009 0.001 0.087
-0.007 0.001 0.085
-0.015 0.011 0.093
-0.019 0.007 0.111
-0.015 0.013 0.093
-0.015 0.009 0.111
-0.007 0.009 0.103
-0.019 0.007 0.109
-0.015 0.013 0.095
-0.015 0.015 0.097
-0.005 0.011 0.103
-0.005 0.007 0.103
-0.011 0.013 0.109
-0.003 0.013 0.103
-0.017 0.015 0.089
-0.025 0.017 0.101
-0.021 0.017 0.099
-0.025 0.019 0.101
-0.023 0.021 0.101
-0.023 0.015 0.103
-0.023 0.019 0.103
-0.021 0.027 0.107
-0.011 0.013 0.109
-0.011 0.015 0.109
-0.019 0.025 0.107
-0.015 0.025 0.103
-0.013 0.025 0.105
-0.011 0.023 0.113
-0.011 0.021 0.115
-0.013 0.039 0.069
-0.021 0.031 0.103
-0.017 0.033 0.103
-0.013 0.033 0.105
-0.011 0.033 0.105
-0.023 0.025 0.109
-0.021 0.025 0.109
-0.021 0.025 0.109
-0.017 0.027 0.105
-0.015 0.029 0.103
-0.021 0.027 0.107
-0.011 0.025 0.113
-0.015 0.037 0.103
-0.015 0.037 0.097
-0.015 0.037 0.103
-0.013 0.037 0.103
-0.011 0.037 0.105
-0.005 0.031 0.105
-0.003 0.033 0.105
-0.013 0.041 0.103
-0.009 0.043 0.103
-0.007 0.045 0.099
-0.005 0.045 0.101
-0.007 0.049 0.099
-0.017 0.011 0.111
-0.005 0.011 0.103
-0.005 0.013 0.103
-0.015 0.009 0.111
-0.013 0.015 0.109
-0.025 0.019 0.101
-0.025 0.017 0.103
-0.023 0.017 0.103
-0.019 0.031 0.103
-0.021 0.025 0.109
-0.023 0.027 0.107
-0.023 0.025 0.109
-0.017 0.015 0.109
-0.011 0.021 0.115
-0.005 0.023 0.105
-0.011 0.017 0.109
-0.011 0.019 0.109
-0.011 0.021 0.115
-0.013 0.021 0.115
-0.013 0.029 0.105
-0.013 0.023 0.115
-0.017 0.033 0.103
-0.015 0.037 0.103
-0.015 0.033 0.103
-0.015 0.037 0.103
-0.013 0.041 0.103
-0.013 0.041 0.103
-0.011 0.041 0.103
-0.007 0.041 0.105
-0.005 0.045 0.101
-0.001 0.045 0.103
-0.005 0.039 0.105
-0.003 0.039 0.105
-0.003 0.051 0.105
-0.001 0.055 0.105
-0.001 0.057 0.105
-0.003 0.057 0.103
-0.013 0.005 0.085
-0.011 0.003 0.089
-0.003 0.007 0.077
-0.019 0.003 0.111
-0.015 0.011 0.087
-0.005 0.015 0.103
-0.017 0.021 0.101
-0.005 0.017 0.103
-0.015 0.001 0.087
-0.013 -0.001 0.091
-0.001 0.001 0.079
-0.005 0.005 0.095
-0.013 -0.005 0.093
-0.003 0.005 0.077
-0.007 0.005 0.095
-0.005 0.007 0.101
-0.007 0.007 0.103
-0.007 0.011 0.101
-0.007 0.007 0.103
-0.005 0.009 0.103
0.017 0.025 0.045
-0.005 0.013 0.103
-0.001 0.017 0.103
-0.001 0.015 0.103
-0.001 0.015 0.103
-0.007 0.007 0.087
-0.017 0.007 0.113
-0.013 0.009 0.111
-0.005 0.013 0.103
-0.011 0.015 0.109
-0.005 0.013 0.103
-0.007 0.015 0.101
-0.005 0.013 0.103
-0.005 0.017 0.107
-0.005 0.019 0.103
-0.013 0.017 0.109
-0.013 0.019 0.115
-0.013 0.019 0.115
-0.011 0.021 0.115
-0.007 0.023 0.107
-0.015 0.023 0.107
-0.019 0.029 0.105
-0.011 0.023 0.113
-0.003 0.019 0.109
-0.003 0.023 0.105
-0.001 0.019 0.109
-0.005 0.021 0.105
-0.003 0.021 0.107
-0.013 0.031 0.105
-0.015 0.035 0.103
-0.013 0.033 0.105
-0.013 0.033 0.105
-0.009 0.033 0.105
-0.009 0.027 0.107
-0.009 0.031 0.105
-0.011 0.021 0.115
-0.007 0.031 0.105
-0.011 0.035 0.105
-0.007 0.031 0.105
-0.009 0.033 0.105
-0.015 0.035 0.103
-0.011 0.035 0.105
-0.013 0.037 0.103
-0.011 0.035 0.105
-0.011 0.019 0.115
-0.011 0.019 0.115
-0.005 0.023 0.105
-0.003 0.019 0.107
-0.001 0.021 0.107
-0.011 0.023 0.113
-0.009 0.031 0.105
-0.009 0.031 0.105
-0.009 0.027 0.107
0.001 0.031 0.105
-0.001 0.033 0.105
0.001 0.033 0.105
-0.003 0.041 0.105
-0.001 0.037 0.105
0.005 0.043 0.099
-0.001 0.029 0.105
-0.005 0.033 0.105
-0.001 0.035 0.105
-0.001 0.033 0.105
0.001 0.037 0.105
-0.001 0.039 0.105
0.005 0.045 0.101
0.001 0.045 0.103
-0.003 0.051 0.105
-0.001 0.051 0.107
0.003 0.051 0.107
0.001 0.049 0.107
0.003 0.047 0.105
0.001 0.051 0.107
-0.001 0.019 0.109
0.001 0.027 0.103
0.007 0.035 0.097
0.003 0.033 0.103
0.003 0.037 0.103
0.007 0.043 0.099
0.005 0.047 0.103
0.009 0.043 0.099
-0.001 0.047 0.105
0.003 0.049 0.107
-0.001 0.049 0.107
0.005 0.051 0.105
0.005 0.055 0.105
