-0.017 -0.013 0.037
-0.013 -0.015 0.031
-0.023 0.013 0.037
-0.023 -0.011 0.041
-0.023 -0.011 0.041
-0.021 -0.019 0.037
-0.023 -0.011 0.041
-0.027 -0.013 0.037
-0.023 -0.011 0.041
-0.025 -0.015 0.041
-0.021 -0.011 0.043
-0.019 -0.011 0.047
-0.017 -0.009 0.049
-0.017 -0.015 0.061
-0.019 -0.019 0.063
-0.017 -0.015 0.061
-0.019 -0.019 0.065
-0.019 -0.019 0.061
-0.019 -0.019 0.065
-0.015 -0.013 0.061
-0.017 -0.017 0.065
-0.029 -0.019 0.037
-0.027 -0.015 0.041
-0.027 -0.013 0.039
-0.023 -0.015 0.039
-0.027 -0.013 0.037
-0.021 -0.011 0.041
-0.025 -0.015 0.043
-0.025 -0.015 0.045
-0.021 -0.021 0.047
-0.025 -0.015 0.045
-0.017 -0.015 0.037
-0.023 -0.013 0.043
-0.013 -0.009 0.037
-0.023 0.015 0.041
-0.023 0.017 0.041
-0.021 0.011 0.043
-0.017 -0.013 0.035
-0.023 -0.013 0.045
-0.021 -0.015 0.049
-0.019 -0.011 0.049
-0.019 -0.011 0.047
-0.013 -0.007 0.047
-0.019 0.007 0.049
-0.021 0.011 0.047
-0.019 0.009 0.049
-0.019 0.007 0.049
-0.021 0.013 0.053
-0.017 -0.013 0.037
-0.021 0.011 0.043
-0.021 0.025 0.041
-0.021 0.019 0.043
-0.021 0.019 0.043
-0.021 0.025 0.043
-0.013 -0.007 0.043
-0.017 -0.009 0.047
-0.021 0.015 0.045
-0.021 0.013 0.047
-0.021 -0.019 0.053
-0.021 -0.021 0.049
-0.021 -0.017 0.055
-0.017 -0.017 0.063
-0.017 -0.013 0.057
-0.017 -0.011 0.053
-0.019 0.011 0.057
-0.019 0.011 0.057
-0.019 -0.021 0.063
-0.017 -0.013 0.059
-0.019 -0.001 0.061
-0.019 0.003 0.063
-0.021 0.001 0.065
-0.017 0.011 0.063
-0.019 0.009 0.065
-0.017 -0.015 0.061
-0.015 -0.009 0.053
-0.019 0.007 0.055
-0.019 0.011 0.059
-0.019 0.009 0.053
-0.019 0.009 0.057
-0.017 0.017 0.055
-0.017 -0.013 0.059
-0.019 0.009 0.063
-0.019 0.011 0.061
-0.019 0.011 0.059
-0.019 0.003 0.063
-0.017 0.013 0.059
-0.021 -0.025 0.081
-0.021 -0.025 0.077
-0.021 -0.019 0.079
-0.021 -0.023 0.079
-0.021 -0.019 0.079
-0.021 -0.027 0.075
-0.017 -0.019 0.071
-0.017 -0.019 0.073
-0.021 -0.005 0.073
-0.017 -0.019 0.067
-0.019 -0.023 0.071
-0.017 -0.019 0.067
-0.015 -0.017 0.067
-0.017 -0.019 0.071
-0.017 -0.015 0.073
-0.021 -0.023 0.077
-0.021 -0.023 0.077
-0.021 -0.017 0.081
-0.021 -0.009 0.075
-0.021 -0.001 0.077
-0.021 -0.023 0.083
-0.021 -0.023 0.083
-0.021 -0.007 0.085
-0.021 -0.015 0.085
-0.021 -0.021 0.083
-0.021 -0.015 0.087
-0.019 -0.011 0.089
-0.019 -0.025 0.065
-0.019 -0.025 0.065
-0.019 -0.023 0.069
-0.019 -0.021 0.065
-0.019 -0.019 0.065
-0.021 -0.025 0.073
-0.021 -0.021 0.079
-0.021 -0.009 0.075
-0.021 -0.023 0.077
-0.021 -0.015 0.079
-0.021 -0.017 0.079
-0.019 0.005 0.073
-0.017 0.007 0.075
-0.017 0.005 0.077
-0.019 0.003 0.075
-0.017 0.005 0.079
-0.015 0.005 0.079
-0.021 0.003 0.065
-0.021 -0.005 0.077
-0.021 -0.001 0.075
-0.021 0.003 0.071
-0.015 0.009 0.071
-0.019 0.009 0.067
-0.021 -0.001 0.075
-0.019 0.005 0.075
-0.013 0.009 0.077
-0.017 0.025 0.077
-0.017 0.027 0.081
-0.021 -0.021 0.081
-0.021 -0.017 0.085
-0.021 -0.015 0.087
-0.019 -0.003 0.085
-0.025 0.017 0.087
-0.017 -0.003 0.087
-0.023 0.019 0.087
-0.023 0.019 0.087
-0.019 -0.015 0.089
-0.013 -0.017 0.095
-0.017 -0.005 0.089
-0.021 -0.007 0.085
-0.019 -0.005 0.087
-0.019 -0.001 0.085
-0.021 0.023 0.089
-0.021 0.025 0.087
-0.025 0.017 0.093
-0.017 -0.009 0.091
-0.015 -0.013 0.093
-0.025 0.015 0.097
-0.025 0.019 0.093
-0.023 0.023 0.091
-0.023 0.023 0.091
-0.023 0.023 0.093
-0.023 0.017 0.043
-0.021 0.025 0.043
-0.023 0.025 0.039
-0.017 -0.009 0.041
-0.017 -0.009 0.045
-0.013 -0.007 0.043
-0.019 0.017 0.049
-0.019 0.017 0.047
-0.013 -0.007 0.047
-0.017 -0.009 0.049
-0.021 0.015 0.051
-0.019 0.013 0.055
-0.019 0.007 0.051
-0.019 0.005 0.053
-0.017 0.019 0.051
-0.017 0.017 0.055
-0.015 0.019 0.055
-0.017 -0.011 0.055
-0.019 0.003 0.057
-0.017 0.013 0.059
-0.019 0.001 0.057
-0.019 0.011 0.059
-0.017 0.015 0.057
-0.021 0.001 0.067
-0.021 -0.003 0.069
-0.021 0.003 0.069
-0.021 0.003 0.069
-0.019 0.003 0.063
-0.021 0.019 0.043
-0.017 0.019 0.047
-0.021 0.029 0.045
-0.021 0.035 0.047
-0.021 0.021 0.041
-0.021 0.033 0.043
-0.017 0.021 0.047
-0.019 0.039 0.045
-0.019 0.015 0.053
-0.015 0.021 0.053
-0.013 0.023 0.053
-0.019 0.037 0.053
-0.021 0.039 0.051
-0.019 0.037 0.053
-0.009 0.023 0.055
-0.017 0.041 0.055
-0.021 0.029 0.045
-0.021 0.027 0.045
-0.021 0.037 0.047
-0.019 0.041 0.049
-0.019 0.041 0.047
-0.021 0.033 0.043
-0.021 0.033 0.045
-0.021 0.039 0.047
-0.019 0.041 0.047
-0.019 0.041 0.047
-0.017 0.041 0.043
-0.017 0.039 0.043
-0.015 0.043 0.045
-0.015 0.041 0.043
-0.017 0.043 0.047
-0.021 0.035 0.051
-0.021 0.035 0.051
-0.015 0.021 0.053
-0.013 0.023 0.053
-0.017 0.017 0.055
-0.015 0.015 0.059
-0.009 0.021 0.057
-0.009 0.021 0.057
-0.013 0.013 0.067
-0.011 0.015 0.065
-0.013 0.013 0.067
-0.015 0.011 0.067
-0.013 0.013 0.067
-0.015 0.029 0.065
-0.011 0.029 0.057
-0.013 0.033 0.059
-0.015 0.031 0.065
-0.013 0.025 0.065
-0.021 0.035 0.037
-0.023 0.047 0.037
-0.023 0.047 0.035
-0.021 0.051 0.037
-0.005 0.045 0.033
-0.023 0.015 0.041
-0.021 0.019 0.043
-0.021 0.033 0.041
-0.021 0.027 0.039
-0.023 0.031 0.037
-0.021 0.037 0.039
-0.023 0.031 0.035
-0.023 0.019 0.037
-0.021 0.031 0.033
-0.023 0.025 0.039
-0.021 0.031 0.047
-0.021 0.033 0.035
-0.021 0.049 0.039
-0.023 0.047 0.037
-0.019 0.005 0.051
-0.019 0.007 0.053
-0.021 0.001 0.063
-0.019 0.011 0.061
-0.019 0.009 0.063
-0.019 0.009 0.063
-0.013 0.033 0.059
-0.013 0.033 0.061
-0.013 0.027 0.063
-0.015 0.021 0.053
-0.013 0.039 0.059
-0.015 0.037 0.057
-0.017 0.039 0.055
-0.017 0.041 0.055
-0.015 0.017 0.057
-0.013 0.029 0.061
-0.013 0.033 0.059
-0.013 0.029 0.061
-0.013 0.039 0.063
-0.021 0.037 0.039
-0.019 0.043 0.041
-0.015 0.053 0.037
-0.005 0.045 0.033
-0.011 0.051 0.037
-0.013 0.045 0.043
-0.013 0.045 0.047
-0.017 0.053 0.033
-0.017 0.049 0.041
-0.015 0.053 0.037
-0.009 0.049 0.043
-0.005 0.049 0.041
-0.021 0.037 0.051
-0.019 0.041 0.051
-0.017 0.039 0.055
-0.017 0.041 0.055
-0.013 0.047 0.049
-0.015 0.045 0.051
-0.013 0.045 0.055
-0.009 0.049 0.055
-0.009 0.049 0.049
-0.021 0.001 0.067
-0.017 0.011 0.067
-0.019 0.003 0.077
-0.015 0.025 0.073
-0.015 0.025 0.069
-0.015 0.011 0.069
-0.015 0.011 0.069
-0.015 0.031 0.069
-0.015 0.033 0.069
-0.015 0.031 0.067
-0.015 0.009 0.073
-0.017 0.027 0.077
-0.017 0.025 0.081
-0.017 0.023 0.079
-0.017 0.021 0.079
-0.017 0.027 0.079
-0.017 0.017 0.079
-0.015 0.033 0.071
-0.015 0.031 0.067
-0.015 0.025 0.069
-0.015 0.031 0.071
-0.015 0.023 0.073
-0.017 0.027 0.075
-0.017 0.021 0.077
-0.011 0.035 0.079
-0.013 0.039 0.081
-0.017 0.027 0.075
-0.015 0.031 0.075
-0.025 0.015 0.087
-0.025 0.015 0.093
-0.023 0.023 0.091
-0.015 0.003 0.083
-0.021 0.021 0.085
-0.021 0.023 0.085
-0.021 0.023 0.085
-0.017 0.017 0.081
-0.015 0.035 0.087
-0.023 0.023 0.091
-0.021 0.027 0.095
-0.017 0.035 0.093
-0.019 0.031 0.095
-0.019 0.029 0.093
-0.015 0.037 0.097
-0.019 0.023 0.083
-0.019 0.025 0.083
-0.019 0.023 0.083
-0.021 0.025 0.089
-0.023 0.021 0.089
-0.023 0.023 0.095
-0.019 0.029 0.089
-0.019 0.025 0.083
-0.013 0.031 0.081
-0.011 0.043 0.067
-0.011 0.045 0.065
-0.003 0.047 0.067
-0.007 0.043 0.071
-0.007 0.037 0.077
-0.009 0.041 0.073
-0.009 0.041 0.073
-0.017 0.033 0.089
-0.015 0.035 0.083
-0.013 0.039 0.081
-0.013 0.037 0.081
-0.013 0.039 0.081
-0.011 0.043 0.083
-0.007 0.047 0.083
-0.005 0.049 0.087
-0.011 0.039 0.089
-0.013 0.041 0.091
-0.015 0.037 0.093
-0.015 0.039 0.095
-0.013 0.045 0.093
-0.013 0.041 0.091
-0.011 0.045 0.091
-0.005 0.043 0.089
-0.011 0.043 0.095
-0.011 0.049 0.095
-0.011 0.049 0.095
-0.009 0.041 0.089
-0.011 0.045 0.091
-0.011 0.043 0.091
-0.005 0.043 0.089
-0.005 0.051 0.089
-0.011 0.047 0.093
-0.009 0.051 0.095
-0.009 0.053 0.095
-0.007 0.051 0.083
-0.005 0.055 0.081
-0.003 0.055 0.089
-0.003 0.055 0.089
-0.019 0.007 0.111
-0.021 0.027 0.101
-0.019 0.031 0.099
-0.017 0.009 0.111
-0.025 0.021 0.097
-0.023 0.025 0.097
-0.021 0.027 0.101
-0.021 0.027 0.103
-0.021 0.027 0.101
-0.021 0.029 0.103
-0.019 0.031 0.101
-0.021 0.031 0.103
-0.019 0.031 0.103
-0.013 0.041 0.103
-0.015 0.023 0.107
-0.013 0.029 0.105
-0.013 0.035 0.105
-0.013 0.035 0.105
-0.013 0.035 0.105
-0.009 0.039 0.105
-0.017 0.035 0.099
-0.015 0.037 0.103
-0.013 0.041 0.097
-0.009 0.051 0.097
-0.007 0.047 0.099
-0.005 0.049 0.101
-0.009 0.039 0.105
-0.005 0.041 0.105
-0.007 0.041 0.105
-0.007 0.053 0.099
-0.007 0.055 0.099
-0.005 0.053 0.101
-0.021 0.049 0.039
-0.011 0.049 0.039
-0.015 0.051 0.039
-0.017 0.051 0.039
-0.013 0.051 0.037
-0.005 0.047 0.035
-0.019 0.041 0.045
-0.015 0.043 0.045
-0.011 0.047 0.047
-0.017 0.043 0.049
-0.015 0.045 0.051
-0.013 0.047 0.049
-0.013 0.047 0.049
-0.009 0.049 0.049
-0.007 0.049 0.043
-0.009 0.049 0.045
-0.005 0.047 0.037
-0.005 0.047 0.037
-0.011 0.049 0.053
-0.003 0.051 0.053
0.003 0.049 0.039
0.013 0.039 0.037
0.015 0.039 0.041
0.017 0.037 0.043
-0.013 0.033 0.061
-0.013 0.039 0.061
-0.013 0.045 0.055
-0.011 0.047 0.055
-0.009 0.049 0.059
-0.005 0.051 0.053
-0.005 0.047 0.035
-0.003 0.049 0.037
0.003 0.047 0.037
0.001 0.049 0.039
0.001 0.047 0.037
0.001 0.049 0.039
0.001 0.051 0.049
-0.001 0.051 0.051
0.003 0.049 0.043
0.017 0.039 0.039
0.019 0.039 0.039
0.017 0.037 0.043
0.015 0.039 0.041
0.015 0.037 0.043
0.003 0.049 0.039
0.001 0.051 0.047
-0.003 0.051 0.057
-0.003 0.051 0.057
0.003 0.051 0.049
0.001 0.051 0.053
0.003 0.051 0.053
0.001 0.049 0.059
0.003 0.047 0.061
-0.015 0.029 0.073
-0.007 0.043 0.071
-0.005 0.041 0.073
-0.005 0.041 0.073
-0.005 0.039 0.075
-0.011 0.043 0.087
-0.009 0.045 0.087
-0.011 0.047 0.093
-0.011 0.047 0.093
-0.011 0.049 0.095
-0.003 0.045 0.069
-0.005 0.051 0.085
-0.007 0.049 0.085
-0.007 0.051 0.083
-0.001 0.057 0.089
-0.001 0.057 0.089
-0.001 0.057 0.089
0.003 0.061 0.085
0.001 0.061 0.085
-0.001 0.057 0.089
-0.001 0.057 0.089
0.003 0.061 0.091
0.003 0.059 0.091
0.005 0.059 0.089
0.003 0.059 0.093
0.007 0.059 0.089
-0.009 0.039 0.105
-0.009 0.039 0.105
-0.007 0.055 0.097
-0.005 0.053 0.101
-0.005 0.057 0.097
-0.005 0.055 0.101
-0.003 0.059 0.101
-0.003 0.059 0.101
0.003 0.055 0.101
0.007 0.055 0.105
