0.001 -0.001 0.067
0.001 0.001 0.061
0.005 -0.013 0.051
0.001 0.005 0.061
0.001 0.011 0.061
0.005 0.007 0.055
-0.005 -0.015 0.061
-0.001 -0.029 0.047
0.005 -0.019 0.065
0.007 -0.021 0.069
0.001 -0.029 0.047
0.001 -0.029 0.047
0.003 -0.039 0.061
0.001 -0.039 0.059
-0.001 -0.037 0.059
-0.001 -0.025 0.077
-0.001 -0.039 0.061
-0.001 -0.039 0.069
-0.003 -0.007 0.085
-0.001 -0.015 0.085
-0.001 0.003 0.077
0.007 0.035 0.097
-0.003 0.007 0.073
0.005 0.029 0.097
-0.003 0.005 0.077
0.001 0.019 0.095
0.003 0.031 0.101
0.003 0.031 0.101
-0.001 -0.015 0.051
0.005 -0.013 0.051
0.003 -0.013 0.051
0.001 -0.015 0.049
0.001 -0.011 0.049
0.001 -0.011 0.049
0.001 -0.009 0.047
-0.003 -0.015 0.059
-0.001 -0.019 0.057
-0.001 -0.019 0.051
0.003 0.039 0.101
0.007 0.039 0.099
0.001 0.039 0.105
0.003 0.039 0.101
0.001 0.039 0.103
0.003 0.033 0.103
0.003 0.037 0.103
-0.001 0.013 0.063
0.009 0.041 0.099
0.003 0.007 0.059
-0.001 0.013 0.063
0.001 0.007 0.061
0.003 0.003 0.053
0.001 0.031 0.105
0.001 0.031 0.105
-0.007 -0.003 0.089
-0.001 -0.009 0.077
-0.001 -0.005 0.077
-0.001 -0.021 0.057
-0.001 -0.019 0.055
-0.003 -0.015 0.055
-0.001 -0.019 0.055
-0.003 -0.005 0.087
-0.001 -0.021 0.067
-0.001 -0.025 0.065
-0.001 -0.021 0.063
-0.001 -0.005 0.073
0.001 0.027 0.103
0.005 0.033 0.099
0.003 0.025 0.097
0.001 0.007 0.065
-0.001 0.005 0.075
0.003 0.037 0.103
0.003 0.025 0.097
-0.001 0.007 0.073
0.001 0.005 0.065
-0.005 -0.041 0.087
-0.005 -0.043 0.081
-0.005 -0.043 0.081
-0.011 -0.013 0.095
-0.011 -0.017 0.095
-0.003 -0.025 0.085
-0.001 -0.045 0.067
-0.001 -0.045 0.069
-0.001 -0.025 0.083
-0.001 -0.039 0.069
-0.003 -0.033 0.079
-0.003 -0.015 0.089
-0.001 -0.023 0.085
-0.001 -0.027 0.083
-0.007 -0.041 0.083
-0.005 -0.041 0.077
-0.005 -0.041 0.079
-0.009 -0.019 0.093
-0.003 -0.027 0.087
-0.001 -0.021 0.085
-0.001 -0.021 0.085
-0.005 -0.031 0.085
-0.003 -0.027 0.085
-0.003 -0.047 0.083
-0.003 -0.051 0.087
-0.003 -0.051 0.087
-0.003 -0.047 0.087
-0.007 -0.041 0.087
-0.009 -0.033 0.087
-0.009 -0.039 0.081
-0.009 -0.041 0.083
-0.003 -0.045 0.087
-0.005 -0.041 0.087
-0.007 -0.041 0.085
-0.007 -0.027 0.089
-0.007 -0.007 0.091
-0.009 -0.005 0.091
-0.011 -0.009 0.095
-0.005 -0.001 0.085
-0.001 -0.011 0.083
-0.001 -0.023 0.073
-0.001 -0.023 0.079
-0.001 -0.009 0.083
-0.001 -0.011 0.083
-0.001 0.023 0.107
-0.003 0.019 0.109
-0.017 -0.003 0.087
0.001 0.021 0.107
0.001 0.021 0.107
-0.003 0.001 0.083
0.001 0.027 0.103
-0.001 0.003 0.075
-0.003 -0.003 0.085
-0.003 -0.005 0.087
-0.011 -0.009 0.095
-0.015 -0.009 0.091
-0.015 -0.013 0.093
-0.017 -0.009 0.091
-0.017 -0.019 0.091
-0.013 -0.011 0.095
-0.003 -0.027 0.087
-0.003 -0.025 0.087
-0.005 -0.025 0.089
-0.003 -0.021 0.089
-0.001 -0.015 0.085
-0.011 -0.019 0.095
-0.011 -0.019 0.095
-0.011 -0.025 0.093
-0.005 -0.023 0.089
-0.011 -0.017 0.095
-0.011 -0.021 0.095
-0.017 -0.005 0.089
-0.009 0.023 0.109
-0.015 -0.005 0.089
-0.005 -0.007 0.089
-0.003 -0.011 0.089
-0.001 -0.005 0.083
-0.003 -0.005 0.087
-0.003 -0.003 0.085
-0.003 -0.003 0.085
-0.005 -0.011 0.091
-0.013 -0.007 0.093
-0.007 -0.007 0.091
0.011 -0.019 0.061
0.015 -0.025 0.061
0.017 -0.023 0.059
0.011 -0.019 0.057
0.017 -0.023 0.045
0.019 -0.021 0.051
0.009 -0.023 0.067
0.009 -0.023 0.067
0.011 -0.039 0.053
0.015 -0.037 0.045
0.013 -0.039 0.049
0.009 -0.041 0.057
0.005 -0.041 0.061
0.005 -0.043 0.063
0.013 -0.043 0.051
0.011 -0.041 0.055
0.013 -0.041 0.051
0.013 -0.039 0.051
0.011 -0.043 0.055
0.007 -0.039 0.055
0.009 -0.037 0.053
0.009 -0.039 0.055
0.005 -0.043 0.063
0.009 -0.013 0.047
0.015 -0.019 0.049
0.015 -0.019 0.045
0.017 -0.019 0.045
0.017 -0.021 0.051
0.005 -0.009 0.041
0.011 -0.015 0.039
0.013 -0.015 0.039
0.011 -0.017 0.051
0.013 -0.019 0.053
0.015 -0.019 0.051
0.003 -0.017 0.051
0.017 -0.019 0.045
0.017 -0.021 0.051
0.007 -0.011 0.041
0.005 -0.009 0.041
0.011 -0.007 0.037
0.015 -0.007 0.035
0.011 -0.015 0.039
0.009 -0.011 0.037
0.007 -0.003 0.039
0.007 -0.005 0.039
0.007 -0.003 0.039
0.001 -0.009 0.043
0.001 -0.009 0.047
0.009 -0.013 0.047
0.015 -0.021 0.057
0.011 -0.019 0.059
0.011 -0.023 0.063
0.015 -0.025 0.061
0.007 -0.021 0.065
0.009 -0.021 0.065
0.015 -0.021 0.057
0.019 -0.023 0.055
0.017 -0.021 0.053
0.017 -0.021 0.055
0.017 -0.021 0.055
0.003 -0.013 0.051
0.001 -0.039 0.065
0.007 -0.021 0.069
0.009 0.035 0.057
0.001 0.059 0.089
-0.007 0.049 0.061
-0.001 0.049 0.059
-0.001 0.051 0.057
0.003 0.051 0.045
0.007 0.051 0.105
0.007 0.053 0.105
0.005 0.053 0.099
-0.001 0.051 0.089
-0.003 0.053 0.089
0.005 0.019 0.053
0.005 0.029 0.061
0.009 0.053 0.101
-0.001 0.057 0.089
-0.003 0.059 0.085
-0.001 0.057 0.089
-0.003 0.059 0.085
-0.001 0.057 0.089
-0.005 0.049 0.063
-0.005 0.049 0.061
-0.001 0.061 0.085
0.001 0.057 0.091
-0.005 0.057 0.081
0.007 0.059 0.089
0.007 0.045 0.059
0.005 0.053 0.105
0.003 0.049 0.107
0.005 0.055 0.105
0.005 0.055 0.105
0.007 0.051 0.105
0.009 0.045 0.099
0.009 0.049 0.101
0.001 0.049 0.089
0.011 0.049 0.087
0.005 0.057 0.093
0.005 0.059 0.093
0.009 0.053 0.103
0.009 0.053 0.101
0.009 0.053 0.101
0.003 0.049 0.089
0.009 0.053 0.091
-0.019 0.043 0.041
-0.017 0.045 0.041
-0.015 0.043 0.055
-0.013 0.045 0.055
-0.017 0.043 0.053
-0.007 0.049 0.057
-0.001 0.051 0.057
-0.011 0.049 0.037
-0.001 0.051 0.045
-0.001 0.051 0.043
-0.017 0.051 0.039
-0.019 0.049 0.039
-0.011 0.051 0.037
-0.015 0.049 0.041
-0.003 0.049 0.037
-0.017 0.043 0.053
-0.019 0.041 0.053
0.001 0.059 0.089
-0.003 0.049 0.063
-0.001 0.039 0.105
-0.003 0.007 0.073
0.003 0.043 0.101
0.005 0.041 0.099
0.003 0.039 0.101
0.007 0.039 0.099
0.007 0.043 0.099
-0.001 0.003 0.077
-0.001 0.003 0.077
0.003 0.031 0.101
-0.005 0.041 0.105
-0.005 0.043 0.103
-0.005 0.043 0.103
0.005 0.051 0.105
0.005 0.055 0.105
0.003 0.043 0.101
0.001 0.053 0.105
0.009 0.049 0.101
0.009 0.049 0.101
0.009 0.047 0.099
0.001 0.055 0.099
0.001 0.055 0.105
0.003 0.049 0.107
0.005 0.039 0.099
0.005 0.035 0.099
-0.001 0.053 0.105
-0.003 0.051 0.105
0.009 0.053 0.105
0.009 0.053 0.105
-0.013 0.029 0.105
-0.001 0.025 0.105
0.001 0.025 0.105
-0.003 0.001 0.083
0.001 0.025 0.105
0.003 0.029 0.101
0.001 0.031 0.105
0.003 0.031 0.101
-0.009 0.027 0.107
-0.003 0.025 0.105
0.001 0.021 0.097
0.001 0.023 0.105
-0.005 0.041 0.105
-0.007 0.043 0.101
-0.011 0.041 0.103
-0.009 0.043 0.103
-0.017 0.031 0.103
-0.017 0.033 0.103
-0.017 0.031 0.103
-0.013 0.037 0.103
-0.017 0.033 0.103
-0.013 0.035 0.105
-0.005 0.037 0.105
0.003 0.031 0.101
0.003 0.051 0.107
-0.007 0.043 0.101
0.007 0.041 0.099
0.003 0.037 0.103
-0.003 0.051 0.089
-0.001 0.059 0.103
-0.001 0.057 0.099
0.003 0.061 0.087
0.005 0.063 0.093
0.003 0.059 0.093
0.005 0.061 0.093
0.007 0.059 0.093
0.003 0.061 0.091
-0.001 0.057 0.105
-0.001 0.059 0.103
0.003 0.053 0.091
-0.013 0.043 0.101
-0.003 0.053 0.103
-0.001 0.053 0.105
-0.001 0.057 0.105
-0.003 0.053 0.103
-0.001 0.059 0.103
0.001 0.055 0.091
-0.009 0.043 0.103
-0.007 0.043 0.103
-0.005 0.047 0.101
-0.009 0.043 0.103
-0.011 0.043 0.099
-0.005 0.043 0.103
0.001 0.051 0.107
0.001 0.041 0.101
-0.001 0.047 0.105
-0.001 0.049 0.107
-0.003 0.051 0.105
0.003 0.055 0.105
0.003 0.051 0.107
-0.003 0.053 0.089
-0.001 0.057 0.089
-0.001 0.061 0.085
-0.003 0.059 0.103
-0.001 0.059 0.103
-0.001 0.019 0.109
0.001 0.019 0.107
-0.003 0.017 0.109
-0.003 0.017 0.109
-0.001 0.019 0.109
-0.011 0.019 0.115
-0.017 0.027 0.105
-0.021 0.027 0.107
-0.017 0.025 0.105
-0.017 0.029 0.105
-0.015 0.027 0.103
-0.021 0.027 0.107
-0.023 0.025 0.109
-0.017 0.025 0.105
-0.007 0.025 0.107
-0.003 0.021 0.107
-0.013 0.031 0.105
-0.011 0.021 0.111
-0.003 0.019 0.109
-0.005 0.023 0.105
-0.009 0.025 0.109
-0.009 0.025 0.111
-0.007 0.025 0.107
-0.011 0.021 0.115
-0.011 0.043 0.103
-0.009 0.043 0.103
-0.009 0.039 0.105
-0.011 0.043 0.101
-0.001 0.051 0.107
0.003 0.053 0.105
-0.001 0.041 0.103
-0.013 0.035 0.105
-0.001 0.033 0.105
-0.001 0.041 0.105
0.001 0.057 0.105
0.001 0.057 0.103
-0.001 0.053 0.105
-0.001 0.057 0.105
0.013 0.025 0.051
0.011 0.033 0.055
0.015 0.017 0.041
0.009 0.037 0.057
0.015 0.039 0.037
0.021 0.039 0.037
0.019 0.037 0.033
0.011 0.021 0.049
0.011 0.011 0.043
0.011 0.021 0.049
0.015 0.013 0.035
0.015 0.017 0.037
0.007 0.011 0.051
0.005 0.009 0.055
0.007 0.013 0.047
0.017 0.029 0.047
0.017 0.023 0.045
0.013 0.033 0.047
0.017 0.027 0.047
0.011 0.023 0.051
0.011 0.019 0.047
0.017 0.027 0.047
0.023 0.035 0.043
0.019 0.027 0.045
0.003 0.009 0.057
0.005 0.015 0.051
0.003 0.013 0.057
0.003 0.007 0.059
0.001 0.007 0.063
0.003 0.013 0.057
0.003 0.017 0.055
0.001 0.019 0.055
0.003 0.023 0.055
0.003 0.021 0.055
0.009 0.027 0.055
0.013 0.029 0.051
0.011 0.047 0.085
0.011 0.049 0.087
0.009 0.045 0.045
0.009 0.045 0.045
0.013 0.039 0.037
0.005 0.049 0.041
0.013 0.037 0.045
0.013 0.039 0.043
0.011 0.039 0.047
0.013 0.039 0.045
0.007 0.047 0.047
0.007 0.049 0.049
0.009 0.043 0.047
0.023 0.037 0.043
0.019 0.039 0.039
0.009 0.039 0.051
0.009 0.043 0.051
0.009 0.043 0.053
0.003 0.051 0.051
0.005 0.049 0.051
0.001 0.001 0.071
0.001 0.005 0.069
0.009 0.041 0.085
0.005 0.033 0.069
0.009 0.045 0.087
0.009 0.047 0.099
0.005 0.033 0.099
0.005 0.037 0.099
0.005 0.035 0.099
0.011 0.057 0.087
0.013 0.057 0.085
0.009 0.059 0.087
0.007 0.039 0.087
0.007 0.041 0.087
0.009 0.049 0.089
0.005 0.051 0.089
0.007 0.053 0.091
0.009 0.053 0.091
0.007 0.049 0.089
0.009 0.045 0.085
0.007 0.045 0.101
0.009 0.045 0.101
0.009 0.045 0.101
0.007 0.055 0.105
0.009 0.045 0.097
0.007 0.061 0.093
0.007 0.061 0.093
0.009 0.057 0.089
0.013 0.051 0.085
0.009 0.051 0.089
0.011 0.055 0.089
0.005 0.053 0.091
0.009 0.053 0.091
0.001 0.025 0.101
0.003 0.039 0.101
0.005 0.051 0.105
0.007 0.049 0.103
0.009 0.043 0.099
0.009 0.053 0.105
0.007 0.051 0.105
0.009 0.053 0.105
0.003 0.051 0.107
0.001 0.055 0.105
