-0.009 -0.041 0.031
-0.011 -0.039 0.033
-0.017 -0.031 0.033
-0.029 -0.023 0.037
-0.029 -0.019 0.037
-0.015 -0.015 0.033
-0.013 -0.011 0.033
-0.009 -0.041 0.033
-0.013 -0.037 0.033
-0.015 -0.035 0.033
-0.003 -0.041 0.043
-0.001 -0.045 0.047
-0.013 -0.033 0.041
-0.003 -0.037 0.043
-0.011 -0.033 0.043
-0.001 -0.047 0.051
-0.001 -0.041 0.049
-0.003 -0.047 0.055
-0.009 -0.045 0.065
-0.009 -0.035 0.059
-0.015 -0.033 0.061
-0.017 -0.033 0.063
-0.017 -0.033 0.065
-0.021 -0.029 0.039
-0.019 -0.031 0.037
-0.023 -0.027 0.039
-0.025 -0.023 0.039
-0.029 -0.017 0.033
-0.029 -0.019 0.035
-0.029 -0.023 0.037
-0.027 -0.017 0.039
-0.029 -0.021 0.037
-0.027 -0.017 0.039
-0.021 -0.025 0.043
-0.025 -0.023 0.039
-0.027 -0.015 0.037
-0.027 -0.017 0.041
-0.017 -0.029 0.045
-0.017 -0.029 0.043
-0.019 -0.027 0.045
-0.027 -0.013 0.037
-0.027 -0.015 0.041
-0.025 -0.015 0.041
-0.025 -0.015 0.043
-0.017 -0.009 0.043
-0.023 -0.013 0.045
-0.019 -0.025 0.051
-0.019 -0.025 0.053
-0.019 -0.025 0.055
-0.021 -0.023 0.049
-0.019 -0.023 0.053
-0.021 -0.017 0.053
-0.021 -0.025 0.059
-0.019 -0.031 0.061
-0.021 -0.019 0.059
-0.019 -0.017 0.061
-0.019 -0.025 0.051
-0.017 -0.027 0.055
-0.019 -0.013 0.053
-0.017 -0.029 0.059
-0.019 -0.023 0.065
-0.017 -0.015 0.061
-0.019 -0.017 0.061
-0.015 -0.015 0.063
-0.017 -0.017 0.065
-0.013 -0.015 0.065
-0.017 -0.009 0.049
-0.021 -0.015 0.053
-0.019 -0.013 0.053
-0.019 -0.013 0.055
-0.019 -0.011 0.053
-0.017 -0.013 0.057
-0.019 -0.015 0.059
-0.017 -0.003 0.057
-0.019 -0.003 0.063
-0.017 -0.009 0.049
-0.015 -0.009 0.053
-0.015 -0.011 0.057
-0.019 -0.013 0.053
-0.015 -0.011 0.057
-0.015 -0.005 0.061
-0.017 -0.005 0.063
-0.013 -0.007 0.063
-0.019 -0.003 0.063
-0.019 -0.003 0.065
-0.019 -0.003 0.063
-0.019 -0.001 0.065
-0.007 -0.053 0.075
-0.009 -0.053 0.079
-0.011 -0.047 0.079
-0.009 -0.045 0.065
-0.011 -0.043 0.069
-0.007 -0.047 0.065
-0.009 -0.045 0.067
-0.009 -0.039 0.067
-0.017 -0.035 0.073
-0.017 -0.035 0.071
-0.019 -0.029 0.071
-0.011 -0.045 0.073
-0.015 -0.037 0.073
-0.011 -0.039 0.075
-0.017 -0.035 0.077
-0.019 -0.033 0.077
-0.019 -0.031 0.077
-0.013 -0.037 0.077
-0.009 -0.049 0.083
-0.009 -0.053 0.081
-0.005 -0.055 0.087
-0.007 -0.051 0.087
-0.011 -0.045 0.083
-0.009 -0.041 0.083
-0.007 -0.045 0.087
-0.009 -0.043 0.085
-0.011 -0.039 0.081
-0.011 -0.037 0.083
-0.015 -0.033 0.085
-0.013 -0.035 0.087
-0.013 -0.035 0.087
-0.017 -0.031 0.085
-0.019 -0.025 0.065
-0.019 -0.021 0.071
-0.017 -0.019 0.071
-0.021 -0.025 0.077
-0.021 -0.027 0.069
-0.017 -0.019 0.069
-0.017 -0.019 0.069
-0.017 -0.019 0.069
-0.015 -0.017 0.067
-0.017 -0.019 0.071
-0.017 -0.019 0.073
-0.021 -0.021 0.079
-0.019 -0.019 0.075
-0.019 -0.019 0.077
-0.017 -0.009 0.069
-0.019 -0.003 0.065
-0.017 -0.007 0.069
-0.017 -0.015 0.073
-0.021 -0.015 0.079
-0.019 -0.013 0.077
-0.021 -0.005 0.079
-0.021 -0.001 0.077
-0.013 -0.015 0.065
-0.017 -0.007 0.067
-0.017 -0.027 0.089
-0.017 -0.029 0.087
-0.019 -0.025 0.087
-0.021 -0.021 0.087
-0.021 -0.019 0.085
-0.021 -0.019 0.087
-0.015 -0.029 0.089
-0.017 -0.021 0.091
-0.015 -0.017 0.093
-0.015 -0.015 0.093
-0.017 -0.015 0.091
-0.021 -0.013 0.083
-0.019 -0.001 0.085
-0.019 -0.001 0.083
-0.015 0.001 0.085
-0.017 -0.009 0.091
-0.017 -0.009 0.091
-0.015 -0.003 0.089
-0.019 -0.031 0.037
-0.023 -0.027 0.037
-0.023 -0.027 0.037
-0.023 -0.027 0.037
-0.027 -0.015 0.037
-0.027 -0.017 0.039
-0.027 -0.013 0.037
-0.027 -0.013 0.037
-0.017 -0.013 0.035
-0.017 -0.013 0.035
-0.013 -0.037 0.037
-0.003 -0.043 0.041
-0.023 -0.027 0.039
-0.015 -0.033 0.039
-0.015 -0.033 0.039
-0.001 -0.043 0.043
-0.001 -0.045 0.045
-0.001 -0.045 0.045
-0.001 -0.041 0.049
0.001 -0.035 0.049
0.001 -0.049 0.051
-0.001 -0.049 0.053
-0.001 -0.047 0.051
-0.001 -0.041 0.051
-0.003 -0.043 0.053
-0.003 -0.041 0.055
0.001 -0.035 0.049
0.003 -0.035 0.051
0.003 -0.037 0.053
-0.007 -0.045 0.061
-0.005 -0.039 0.059
-0.015 -0.035 0.065
-0.025 -0.025 0.039
-0.023 -0.019 0.043
-0.023 -0.019 0.045
-0.025 -0.017 0.043
-0.027 -0.017 0.041
-0.027 -0.013 0.039
-0.023 -0.013 0.043
-0.019 -0.027 0.051
-0.021 -0.025 0.049
-0.021 -0.025 0.049
-0.021 -0.023 0.049
-0.021 -0.025 0.049
-0.021 -0.019 0.051
-0.021 -0.015 0.047
-0.021 -0.017 0.051
-0.017 -0.011 0.039
-0.013 -0.009 0.037
-0.011 -0.007 0.039
-0.013 -0.007 0.041
0.001 -0.003 0.033
0.001 -0.007 0.037
0.001 -0.005 0.037
0.001 -0.005 0.035
0.007 -0.003 0.037
0.005 -0.007 0.039
0.009 -0.005 0.039
-0.013 -0.007 0.043
-0.013 -0.007 0.047
-0.013 -0.007 0.049
-0.021 -0.021 0.061
-0.021 -0.019 0.057
-0.021 -0.021 0.059
-0.021 -0.017 0.053
-0.021 -0.017 0.057
-0.021 -0.017 0.055
-0.019 -0.013 0.053
-0.019 -0.013 0.053
-0.021 -0.017 0.057
-0.019 -0.015 0.059
-0.019 -0.019 0.065
-0.017 -0.017 0.063
-0.017 -0.011 0.055
-0.015 -0.009 0.053
-0.013 -0.037 0.067
-0.015 -0.019 0.069
-0.013 0.011 0.033
-0.023 0.015 0.035
-0.025 0.017 0.035
-0.023 0.027 0.035
-0.019 0.037 0.035
-0.017 0.009 0.043
-0.023 0.015 0.041
-0.015 0.011 0.037
-0.017 0.003 0.047
-0.023 0.027 0.035
-0.023 0.031 0.035
-0.017 0.019 0.045
-0.017 0.023 0.047
-0.019 0.027 0.047
-0.025 0.017 0.035
-0.023 0.021 0.037
-0.019 0.003 0.051
-0.017 0.001 0.053
-0.019 0.005 0.053
-0.019 0.005 0.055
-0.021 0.013 0.049
-0.019 0.009 0.055
-0.019 0.013 0.055
-0.019 0.003 0.057
-0.021 0.001 0.063
-0.021 0.001 0.063
-0.017 0.013 0.059
-0.013 0.015 0.063
-0.017 0.023 0.049
-0.015 0.017 0.057
-0.009 0.023 0.055
-0.011 0.025 0.053
-0.015 0.031 0.053
-0.013 0.031 0.055
-0.007 0.023 0.057
-0.011 0.029 0.057
-0.011 0.027 0.061
-0.011 0.025 0.063
-0.013 0.031 0.061
-0.021 0.043 0.037
-0.021 0.043 0.039
-0.019 0.039 0.037
-0.023 0.047 0.039
-0.017 0.047 0.041
-0.013 0.043 0.043
-0.017 0.043 0.047
-0.011 0.047 0.045
-0.017 0.053 0.035
-0.009 0.049 0.043
-0.019 0.041 0.051
-0.017 0.035 0.055
-0.013 0.045 0.049
-0.011 0.047 0.057
-0.011 0.049 0.049
-0.007 0.051 0.053
-0.007 0.049 0.061
-0.007 0.049 0.061
-0.021 0.003 0.067
-0.019 0.007 0.069
-0.019 0.005 0.073
-0.011 0.015 0.069
-0.011 0.013 0.071
-0.015 0.011 0.069
-0.017 0.005 0.079
-0.013 0.007 0.079
-0.019 0.005 0.075
-0.013 0.009 0.077
-0.013 0.009 0.077
-0.013 0.013 0.079
-0.015 0.015 0.079
-0.017 0.017 0.079
-0.017 0.021 0.079
-0.011 0.023 0.065
-0.013 0.019 0.071
-0.013 0.023 0.067
-0.015 0.023 0.071
-0.015 0.021 0.071
-0.015 0.027 0.069
-0.015 0.019 0.075
-0.015 0.029 0.075
-0.017 0.027 0.079
-0.015 0.029 0.079
-0.021 0.015 0.091
-0.015 0.005 0.081
-0.013 0.007 0.081
-0.015 0.001 0.087
-0.015 0.001 0.085
-0.015 0.003 0.085
-0.015 0.015 0.083
-0.015 0.011 0.087
-0.025 0.017 0.087
-0.025 0.015 0.089
-0.007 0.007 0.095
-0.025 0.015 0.093
-0.025 0.015 0.095
-0.025 0.017 0.095
-0.025 0.015 0.093
-0.019 0.019 0.085
-0.021 0.023 0.087
-0.021 0.025 0.087
-0.021 0.025 0.091
-0.017 0.031 0.093
-0.019 0.025 0.083
-0.019 0.027 0.083
-0.017 0.031 0.085
-0.017 0.029 0.085
-0.017 0.029 0.087
-0.023 0.023 0.095
-0.017 0.031 0.093
-0.013 0.035 0.069
-0.013 0.041 0.067
-0.009 0.039 0.075
-0.011 0.037 0.075
-0.017 0.033 0.091
-0.015 0.035 0.083
-0.013 0.037 0.083
-0.015 0.033 0.085
-0.013 0.039 0.087
-0.011 0.043 0.085
-0.011 0.043 0.087
-0.007 0.047 0.083
-0.009 0.045 0.083
-0.009 0.045 0.087
-0.007 0.047 0.087
-0.017 0.035 0.093
-0.015 0.039 0.095
-0.015 0.039 0.093
-0.017 0.035 0.093
-0.017 0.035 0.093
-0.013 0.039 0.089
-0.017 0.035 0.095
-0.017 0.037 0.095
-0.013 0.043 0.093
-0.011 0.047 0.093
-0.003 0.045 0.089
-0.011 0.047 0.093
-0.011 0.045 0.095
-0.011 0.045 0.095
-0.005 0.049 0.081
-0.007 0.049 0.083
-0.005 0.055 0.081
-0.003 0.061 0.083
-0.003 0.059 0.085
-0.009 0.051 0.095
-0.007 0.007 0.103
-0.025 0.017 0.097
-0.015 0.015 0.097
-0.025 0.015 0.103
-0.017 0.009 0.109
-0.025 0.017 0.097
-0.025 0.019 0.099
-0.023 0.023 0.099
-0.023 0.023 0.101
-0.021 0.027 0.099
-0.021 0.025 0.103
-0.021 0.029 0.103
-0.021 0.029 0.105
-0.023 0.017 0.099
-0.025 0.019 0.101
-0.021 0.031 0.103
-0.015 0.019 0.105
-0.015 0.019 0.107
-0.015 0.019 0.109
-0.021 0.027 0.105
-0.021 0.027 0.105
-0.021 0.029 0.105
-0.015 0.039 0.099
-0.007 0.045 0.099
-0.009 0.047 0.097
-0.003 0.045 0.103
-0.013 0.035 0.105
-0.011 0.037 0.105
-0.009 0.049 0.097
-0.009 0.053 0.097
-0.005 0.053 0.101
-0.003 0.059 0.099
-0.005 0.059 0.101
-0.003 0.059 0.103
-0.003 0.051 0.105
-0.023 0.013 0.039
-0.023 0.021 0.037
-0.023 0.023 0.037
-0.023 0.019 0.037
-0.023 0.021 0.039
-0.023 0.031 0.037
-0.017 0.009 0.041
-0.017 0.009 0.041
-0.021 0.011 0.041
-0.021 0.011 0.039
-0.019 0.009 0.045
-0.017 0.009 0.043
-0.023 0.013 0.039
-0.021 0.011 0.041
-0.021 0.013 0.041
-0.019 0.017 0.047
-0.023 0.021 0.041
-0.023 0.025 0.039
-0.023 0.021 0.041
-0.019 0.023 0.041
-0.021 0.029 0.041
-0.021 0.027 0.043
-0.021 0.027 0.045
-0.017 0.021 0.049
-0.015 0.021 0.051
-0.017 0.033 0.053
-0.021 0.033 0.043
-0.021 0.031 0.045
-0.021 0.031 0.047
-0.017 0.029 0.051
-0.019 0.031 0.051
-0.019 0.033 0.051
-0.019 0.005 0.053
-0.017 0.013 0.057
-0.019 0.003 0.061
-0.019 0.009 0.061
-0.017 0.019 0.053
-0.007 0.025 0.057
-0.013 0.031 0.059
-0.013 0.031 0.061
-0.013 0.031 0.061
-0.013 0.027 0.065
-0.019 0.035 0.041
-0.021 0.037 0.039
-0.019 0.041 0.041
-0.021 0.039 0.039
-0.021 0.043 0.039
-0.021 0.039 0.049
-0.021 0.039 0.049
-0.021 0.039 0.051
-0.019 0.035 0.041
-0.019 0.041 0.047
-0.021 0.039 0.051
-0.009 0.049 0.043
-0.013 0.037 0.059
-0.011 0.047 0.057
-0.013 0.045 0.057
-0.013 0.035 0.065
-0.013 0.037 0.063
-0.009 0.047 0.061
-0.013 0.041 0.063
-0.019 0.007 0.067
-0.015 0.029 0.067
-0.015 0.027 0.069
-0.015 0.031 0.077
-0.017 0.027 0.081
-0.021 0.027 0.089
-0.017 0.033 0.095
-0.013 0.039 0.069
-0.015 0.033 0.071
-0.013 0.037 0.087
-0.009 0.041 0.089
-0.013 0.037 0.091
-0.001 0.047 0.089
-0.013 0.041 0.097
-0.011 0.045 0.097
-0.005 0.049 0.087
-0.003 0.055 0.087
-0.003 0.061 0.083
-0.003 0.057 0.087
0.001 0.055 0.091
0.001 0.051 0.089
0.001 0.057 0.091
-0.021 0.027 0.097
-0.017 0.035 0.099
-0.017 0.035 0.097
-0.015 0.037 0.099
-0.015 0.039 0.101
-0.013 0.041 0.099
-0.005 0.047 0.101
-0.005 0.045 0.101
-0.007 0.051 0.099
-0.005 0.057 0.103
-0.003 0.049 0.105
-0.001 0.053 0.105
