-0.015 -0.035 0.037
-0.023 -0.027 0.039
-0.025 -0.023 0.039
-0.007 -0.043 0.035
-0.007 -0.043 0.035
-0.005 -0.041 0.039
-0.011 -0.039 0.035
-0.009 -0.037 0.039
-0.017 -0.033 0.037
-0.015 -0.033 0.039
-0.001 -0.047 0.047
-0.001 -0.047 0.049
-0.003 -0.045 0.053
-0.001 -0.039 0.053
-0.007 -0.043 0.061
-0.007 -0.047 0.065
-0.007 -0.047 0.065
-0.013 -0.035 0.063
-0.025 -0.025 0.037
-0.019 -0.031 0.037
-0.023 -0.027 0.039
-0.029 -0.023 0.037
-0.027 -0.019 0.041
-0.027 -0.019 0.041
-0.025 -0.021 0.041
-0.023 -0.027 0.041
-0.019 -0.027 0.049
-0.027 -0.019 0.041
-0.021 -0.023 0.045
-0.021 -0.021 0.047
-0.023 -0.017 0.045
-0.021 -0.029 0.039
-0.017 -0.031 0.041
-0.023 -0.025 0.041
-0.023 -0.025 0.041
-0.023 -0.023 0.041
-0.017 -0.027 0.053
-0.027 -0.015 0.041
-0.023 -0.013 0.041
-0.023 -0.011 0.043
-0.023 -0.013 0.045
-0.023 -0.013 0.045
-0.017 -0.009 0.045
-0.027 -0.017 0.041
-0.023 -0.011 0.043
-0.023 -0.019 0.043
-0.021 -0.013 0.045
-0.021 -0.013 0.045
-0.019 -0.013 0.049
-0.019 -0.011 0.049
-0.019 -0.025 0.055
-0.021 -0.019 0.051
-0.021 -0.017 0.053
-0.019 -0.031 0.061
-0.019 -0.031 0.063
-0.021 -0.021 0.059
-0.021 -0.023 0.059
-0.021 -0.023 0.063
-0.017 -0.029 0.057
-0.009 -0.029 0.051
-0.021 -0.021 0.059
-0.017 -0.031 0.059
-0.019 -0.033 0.067
-0.021 -0.027 0.071
-0.019 -0.021 0.067
-0.019 -0.021 0.069
-0.019 -0.013 0.055
-0.019 -0.015 0.059
-0.017 -0.003 0.057
-0.019 -0.003 0.063
-0.019 -0.001 0.063
-0.019 -0.011 0.053
-0.015 -0.009 0.053
-0.017 -0.013 0.059
-0.015 -0.011 0.057
-0.019 -0.015 0.059
-0.015 -0.001 0.051
-0.017 -0.003 0.057
-0.019 -0.001 0.057
-0.013 -0.003 0.053
-0.015 -0.005 0.061
-0.017 -0.015 0.061
-0.015 -0.013 0.061
-0.015 -0.013 0.061
-0.015 -0.015 0.063
-0.013 -0.007 0.063
-0.015 -0.005 0.061
-0.007 -0.055 0.077
-0.007 -0.055 0.081
-0.019 -0.033 0.073
-0.019 -0.033 0.077
-0.005 -0.047 0.067
-0.009 -0.043 0.067
-0.015 -0.037 0.073
-0.017 -0.035 0.073
-0.011 -0.045 0.081
-0.011 -0.045 0.081
-0.011 -0.041 0.081
-0.013 -0.037 0.077
-0.013 -0.037 0.077
-0.013 -0.037 0.081
-0.011 -0.049 0.081
-0.007 -0.055 0.081
-0.007 -0.055 0.081
-0.007 -0.053 0.085
-0.005 -0.055 0.085
-0.005 -0.053 0.087
-0.011 -0.045 0.083
-0.009 -0.045 0.085
-0.007 -0.047 0.087
-0.007 -0.047 0.087
-0.007 -0.045 0.087
-0.013 -0.037 0.081
-0.011 -0.037 0.083
-0.013 -0.033 0.089
-0.019 -0.025 0.065
-0.019 -0.031 0.073
-0.019 -0.031 0.079
-0.021 -0.021 0.079
-0.021 -0.023 0.079
-0.019 -0.031 0.077
-0.021 -0.025 0.073
-0.019 -0.021 0.071
-0.019 -0.023 0.073
-0.017 -0.033 0.081
-0.019 -0.029 0.079
-0.019 -0.027 0.081
-0.019 -0.025 0.085
-0.021 -0.021 0.083
-0.019 -0.013 0.077
-0.021 -0.009 0.079
-0.015 -0.009 0.069
-0.017 -0.013 0.073
-0.017 -0.011 0.073
-0.019 -0.013 0.075
-0.019 -0.015 0.075
-0.019 -0.009 0.071
-0.021 -0.009 0.077
-0.019 -0.015 0.077
-0.021 -0.025 0.083
-0.019 -0.025 0.085
-0.019 -0.025 0.087
-0.019 -0.023 0.085
-0.013 -0.033 0.087
-0.017 -0.027 0.089
-0.015 -0.025 0.091
-0.013 -0.025 0.093
-0.013 -0.027 0.093
-0.015 -0.023 0.091
-0.021 -0.007 0.081
-0.021 -0.003 0.081
-0.019 -0.009 0.089
-0.017 -0.011 0.091
-0.019 -0.019 0.089
-0.017 -0.019 0.091
-0.019 -0.007 0.087
-0.017 -0.011 0.091
-0.017 -0.009 0.091
-0.017 -0.015 0.091
-0.017 -0.013 0.091
-0.013 -0.011 0.093
-0.013 -0.001 0.089
-0.013 -0.003 0.093
-0.003 -0.043 0.039
-0.001 -0.045 0.041
-0.003 -0.043 0.041
0.003 -0.045 0.041
-0.001 -0.043 0.043
-0.001 -0.043 0.047
-0.005 -0.037 0.041
0.001 -0.047 0.049
-0.001 -0.033 0.045
-0.003 -0.049 0.057
-0.003 -0.049 0.057
-0.007 -0.045 0.059
-0.003 -0.037 0.057
-0.005 -0.039 0.059
-0.007 -0.047 0.065
-0.013 -0.033 0.041
-0.013 -0.033 0.041
-0.009 -0.035 0.041
-0.003 -0.033 0.043
-0.021 -0.023 0.045
-0.021 -0.023 0.049
-0.021 -0.025 0.049
-0.009 -0.029 0.051
-0.017 -0.031 0.059
-0.019 -0.027 0.059
-0.017 -0.029 0.055
-0.021 -0.025 0.061
-0.021 -0.019 0.049
-0.021 -0.017 0.051
-0.021 -0.015 0.051
-0.021 -0.019 0.047
-0.019 -0.011 0.045
-0.019 -0.013 0.047
-0.019 -0.013 0.047
-0.019 -0.011 0.047
-0.019 -0.013 0.049
-0.019 -0.013 0.055
-0.021 -0.021 0.059
-0.019 -0.031 0.061
-0.019 -0.029 0.063
-0.021 -0.023 0.063
-0.019 -0.033 0.073
-0.019 -0.031 0.073
-0.021 -0.027 0.071
-0.021 -0.027 0.071
-0.021 -0.027 0.073
-0.019 -0.029 0.075
-0.019 -0.033 0.073
-0.019 -0.027 0.077
-0.021 -0.025 0.081
-0.021 -0.007 0.075
-0.021 0.013 0.035
-0.023 0.025 0.033
-0.023 0.013 0.039
-0.023 0.015 0.039
-0.023 0.017 0.037
-0.023 0.023 0.037
-0.023 0.031 0.037
-0.021 0.027 0.039
-0.021 0.025 0.041
-0.021 0.031 0.039
-0.021 0.011 0.039
-0.021 0.011 0.047
-0.009 0.003 0.041
-0.015 0.009 0.037
-0.015 0.003 0.045
-0.017 0.003 0.047
-0.017 0.005 0.047
-0.013 -0.003 0.053
-0.023 0.019 0.039
-0.023 0.027 0.035
-0.023 0.021 0.041
-0.019 0.023 0.043
-0.021 0.029 0.041
-0.023 0.015 0.037
-0.021 0.015 0.043
-0.023 0.019 0.041
-0.019 0.003 0.051
-0.019 0.005 0.053
-0.019 0.001 0.057
-0.019 0.005 0.053
-0.019 0.005 0.055
-0.021 0.013 0.053
-0.019 0.003 0.057
-0.019 0.001 0.059
-0.019 0.005 0.057
-0.021 0.003 0.065
-0.015 -0.003 0.055
-0.017 -0.003 0.057
-0.015 0.013 0.063
-0.015 0.013 0.065
-0.021 0.003 0.071
-0.019 0.005 0.069
-0.017 0.011 0.067
-0.017 0.025 0.049
-0.019 0.029 0.049
-0.017 0.015 0.057
-0.015 0.025 0.051
-0.017 0.031 0.051
-0.011 0.025 0.053
-0.009 0.027 0.055
-0.011 0.029 0.057
-0.013 0.031 0.055
-0.011 0.019 0.057
-0.013 0.017 0.059
-0.009 0.019 0.059
-0.011 0.017 0.059
-0.015 0.013 0.063
-0.015 0.013 0.065
-0.013 0.031 0.059
-0.013 0.025 0.065
-0.013 0.023 0.067
-0.021 0.033 0.035
-0.023 0.031 0.037
-0.021 0.035 0.037
-0.021 0.035 0.039
-0.023 0.047 0.037
-0.021 0.043 0.037
-0.021 0.043 0.039
-0.019 0.043 0.041
-0.021 0.039 0.047
-0.023 0.031 0.037
-0.021 0.031 0.039
-0.021 0.035 0.039
-0.021 0.033 0.039
-0.021 0.037 0.039
-0.017 0.041 0.043
-0.019 0.041 0.047
-0.021 0.039 0.049
-0.021 0.049 0.039
-0.021 0.051 0.037
-0.017 0.049 0.041
-0.011 0.047 0.045
-0.013 0.045 0.049
-0.013 0.047 0.049
-0.019 0.041 0.051
-0.013 0.033 0.055
-0.017 0.043 0.051
-0.013 0.045 0.057
-0.015 0.037 0.057
-0.013 0.043 0.059
-0.011 0.047 0.051
-0.011 0.047 0.055
-0.011 0.047 0.059
-0.009 0.045 0.067
-0.019 0.009 0.065
-0.019 0.001 0.077
-0.013 0.013 0.067
-0.017 0.007 0.073
-0.019 0.003 0.079
-0.017 0.003 0.081
-0.019 -0.003 0.083
-0.019 -0.005 0.085
-0.019 -0.001 0.085
-0.017 0.003 0.081
-0.013 0.013 0.079
-0.011 0.019 0.069
-0.015 0.021 0.071
-0.013 0.023 0.067
-0.015 0.021 0.073
-0.017 0.019 0.077
-0.017 0.017 0.079
-0.015 0.015 0.079
-0.017 0.017 0.079
-0.015 0.015 0.081
-0.015 0.015 0.083
-0.023 0.015 0.089
-0.027 0.013 0.095
-0.015 0.001 0.085
-0.017 -0.001 0.087
-0.007 0.007 0.089
-0.015 0.013 0.083
-0.015 0.013 0.087
-0.017 0.015 0.089
-0.015 0.013 0.085
-0.007 0.009 0.093
-0.007 0.009 0.095
-0.007 0.011 0.093
-0.025 0.017 0.087
-0.017 0.031 0.087
-0.019 0.027 0.083
-0.021 0.025 0.091
-0.013 0.013 0.097
-0.013 0.037 0.071
-0.011 0.043 0.067
-0.011 0.043 0.069
-0.011 0.043 0.067
-0.011 0.043 0.069
-0.019 0.027 0.085
-0.017 0.035 0.093
-0.017 0.033 0.095
-0.017 0.029 0.085
-0.015 0.037 0.085
-0.015 0.033 0.087
-0.015 0.035 0.087
-0.019 0.027 0.091
-0.015 0.035 0.089
-0.017 0.033 0.091
-0.011 0.043 0.087
-0.013 0.037 0.087
-0.009 0.041 0.089
-0.017 0.031 0.093
-0.017 0.033 0.093
-0.015 0.039 0.099
-0.007 0.049 0.083
-0.005 0.053 0.083
-0.003 0.055 0.089
-0.003 0.053 0.089
-0.019 0.005 0.111
-0.019 0.007 0.111
-0.017 0.015 0.109
-0.007 0.007 0.099
-0.007 0.013 0.097
-0.007 0.009 0.103
-0.017 0.011 0.107
-0.017 0.011 0.107
-0.017 0.009 0.111
-0.017 0.013 0.109
-0.025 0.017 0.103
-0.023 0.027 0.107
-0.025 0.013 0.103
-0.015 0.017 0.103
-0.013 0.019 0.103
-0.017 0.015 0.107
-0.015 0.017 0.105
-0.017 0.015 0.107
-0.003 0.019 0.109
-0.013 0.025 0.111
-0.013 0.021 0.115
-0.013 0.023 0.115
-0.015 0.039 0.097
-0.021 0.029 0.105
-0.011 0.039 0.103
-0.011 0.043 0.103
-0.013 0.035 0.105
-0.009 0.037 0.105
-0.009 0.049 0.097
-0.009 0.051 0.097
-0.005 0.055 0.101
-0.005 0.057 0.101
-0.005 0.057 0.103
-0.003 0.057 0.103
-0.013 0.005 0.041
-0.019 0.023 0.043
-0.019 0.017 0.047
-0.021 0.015 0.049
-0.013 0.005 0.041
-0.015 0.005 0.043
-0.015 0.003 0.047
-0.019 -0.001 0.057
-0.019 0.005 0.057
-0.019 0.001 0.055
-0.019 0.007 0.057
-0.021 0.015 0.043
-0.019 0.007 0.049
-0.021 0.013 0.053
-0.019 0.011 0.051
-0.019 0.011 0.061
-0.019 0.013 0.055
-0.017 0.013 0.057
-0.011 0.019 0.057
-0.019 0.007 0.063
-0.021 -0.003 0.069
-0.019 0.005 0.071
-0.019 0.011 0.061
-0.013 0.015 0.061
-0.019 0.011 0.061
-0.017 0.013 0.061
-0.009 0.019 0.059
-0.013 0.017 0.059
-0.011 0.017 0.059
-0.009 0.025 0.061
-0.019 0.027 0.047
-0.017 0.025 0.047
-0.017 0.025 0.047
-0.021 0.035 0.045
-0.021 0.033 0.047
-0.021 0.031 0.049
-0.021 0.035 0.047
-0.019 0.031 0.051
-0.011 0.027 0.053
-0.013 0.033 0.055
-0.015 0.035 0.055
-0.017 0.019 0.053
-0.017 0.027 0.049
-0.015 0.027 0.051
-0.013 0.027 0.053
-0.011 0.025 0.053
-0.009 0.025 0.055
-0.009 0.027 0.055
-0.019 0.041 0.049
-0.017 0.041 0.055
-0.009 0.025 0.059
-0.011 0.029 0.059
-0.013 0.027 0.065
-0.015 0.029 0.065
-0.013 0.039 0.059
-0.015 0.031 0.065
-0.015 0.027 0.071
-0.015 0.029 0.071
-0.013 0.041 0.065
-0.013 0.037 0.069
-0.013 0.041 0.061
-0.021 -0.003 0.073
-0.017 0.021 0.075
-0.015 0.023 0.073
-0.017 0.021 0.079
-0.017 0.019 0.081
-0.015 0.015 0.099
-0.025 0.015 0.101
-0.025 0.019 0.099
-0.023 0.021 0.101
-0.015 0.031 0.075
-0.015 0.031 0.079
-0.013 0.035 0.073
-0.013 0.035 0.077
-0.019 0.029 0.093
-0.021 0.029 0.097
-0.017 0.033 0.091
-0.013 0.039 0.089
-0.017 0.031 0.093
-0.021 0.027 0.103
-0.015 0.039 0.097
-0.019 0.033 0.101
-0.015 0.041 0.093
-0.011 0.045 0.091
-0.015 0.041 0.093
-0.013 0.041 0.095
-0.013 0.045 0.093
-0.003 0.059 0.085
-0.003 0.057 0.087
-0.003 0.055 0.089
-0.011 0.047 0.095
-0.013 0.045 0.093
-0.011 0.047 0.095
-0.011 0.047 0.095
0.003 0.061 0.091
-0.015 0.021 0.103
-0.023 0.027 0.107
-0.023 0.025 0.109
-0.013 0.035 0.105
-0.001 0.037 0.105
-0.013 0.041 0.103
-0.005 0.051 0.101
-0.001 0.047 0.105
-0.003 0.053 0.103
-0.007 0.043 0.103
-0.001 0.049 0.107
-0.001 0.053 0.105
