-0.021 -0.021 0.061
-0.021 -0.015 0.053
-0.019 -0.011 0.053
-0.007 -0.043 0.035
-0.019 -0.031 0.065
-0.021 -0.027 0.071
-0.011 -0.039 0.035
-0.019 -0.029 0.061
-0.017 -0.031 0.041
-0.017 -0.029 0.047
-0.019 -0.033 0.077
-0.017 -0.033 0.079
-0.019 -0.031 0.081
-0.019 -0.025 0.087
-0.017 -0.033 0.081
-0.011 -0.039 0.079
-0.011 -0.039 0.081
-0.019 -0.025 0.085
-0.025 -0.025 0.039
-0.019 -0.029 0.041
-0.021 -0.025 0.043
-0.029 -0.023 0.037
-0.025 -0.015 0.045
-0.021 -0.015 0.047
-0.023 -0.017 0.045
-0.021 -0.027 0.043
-0.021 -0.023 0.057
-0.027 -0.019 0.041
-0.021 -0.021 0.049
-0.021 -0.021 0.049
-0.021 -0.017 0.047
-0.021 -0.025 0.049
-0.017 -0.017 0.063
-0.021 -0.017 0.053
-0.017 -0.013 0.059
-0.017 -0.011 0.055
-0.021 -0.013 0.081
-0.025 -0.015 0.043
-0.023 -0.013 0.043
-0.021 -0.011 0.043
-0.019 -0.011 0.045
-0.019 -0.011 0.049
-0.017 -0.009 0.047
-0.019 -0.011 0.043
-0.017 -0.009 0.045
-0.021 0.001 0.073
-0.021 0.001 0.067
-0.021 0.001 0.071
-0.021 0.001 0.073
-0.021 0.003 0.071
-0.021 -0.023 0.063
-0.021 -0.019 0.053
-0.021 -0.017 0.055
-0.021 -0.027 0.069
-0.019 -0.031 0.065
-0.021 -0.021 0.061
-0.021 -0.021 0.061
-0.019 -0.023 0.065
-0.019 -0.025 0.069
-0.021 -0.017 0.079
-0.019 -0.005 0.085
-0.021 -0.025 0.073
-0.019 -0.019 0.089
-0.017 -0.011 0.091
-0.019 -0.007 0.087
-0.017 -0.007 0.089
-0.017 -0.013 0.057
-0.019 -0.015 0.059
-0.021 -0.001 0.067
-0.021 -0.001 0.071
-0.021 0.001 0.069
-0.015 -0.009 0.053
-0.021 -0.003 0.071
-0.021 -0.005 0.075
-0.021 -0.001 0.077
-0.019 -0.001 0.081
-0.021 0.003 0.067
-0.021 0.001 0.069
-0.021 0.003 0.069
-0.027 0.013 0.095
-0.017 0.005 0.079
-0.021 -0.007 0.075
-0.015 -0.013 0.061
-0.021 -0.007 0.077
-0.021 -0.009 0.079
-0.017 0.003 0.081
-0.019 0.003 0.079
-0.009 -0.051 0.083
-0.007 -0.053 0.085
-0.019 -0.033 0.075
-0.019 -0.033 0.077
-0.011 -0.041 0.081
-0.013 -0.037 0.077
-0.017 -0.033 0.081
-0.019 -0.023 0.089
-0.009 -0.043 0.085
-0.009 -0.041 0.085
-0.009 -0.041 0.083
-0.015 -0.035 0.081
-0.015 -0.029 0.089
-0.013 -0.029 0.091
-0.011 -0.049 0.081
-0.007 -0.055 0.081
-0.007 -0.053 0.085
-0.007 -0.051 0.087
-0.005 -0.055 0.087
-0.005 -0.053 0.087
-0.007 -0.043 0.087
-0.007 -0.043 0.087
-0.007 -0.047 0.087
-0.005 -0.047 0.089
-0.005 -0.045 0.087
-0.013 -0.037 0.081
-0.013 -0.033 0.089
-0.011 -0.031 0.091
-0.021 -0.025 0.071
-0.019 -0.031 0.075
-0.019 -0.031 0.081
-0.021 -0.021 0.081
-0.021 -0.021 0.083
-0.015 -0.017 0.093
-0.017 -0.011 0.091
-0.019 -0.009 0.089
-0.019 -0.011 0.089
-0.013 -0.023 0.093
-0.013 -0.017 0.095
-0.013 -0.015 0.095
-0.013 -0.015 0.095
-0.013 -0.011 0.095
-0.021 -0.011 0.085
-0.021 -0.009 0.081
-0.019 -0.003 0.083
-0.021 -0.009 0.085
-0.019 -0.003 0.085
-0.017 -0.003 0.087
-0.017 -0.005 0.089
-0.017 -0.001 0.087
-0.013 0.003 0.089
-0.017 -0.007 0.089
-0.021 -0.025 0.083
-0.019 -0.025 0.087
-0.019 -0.025 0.087
-0.019 -0.023 0.087
-0.013 -0.027 0.093
-0.015 -0.027 0.089
-0.015 -0.025 0.091
-0.013 -0.023 0.095
-0.005 -0.025 0.089
-0.009 -0.019 0.093
-0.021 -0.007 0.083
-0.021 -0.003 0.081
-0.019 -0.009 0.089
-0.017 -0.011 0.091
-0.007 -0.013 0.091
-0.005 -0.013 0.091
-0.019 0.007 0.111
-0.007 -0.007 0.091
-0.019 0.003 0.111
-0.015 -0.015 0.093
-0.015 -0.013 0.093
-0.019 0.001 0.113
-0.013 -0.001 0.091
-0.013 -0.003 0.093
-0.021 -0.019 0.085
-0.019 -0.029 0.077
-0.019 -0.019 0.089
-0.019 -0.023 0.089
-0.017 -0.019 0.091
-0.017 -0.019 0.091
-0.019 -0.011 0.089
-0.017 -0.027 0.089
-0.021 -0.017 0.085
-0.013 -0.035 0.087
-0.013 -0.029 0.091
-0.013 -0.021 0.095
-0.019 -0.023 0.089
-0.015 -0.019 0.093
-0.013 -0.031 0.091
-0.021 -0.013 0.079
-0.021 -0.013 0.081
-0.019 -0.009 0.087
-0.019 -0.009 0.089
-0.019 -0.001 0.079
-0.019 -0.001 0.083
-0.017 -0.001 0.087
-0.019 -0.011 0.089
-0.015 -0.009 0.091
-0.017 -0.005 0.089
-0.017 -0.005 0.089
-0.013 -0.001 0.089
-0.019 0.001 0.079
-0.019 0.003 0.079
-0.017 0.005 0.079
-0.017 0.005 0.079
-0.017 0.007 0.073
-0.027 0.013 0.095
-0.019 0.005 0.075
-0.019 0.005 0.073
-0.025 0.017 0.101
-0.017 0.003 0.081
-0.017 -0.001 0.087
-0.017 -0.009 0.091
-0.017 -0.009 0.091
-0.013 -0.003 0.093
-0.005 -0.015 0.091
-0.011 -0.011 0.095
-0.013 -0.007 0.093
-0.009 -0.007 0.091
-0.013 -0.009 0.095
-0.007 -0.011 0.091
-0.003 -0.013 0.089
-0.013 -0.013 0.095
-0.011 -0.013 0.095
-0.011 0.005 0.087
-0.019 0.017 0.045
-0.023 0.027 0.037
-0.017 0.021 0.049
-0.017 0.023 0.049
-0.017 0.023 0.045
-0.021 0.031 0.049
-0.021 0.039 0.051
-0.017 0.037 0.055
-0.017 0.039 0.055
-0.015 0.043 0.055
-0.021 0.015 0.047
-0.019 0.011 0.049
-0.019 0.009 0.065
-0.021 0.013 0.051
-0.019 0.007 0.057
-0.019 0.005 0.055
-0.019 0.007 0.055
-0.025 0.015 0.089
-0.023 0.019 0.041
-0.023 0.027 0.037
-0.023 0.021 0.041
-0.019 0.023 0.043
-0.021 0.029 0.043
-0.021 0.019 0.043
-0.013 0.025 0.051
-0.017 0.029 0.051
-0.019 0.003 0.055
-0.019 0.007 0.057
-0.021 0.003 0.065
-0.019 0.005 0.055
-0.019 0.005 0.057
-0.019 0.015 0.053
-0.019 0.003 0.059
-0.021 0.003 0.065
-0.019 0.005 0.059
-0.021 0.003 0.069
-0.017 0.007 0.073
-0.017 0.007 0.075
-0.013 0.015 0.063
-0.023 0.021 0.089
-0.023 0.021 0.101
-0.025 0.021 0.099
-0.023 0.023 0.093
-0.017 0.025 0.049
-0.019 0.029 0.049
-0.015 0.017 0.057
-0.013 0.025 0.051
-0.015 0.031 0.053
-0.015 0.027 0.067
-0.015 0.029 0.067
-0.015 0.031 0.069
-0.013 0.031 0.061
-0.011 0.019 0.057
-0.011 0.017 0.059
-0.017 0.023 0.075
-0.019 0.025 0.083
-0.021 0.025 0.091
-0.021 0.025 0.093
-0.015 0.031 0.065
-0.015 0.029 0.073
-0.017 0.033 0.091
-0.021 0.033 0.037
-0.021 0.033 0.041
-0.021 0.035 0.039
-0.021 0.035 0.045
-0.023 0.047 0.039
-0.021 0.043 0.039
-0.021 0.043 0.039
-0.019 0.043 0.041
-0.019 0.041 0.047
-0.021 0.039 0.051
-0.021 0.035 0.049
-0.019 0.041 0.049
-0.019 0.041 0.051
-0.017 0.043 0.049
-0.013 0.047 0.049
-0.011 0.049 0.053
-0.009 0.049 0.055
-0.017 0.051 0.039
-0.015 0.053 0.037
-0.015 0.051 0.039
-0.011 0.049 0.051
-0.005 0.051 0.051
-0.007 0.051 0.051
-0.019 0.041 0.053
-0.013 0.033 0.057
-0.015 0.045 0.051
-0.013 0.045 0.057
-0.013 0.037 0.059
-0.013 0.043 0.061
-0.011 0.049 0.053
-0.005 0.051 0.057
-0.009 0.049 0.059
-0.001 0.049 0.063
-0.019 0.009 0.067
-0.015 0.015 0.097
-0.023 0.019 0.087
-0.023 0.021 0.101
-0.023 0.017 0.103
-0.015 0.013 0.095
-0.007 0.007 0.089
-0.017 0.009 0.107
-0.005 0.003 0.083
-0.015 0.013 0.095
-0.023 0.021 0.101
-0.021 0.027 0.089
-0.017 0.023 0.079
-0.017 0.027 0.077
-0.017 0.033 0.095
-0.023 0.023 0.095
-0.023 0.023 0.097
-0.023 0.023 0.101
-0.021 0.029 0.105
-0.023 0.025 0.107
-0.023 0.025 0.107
-0.025 0.019 0.099
-0.025 0.015 0.097
-0.015 0.001 0.087
-0.005 0.003 0.083
-0.017 0.013 0.109
-0.025 0.019 0.101
-0.025 0.017 0.103
-0.023 0.019 0.103
-0.021 0.023 0.107
-0.015 0.017 0.109
-0.015 0.015 0.109
-0.017 0.015 0.109
-0.025 0.017 0.089
-0.017 0.031 0.089
-0.019 0.029 0.089
-0.015 0.035 0.103
-0.013 0.023 0.113
-0.011 0.039 0.071
-0.011 0.043 0.069
-0.011 0.043 0.069
-0.009 0.045 0.067
-0.003 0.047 0.067
-0.015 0.037 0.097
-0.017 0.035 0.095
-0.019 0.033 0.101
-0.017 0.037 0.095
-0.015 0.041 0.093
-0.017 0.035 0.093
-0.013 0.041 0.099
-0.015 0.037 0.103
-0.013 0.041 0.097
-0.011 0.043 0.103
-0.013 0.043 0.093
-0.011 0.043 0.095
-0.011 0.045 0.095
-0.017 0.033 0.097
-0.013 0.041 0.103
-0.011 0.043 0.103
-0.007 0.049 0.085
-0.005 0.055 0.083
-0.005 0.055 0.095
-0.007 0.055 0.097
-0.019 0.005 0.113
-0.017 0.007 0.113
-0.017 0.015 0.109
-0.015 0.011 0.111
-0.015 0.017 0.109
-0.007 0.009 0.103
-0.013 0.019 0.115
-0.015 0.013 0.111
-0.015 0.009 0.111
-0.015 0.013 0.111
-0.023 0.017 0.103
-0.019 0.029 0.105
-0.015 0.017 0.105
-0.015 0.021 0.107
-0.009 0.025 0.111
-0.013 0.021 0.113
-0.015 0.017 0.107
-0.015 0.017 0.109
-0.003 0.019 0.109
-0.013 0.025 0.111
-0.013 0.021 0.115
-0.013 0.023 0.115
-0.015 0.039 0.099
-0.013 0.033 0.105
-0.009 0.039 0.105
-0.011 0.043 0.103
-0.013 0.035 0.105
-0.007 0.037 0.105
-0.009 0.049 0.097
-0.009 0.051 0.097
-0.005 0.055 0.101
-0.005 0.057 0.103
-0.003 0.059 0.103
-0.001 0.057 0.105
-0.021 0.025 0.087
-0.013 0.039 0.065
-0.011 0.039 0.073
-0.013 0.041 0.085
-0.011 0.017 0.059
-0.013 0.015 0.063
-0.021 0.029 0.097
-0.025 0.021 0.099
-0.021 0.025 0.095
-0.023 0.025 0.101
-0.021 0.029 0.099
-0.015 0.031 0.065
-0.017 0.031 0.089
-0.015 0.035 0.085
-0.017 0.033 0.089
-0.015 0.037 0.099
-0.015 0.039 0.097
-0.015 0.039 0.097
-0.013 0.041 0.099
-0.021 0.027 0.097
-0.025 0.017 0.103
-0.023 0.023 0.101
-0.019 0.029 0.093
-0.017 0.031 0.089
-0.017 0.033 0.097
-0.017 0.035 0.099
-0.017 0.035 0.095
-0.017 0.035 0.097
-0.015 0.037 0.097
-0.013 0.041 0.095
-0.011 0.043 0.069
-0.007 0.045 0.069
-0.007 0.045 0.069
-0.011 0.047 0.059
-0.011 0.047 0.059
-0.009 0.045 0.065
-0.009 0.049 0.057
-0.007 0.047 0.065
-0.009 0.045 0.085
-0.005 0.045 0.069
-0.003 0.047 0.067
-0.013 0.045 0.093
-0.003 0.045 0.069
-0.007 0.047 0.083
-0.007 0.047 0.083
-0.011 0.049 0.095
-0.009 0.047 0.097
-0.011 0.047 0.095
-0.007 0.051 0.053
-0.003 0.051 0.057
-0.013 0.043 0.093
-0.009 0.045 0.085
-0.013 0.043 0.093
-0.009 0.045 0.087
-0.003 0.049 0.063
-0.007 0.047 0.083
-0.013 0.041 0.095
-0.011 0.043 0.095
-0.001 0.047 0.065
-0.007 0.049 0.083
0.001 0.049 0.059
-0.023 0.015 0.103
-0.015 0.037 0.099
-0.015 0.039 0.101
-0.017 0.035 0.099
-0.017 0.033 0.103
-0.011 0.025 0.113
-0.009 0.027 0.107
-0.007 0.033 0.105
-0.005 0.033 0.105
-0.011 0.045 0.095
-0.011 0.043 0.095
-0.007 0.047 0.087
-0.013 0.045 0.093
-0.007 0.043 0.103
-0.003 0.043 0.103
-0.005 0.045 0.101
-0.009 0.047 0.097
-0.003 0.045 0.103
-0.003 0.039 0.105
-0.003 0.051 0.105
-0.005 0.043 0.103
-0.003 0.053 0.103
-0.005 0.057 0.103
-0.001 0.055 0.105
-0.001 0.055 0.105
-0.001 0.059 0.103
-0.001 0.061 0.085
0.001 0.059 0.089
0.003 0.059 0.093
0.007 0.057 0.093
-0.005 0.053 0.101
-0.003 0.055 0.103
-0.003 0.057 0.103
0.003 0.061 0.091
-0.003 0.029 0.105
0.007 0.039 0.099
-0.001 0.035 0.105
-0.001 0.041 0.105
0.001 0.037 0.105
-0.001 0.051 0.107
-0.001 0.053 0.105
0.003 0.049 0.107
-0.001 0.055 0.105
0.003 0.051 0.107
0.003 0.051 0.107
0.001 0.053 0.105
