0.011 -0.023 0.039
0.015 -0.019 0.039
0.013 -0.019 0.037
0.013 -0.015 0.037
0.013 -0.005 0.039
0.013 -0.011 0.035
0.015 -0.007 0.035
0.015 -0.019 0.041
0.013 -0.017 0.045
0.017 -0.025 0.049
0.007 -0.043 0.061
0.011 -0.021 0.063
0.005 -0.009 0.045
-0.001 -0.009 0.047
-0.005 -0.009 0.049
0.013 -0.015 0.039
0.011 -0.009 0.037
0.013 -0.019 0.049
0.011 -0.017 0.051
-0.003 -0.009 0.043
-0.007 -0.007 0.049
0.007 -0.005 0.039
-0.007 -0.007 0.047
0.009 -0.017 0.053
0.011 -0.019 0.055
-0.001 -0.019 0.055
-0.003 -0.017 0.061
-0.013 -0.011 0.057
0.001 0.005 0.065
0.005 -0.011 0.049
-0.007 -0.013 0.059
-0.009 -0.013 0.061
-0.003 -0.015 0.059
0.001 0.007 0.061
0.001 0.003 0.065
0.001 -0.001 0.065
0.001 -0.001 0.063
0.001 -0.043 0.067
-0.001 -0.031 0.065
-0.005 -0.039 0.071
-0.005 -0.045 0.075
-0.001 -0.031 0.075
-0.003 -0.033 0.075
-0.003 -0.031 0.081
-0.003 -0.033 0.079
-0.003 -0.031 0.079
-0.003 -0.045 0.085
-0.003 -0.045 0.085
-0.003 -0.031 0.083
0.003 -0.021 0.069
-0.003 -0.015 0.077
-0.001 -0.021 0.065
-0.005 -0.017 0.065
-0.001 -0.027 0.075
-0.003 0.007 0.077
-0.001 -0.007 0.073
-0.007 -0.015 0.065
-0.001 -0.003 0.069
-0.003 -0.013 0.077
-0.001 -0.003 0.075
-0.001 -0.007 0.077
-0.003 -0.015 0.089
-0.003 -0.011 0.089
-0.005 -0.021 0.091
-0.005 -0.029 0.087
-0.003 -0.023 0.087
-0.001 -0.021 0.081
-0.001 -0.019 0.085
-0.009 -0.019 0.093
-0.009 -0.019 0.093
-0.003 -0.021 0.089
-0.003 -0.017 0.089
-0.009 -0.001 0.089
-0.009 -0.001 0.089
-0.001 -0.013 0.081
-0.003 -0.003 0.085
0.015 -0.041 0.039
0.015 -0.039 0.037
0.015 -0.039 0.043
0.015 -0.039 0.047
0.011 -0.037 0.051
0.015 -0.029 0.057
0.007 -0.043 0.061
0.013 -0.029 0.035
0.013 -0.027 0.039
0.013 -0.015 0.035
0.017 -0.025 0.047
0.017 -0.021 0.049
0.015 -0.005 0.037
0.011 -0.011 0.037
0.013 -0.007 0.039
0.013 -0.005 0.039
0.013 -0.013 0.033
0.015 -0.009 0.035
0.013 -0.003 0.037
0.013 -0.001 0.033
0.015 -0.019 0.049
0.011 -0.021 0.063
0.015 -0.021 0.057
0.013 -0.023 0.063
0.005 -0.013 0.051
0.009 -0.023 0.067
0.007 -0.021 0.069
0.009 -0.021 0.065
0.019 0.025 0.039
0.023 0.037 0.043
0.019 0.039 0.041
0.021 0.033 0.041
0.015 0.027 0.047
0.017 0.027 0.047
0.013 0.025 0.049
0.009 0.015 0.045
0.007 0.007 0.047
0.001 0.003 0.049
0.013 0.031 0.049
0.013 0.037 0.045
0.011 0.041 0.045
0.011 0.035 0.051
0.019 0.025 0.039
0.023 0.037 0.041
0.025 0.037 0.041
0.021 0.037 0.039
0.003 0.011 0.055
0.003 0.013 0.055
0.003 0.013 0.057
-0.001 0.015 0.059
-0.003 0.017 0.059
-0.001 0.015 0.059
0.005 0.027 0.057
0.009 0.031 0.057
-0.003 0.019 0.057
0.001 0.027 0.063
0.007 0.033 0.061
0.005 0.035 0.067
0.007 0.047 0.047
-0.001 0.051 0.045
0.005 0.049 0.053
0.001 0.051 0.043
0.007 0.045 0.037
0.005 0.047 0.039
0.003 0.047 0.037
-0.001 0.049 0.037
0.005 0.049 0.051
-0.013 0.051 0.037
-0.015 0.051 0.039
0.001 0.049 0.039
0.001 0.051 0.043
0.003 0.049 0.041
0.003 0.051 0.045
-0.001 0.051 0.053
-0.001 0.049 0.061
-0.003 0.009 0.071
-0.005 0.009 0.073
-0.001 0.007 0.071
-0.005 0.009 0.075
-0.001 0.001 0.075
-0.001 0.005 0.073
-0.001 0.001 0.077
-0.003 0.017 0.079
0.001 0.027 0.077
-0.001 0.031 0.079
-0.003 0.019 0.079
-0.001 0.023 0.079
-0.001 0.033 0.077
0.001 0.027 0.079
-0.009 0.003 0.085
-0.005 0.007 0.087
-0.003 0.017 0.083
0.001 0.021 0.087
-0.001 0.019 0.093
0.003 0.027 0.091
0.003 0.025 0.091
0.003 0.031 0.091
0.003 0.025 0.085
0.007 0.037 0.085
-0.001 0.021 0.091
-0.001 0.043 0.071
-0.001 0.045 0.069
-0.003 0.039 0.075
0.009 0.041 0.083
0.007 0.039 0.087
0.007 0.035 0.087
0.007 0.037 0.087
0.009 0.045 0.085
0.009 0.043 0.095
0.003 0.035 0.091
0.005 0.039 0.089
0.007 0.047 0.095
-0.003 0.053 0.095
-0.001 0.017 0.099
-0.003 0.011 0.099
-0.005 0.011 0.103
-0.001 0.015 0.101
-0.001 0.015 0.101
0.003 0.029 0.099
0.001 0.031 0.105
0.005 0.035 0.099
0.009 0.041 0.099
-0.005 0.029 0.105
0.001 0.025 0.101
0.001 0.023 0.103
-0.001 0.029 0.105
-0.001 0.017 0.097
0.001 0.023 0.105
0.001 0.021 0.105
0.001 0.031 0.105
0.009 0.045 0.101
0.001 0.039 0.105
-0.001 0.041 0.103
0.009 0.049 0.101
0.007 0.049 0.103
0.009 0.051 0.099
0.009 0.051 0.101
0.001 0.039 0.105
-0.001 0.051 0.097
-0.001 0.053 0.097
-0.001 0.057 0.099
0.001 0.057 0.105
0.021 0.029 0.037
0.021 0.033 0.033
0.021 0.037 0.035
0.021 0.037 0.033
0.015 0.007 0.033
0.015 0.009 0.033
0.015 0.013 0.037
0.009 0.015 0.045
0.009 0.017 0.047
0.011 0.009 0.043
0.015 0.017 0.041
0.009 0.015 0.045
0.015 0.019 0.035
0.019 0.025 0.039
0.021 0.031 0.037
0.011 0.017 0.045
0.011 0.019 0.049
0.009 0.027 0.055
0.007 0.029 0.057
0.005 0.031 0.063
0.005 0.031 0.063
0.019 0.039 0.039
0.005 0.047 0.039
0.011 0.041 0.041
0.023 0.033 0.037
0.023 0.037 0.041
0.005 0.049 0.041
0.005 0.049 0.047
0.011 0.033 0.051
0.011 0.037 0.051
0.011 0.033 0.055
0.009 0.043 0.053
0.003 0.047 0.061
0.005 0.049 0.053
0.003 0.027 0.067
0.003 0.027 0.071
0.003 0.031 0.073
0.001 0.025 0.077
0.001 0.025 0.079
0.003 0.027 0.089
0.007 0.037 0.085
0.009 0.045 0.085
0.009 0.047 0.087
0.007 0.037 0.095
0.013 0.051 0.083
0.013 0.055 0.085
0.009 0.053 0.091
0.009 0.053 0.091
0.007 0.061 0.093
0.007 0.063 0.093
0.003 0.029 0.101
0.009 0.045 0.099
0.009 0.047 0.097
0.009 0.049 0.097
0.009 0.049 0.097
0.009 0.051 0.103
0.009 0.053 0.103
0.009 0.051 0.103
0.001 0.057 0.103
-0.003 -0.043 0.035
-0.009 -0.037 0.039
-0.001 -0.045 0.045
-0.013 -0.033 0.041
-0.005 -0.035 0.041
-0.001 -0.049 0.055
-0.007 -0.045 0.059
-0.007 -0.045 0.063
-0.013 -0.033 0.059
-0.015 -0.035 0.063
-0.011 -0.035 0.061
-0.021 -0.025 0.045
-0.019 -0.027 0.045
-0.023 -0.021 0.043
-0.021 -0.023 0.047
-0.009 -0.041 0.035
-0.017 -0.031 0.039
-0.007 -0.029 0.045
-0.023 -0.019 0.045
-0.021 -0.025 0.047
-0.021 -0.025 0.049
-0.019 -0.027 0.043
-0.009 -0.033 0.043
-0.013 -0.031 0.045
-0.019 -0.025 0.053
-0.019 -0.027 0.065
-0.011 -0.031 0.055
-0.003 -0.027 0.049
-0.007 -0.031 0.055
-0.015 -0.031 0.057
-0.007 -0.045 0.061
-0.007 -0.035 0.061
-0.009 -0.045 0.065
-0.013 -0.029 0.053
-0.011 -0.031 0.057
-0.017 -0.029 0.059
-0.015 -0.035 0.065
-0.013 -0.033 0.061
-0.007 -0.055 0.075
-0.017 -0.035 0.077
-0.009 -0.045 0.069
-0.007 -0.045 0.067
-0.003 -0.045 0.069
-0.007 -0.051 0.075
-0.011 -0.047 0.077
-0.009 -0.051 0.083
-0.005 -0.053 0.083
-0.007 -0.051 0.087
-0.011 -0.045 0.081
-0.019 -0.031 0.071
-0.019 -0.025 0.067
-0.019 -0.033 0.067
-0.017 -0.035 0.073
-0.007 -0.045 0.071
-0.021 -0.025 0.075
-0.019 -0.011 0.075
-0.021 -0.011 0.077
-0.021 -0.009 0.077
-0.013 -0.037 0.073
-0.015 -0.035 0.075
-0.011 -0.049 0.081
-0.011 -0.045 0.079
-0.003 -0.027 0.087
-0.007 -0.051 0.085
-0.005 -0.021 0.091
-0.021 -0.021 0.083
-0.021 -0.021 0.083
-0.021 -0.021 0.087
-0.009 -0.047 0.085
-0.011 -0.035 0.085
-0.009 -0.041 0.085
-0.013 -0.031 0.091
-0.015 -0.021 0.093
-0.015 -0.025 0.091
-0.013 -0.031 0.091
0.007 -0.043 0.035
0.005 -0.043 0.035
-0.001 -0.043 0.035
-0.001 -0.043 0.037
0.001 -0.045 0.041
0.009 -0.045 0.037
0.009 -0.047 0.041
0.011 -0.045 0.039
0.007 -0.049 0.047
0.009 -0.049 0.049
-0.001 -0.047 0.051
-0.001 -0.049 0.055
0.003 -0.043 0.037
0.009 -0.047 0.041
0.005 -0.047 0.041
0.001 -0.047 0.047
0.003 -0.049 0.051
-0.001 -0.043 0.039
-0.003 -0.043 0.041
0.003 -0.047 0.043
-0.003 -0.043 0.041
0.001 -0.045 0.041
0.003 -0.045 0.041
0.001 -0.049 0.055
0.005 -0.049 0.059
0.003 -0.049 0.057
0.001 -0.047 0.063
0.007 -0.023 0.069
-0.027 -0.015 0.039
-0.027 -0.013 0.039
-0.019 -0.029 0.041
-0.019 -0.029 0.041
-0.013 -0.031 0.043
-0.019 -0.027 0.047
-0.013 -0.027 0.049
-0.009 -0.029 0.051
-0.009 -0.029 0.053
-0.023 0.013 0.037
-0.023 0.013 0.039
-0.023 0.017 0.043
-0.023 -0.027 0.041
-0.019 -0.029 0.041
-0.021 -0.015 0.053
-0.019 0.003 0.053
-0.019 -0.025 0.053
-0.019 -0.021 0.067
-0.015 -0.035 0.065
-0.017 -0.035 0.067
-0.019 0.003 0.053
-0.021 -0.025 0.059
-0.019 0.003 0.053
-0.021 -0.025 0.061
-0.017 -0.033 0.065
-0.019 -0.031 0.065
-0.017 -0.035 0.067
-0.023 -0.019 0.045
-0.019 0.007 0.047
-0.023 0.031 0.037
-0.021 0.025 0.043
-0.021 0.011 0.045
-0.019 -0.023 0.053
-0.021 0.031 0.049
-0.019 -0.003 0.063
-0.021 0.001 0.065
-0.021 -0.027 0.069
-0.021 -0.003 0.071
-0.013 -0.037 0.071
-0.019 -0.029 0.081
-0.017 -0.033 0.081
-0.019 -0.029 0.083
-0.021 -0.027 0.071
-0.021 -0.005 0.071
-0.019 -0.005 0.069
-0.021 -0.017 0.079
-0.025 0.015 0.093
-0.017 -0.027 0.087
-0.019 -0.027 0.085
-0.015 -0.033 0.085
-0.015 0.011 0.089
-0.015 0.013 0.095
-0.013 -0.015 0.095
-0.021 -0.007 0.085
-0.021 0.015 0.089
-0.025 0.015 0.093
-0.025 0.013 0.095
-0.013 -0.033 0.089
-0.017 0.017 0.085
-0.021 -0.019 0.079
-0.019 -0.031 0.081
-0.017 -0.033 0.081
-0.019 -0.025 0.087
-0.019 -0.027 0.085
-0.015 0.013 0.095
-0.015 -0.017 0.093
-0.011 0.015 0.097
-0.007 0.007 0.097
-0.017 -0.027 0.087
-0.023 0.013 0.097
-0.007 0.007 0.097
-0.007 0.005 0.101
-0.013 0.009 0.109
-0.019 0.023 0.103
-0.015 0.017 0.103
-0.005 0.007 0.103
-0.007 0.007 0.103
-0.015 0.015 0.105
-0.011 0.015 0.105
-0.011 0.019 0.115
-0.009 0.017 0.099
-0.007 0.015 0.101
-0.005 0.021 0.105
-0.011 -0.033 0.041
-0.011 -0.033 0.043
-0.005 -0.039 0.043
-0.001 -0.045 0.043
-0.003 -0.027 0.049
-0.001 -0.023 0.053
-0.001 -0.029 0.047
-0.005 -0.031 0.053
-0.003 -0.047 0.053
-0.013 -0.031 0.043
-0.005 -0.045 0.057
-0.003 -0.047 0.053
-0.007 -0.033 0.057
-0.009 -0.035 0.059
-0.009 -0.035 0.061
-0.013 -0.035 0.063
-0.009 -0.043 0.063
-0.007 -0.045 0.063
-0.011 -0.031 0.045
-0.005 -0.029 0.047
-0.013 -0.027 0.051
-0.003 -0.027 0.055
-0.001 -0.041 0.049
-0.003 -0.047 0.055
-0.009 -0.035 0.059
-0.017 -0.033 0.065
-0.013 -0.043 0.075
-0.013 -0.037 0.077
-0.013 -0.035 0.083
-0.013 -0.027 0.093
-0.003 0.009 0.095
0.005 0.031 0.095
-0.015 -0.035 0.075
-0.011 -0.031 0.091
-0.013 -0.035 0.087
-0.009 -0.033 0.087
-0.009 -0.031 0.089
-0.013 -0.023 0.095
-0.001 0.015 0.097
-0.017 -0.029 0.087
-0.011 -0.031 0.091
-0.013 -0.027 0.091
-0.013 -0.023 0.093
-0.013 -0.025 0.093
-0.001 0.017 0.099
-0.003 0.013 0.103
-0.001 0.015 0.101
-0.005 0.007 0.103
0.003 0.027 0.099
