0.023 -0.049 0.035
0.023 -0.049 0.035
0.023 -0.047 0.035
-0.001 -0.049 0.039
-0.001 -0.049 0.041
-0.001 -0.051 0.045
-0.021 -0.039 0.037
-0.017 -0.039 0.041
-0.003 -0.047 0.037
0.003 -0.047 0.035
-0.003 -0.047 0.037
-0.003 -0.047 0.037
-0.001 -0.049 0.039
-0.015 -0.039 0.037
0.001 -0.049 0.039
-0.003 -0.049 0.041
-0.001 -0.051 0.045
0.001 -0.049 0.041
0.001 -0.051 0.045
0.003 -0.051 0.045
0.005 -0.051 0.047
-0.003 -0.051 0.051
-0.003 -0.049 0.057
0.003 -0.051 0.053
-0.003 -0.049 0.059
0.001 -0.049 0.063
0.003 -0.049 0.037
0.005 -0.047 0.037
0.003 -0.049 0.039
0.003 -0.051 0.047
0.007 -0.051 0.047
0.007 -0.049 0.043
0.005 -0.049 0.039
0.011 -0.049 0.039
0.011 -0.047 0.041
0.011 -0.051 0.035
0.017 -0.051 0.037
0.017 -0.051 0.037
0.017 -0.051 0.039
0.019 -0.049 0.039
0.017 -0.051 0.039
0.021 -0.051 0.037
0.021 -0.049 0.039
0.019 -0.037 0.035
0.017 -0.041 0.045
0.017 -0.041 0.045
0.019 -0.037 0.043
0.021 -0.035 0.047
0.009 -0.049 0.055
0.011 -0.047 0.055
0.017 -0.043 0.051
0.015 -0.043 0.055
0.017 -0.043 0.053
0.017 -0.039 0.055
0.011 -0.045 0.061
0.013 -0.043 0.061
0.019 -0.041 0.051
0.019 -0.037 0.053
0.013 -0.033 0.057
0.011 -0.029 0.057
0.009 -0.019 0.061
0.003 -0.047 0.065
0.005 -0.045 0.069
-0.009 -0.059 0.087
0.003 -0.061 0.083
-0.001 -0.059 0.089
-0.003 -0.059 0.093
-0.003 -0.059 0.091
0.003 -0.055 0.089
0.003 -0.057 0.085
0.005 -0.051 0.089
0.007 -0.047 0.087
0.009 -0.045 0.087
0.011 -0.045 0.091
0.007 -0.043 0.071
0.011 -0.041 0.069
0.009 -0.041 0.073
0.009 -0.037 0.077
0.011 -0.043 0.091
0.013 -0.045 0.093
-0.005 -0.053 0.099
-0.009 -0.053 0.101
-0.007 -0.051 0.097
0.001 -0.055 0.097
-0.005 -0.055 0.103
0.001 -0.059 0.103
-0.001 -0.057 0.105
0.007 -0.055 0.097
0.007 -0.055 0.097
0.009 -0.053 0.097
0.007 -0.049 0.099
0.007 -0.043 0.103
0.011 -0.045 0.097
0.011 -0.045 0.097
0.015 -0.039 0.095
0.013 -0.039 0.103
0.011 -0.033 0.031
0.013 -0.029 0.031
0.019 -0.033 0.033
0.017 -0.027 0.031
0.015 -0.053 0.035
0.005 -0.049 0.041
0.003 -0.051 0.045
0.007 -0.051 0.047
0.021 -0.051 0.035
0.017 -0.053 0.035
0.019 -0.051 0.035
0.021 -0.051 0.035
0.017 -0.051 0.039
0.019 -0.051 0.035
0.023 -0.049 0.035
0.017 -0.049 0.041
0.013 -0.045 0.043
0.015 -0.041 0.043
0.023 -0.047 0.035
0.021 -0.049 0.039
0.023 -0.047 0.037
0.021 -0.035 0.045
0.003 -0.049 0.063
0.013 -0.045 0.055
0.009 -0.047 0.063
0.013 -0.043 0.061
0.013 -0.041 0.061
0.013 -0.035 0.063
0.019 -0.041 0.049
0.019 -0.037 0.053
0.023 -0.045 0.035
0.019 -0.037 0.035
0.019 -0.033 0.033
0.023 -0.029 0.035
0.021 -0.029 0.039
0.023 -0.025 0.033
0.025 -0.023 0.033
0.025 -0.023 0.033
0.023 -0.025 0.039
0.023 -0.021 0.039
0.021 -0.029 0.041
0.021 -0.027 0.043
0.021 -0.031 0.045
0.021 -0.019 0.043
0.023 -0.031 0.035
0.023 -0.031 0.037
0.023 -0.027 0.035
0.023 -0.029 0.037
0.023 -0.025 0.035
0.023 -0.031 0.037
0.021 -0.033 0.041
0.023 -0.023 0.039
0.023 -0.021 0.037
0.021 -0.015 0.045
0.025 -0.023 0.033
0.025 -0.021 0.035
0.023 -0.023 0.035
0.023 -0.017 0.043
0.021 -0.013 0.045
0.021 -0.013 0.047
0.017 -0.041 0.055
0.021 -0.039 0.051
0.021 -0.035 0.049
0.019 -0.037 0.053
0.015 -0.023 0.051
0.015 -0.041 0.057
0.017 -0.023 0.049
0.017 -0.019 0.053
0.017 -0.019 0.049
0.009 -0.019 0.061
0.013 -0.015 0.061
0.013 -0.015 0.061
0.015 -0.013 0.061
0.021 -0.015 0.051
0.019 -0.009 0.051
0.019 -0.007 0.051
0.019 -0.007 0.053
0.019 -0.005 0.053
0.019 -0.011 0.059
0.019 -0.011 0.061
0.019 -0.003 0.057
0.019 -0.005 0.059
0.003 -0.045 0.069
0.007 -0.045 0.069
0.013 -0.041 0.065
0.011 -0.043 0.069
0.013 -0.041 0.067
0.007 -0.039 0.075
0.007 -0.037 0.077
0.009 -0.039 0.075
0.009 -0.035 0.079
0.003 -0.061 0.083
0.005 -0.051 0.081
0.009 -0.045 0.083
0.009 -0.045 0.085
0.015 -0.035 0.083
0.011 -0.041 0.087
0.013 -0.039 0.087
0.005 -0.043 0.089
0.007 -0.041 0.089
0.009 -0.051 0.095
0.011 -0.047 0.093
0.013 -0.045 0.093
0.009 -0.045 0.091
0.011 -0.047 0.093
0.013 -0.039 0.089
0.013 -0.039 0.089
0.015 -0.037 0.089
0.013 -0.045 0.093
0.015 -0.037 0.093
0.015 -0.029 0.071
0.015 -0.033 0.069
0.015 -0.029 0.067
0.003 -0.033 0.079
0.015 -0.029 0.073
0.013 -0.037 0.073
0.015 -0.031 0.079
0.015 -0.025 0.073
0.017 -0.027 0.075
0.017 -0.021 0.079
0.013 -0.023 0.067
0.015 -0.025 0.069
0.015 -0.013 0.065
0.015 -0.019 0.073
0.017 -0.021 0.075
0.015 -0.007 0.077
0.017 -0.007 0.075
0.019 -0.003 0.077
0.015 -0.037 0.085
0.013 -0.039 0.081
0.015 -0.037 0.085
0.019 -0.023 0.083
0.019 -0.027 0.087
0.023 -0.021 0.089
0.023 -0.021 0.091
0.021 -0.025 0.095
0.023 -0.023 0.095
0.017 -0.031 0.083
0.019 -0.027 0.085
0.019 -0.025 0.085
0.013 -0.007 0.083
0.017 -0.031 0.087
0.017 -0.033 0.089
0.017 -0.033 0.091
0.021 -0.023 0.089
0.023 -0.023 0.091
0.025 -0.017 0.089
0.003 -0.059 0.099
0.005 -0.059 0.101
0.003 -0.059 0.103
0.005 -0.057 0.097
0.007 -0.055 0.097
0.003 -0.051 0.105
0.009 -0.049 0.097
0.011 -0.043 0.101
0.013 -0.039 0.103
0.015 -0.035 0.101
0.005 -0.041 0.105
0.011 -0.043 0.103
0.017 -0.035 0.099
0.015 -0.039 0.101
0.015 -0.035 0.101
0.021 -0.029 0.097
0.019 -0.031 0.099
0.013 -0.041 0.103
0.013 -0.027 0.107
0.011 -0.025 0.111
0.017 -0.033 0.103
0.013 -0.033 0.105
0.011 -0.027 0.107
0.013 -0.029 0.105
0.019 -0.031 0.103
0.021 -0.031 0.103
0.021 -0.029 0.103
0.013 -0.025 0.111
0.023 -0.027 0.107
0.019 -0.033 0.101
0.019 -0.031 0.103
0.023 -0.025 0.097
0.023 -0.025 0.097
0.021 -0.027 0.099
0.023 -0.025 0.101
0.025 -0.021 0.097
0.025 -0.019 0.097
0.019 -0.029 0.105
0.017 -0.035 0.095
0.019 -0.029 0.095
0.019 -0.031 0.099
0.021 -0.029 0.099
0.025 -0.017 0.103
0.023 -0.045 0.037
0.021 -0.041 0.037
0.021 -0.029 0.039
0.021 -0.027 0.039
0.023 -0.021 0.041
0.017 -0.019 0.045
0.019 -0.017 0.049
0.019 -0.017 0.049
0.021 -0.029 0.047
0.023 -0.029 0.037
0.021 -0.027 0.039
0.023 -0.025 0.039
0.021 -0.027 0.043
0.021 -0.025 0.043
0.019 -0.019 0.043
0.023 -0.023 0.037
0.011 0.009 0.035
0.021 -0.027 0.045
0.021 -0.019 0.043
0.019 -0.019 0.043
0.023 -0.017 0.043
0.017 -0.023 0.047
0.021 -0.015 0.047
0.021 -0.011 0.047
0.019 -0.015 0.053
0.017 -0.017 0.055
0.017 -0.017 0.053
0.017 -0.015 0.057
0.021 -0.015 0.051
0.021 -0.013 0.051
0.021 -0.013 0.053
0.021 -0.013 0.053
0.019 -0.013 0.055
0.017 -0.013 0.059
0.019 -0.011 0.061
0.019 -0.011 0.059
0.019 -0.009 0.063
0.023 -0.015 0.039
0.013 0.011 0.035
0.013 0.011 0.035
0.013 0.007 0.041
0.015 0.009 0.039
0.015 0.009 0.041
0.017 0.015 0.037
0.017 0.013 0.037
0.019 0.013 0.039
0.019 0.011 0.041
0.017 -0.003 0.049
0.011 0.007 0.049
0.015 0.009 0.049
0.011 0.007 0.043
0.013 0.007 0.043
0.017 0.009 0.043
0.017 0.009 0.049
0.019 0.013 0.049
0.021 0.015 0.049
0.019 -0.003 0.053
0.019 0.011 0.051
0.019 0.011 0.053
0.015 0.011 0.055
0.019 0.011 0.053
0.019 0.011 0.053
0.015 0.015 0.063
0.017 0.017 0.063
0.021 0.017 0.057
0.021 0.017 0.057
0.019 0.019 0.061
0.011 -0.015 0.069
0.015 0.017 0.067
0.015 0.015 0.033
0.013 0.019 0.031
0.011 0.031 0.031
0.013 0.029 0.033
0.023 -0.015 0.037
0.011 0.011 0.033
0.013 0.011 0.033
0.013 0.011 0.033
0.017 0.013 0.035
0.009 0.009 0.037
0.019 -0.017 0.047
0.021 -0.011 0.047
0.021 -0.015 0.045
0.023 0.011 0.041
0.007 0.011 0.033
0.017 0.019 0.035
0.015 0.009 0.041
0.017 0.009 0.045
0.025 0.015 0.045
0.025 0.013 0.039
0.027 0.013 0.039
0.025 0.013 0.039
0.027 0.015 0.039
0.027 0.013 0.039
0.027 0.019 0.039
0.027 0.015 0.039
0.027 0.015 0.041
0.027 0.017 0.041
0.025 0.015 0.043
0.025 0.017 0.043
0.019 -0.009 0.049
0.019 -0.007 0.055
0.019 -0.001 0.055
0.015 0.011 0.055
0.015 -0.013 0.061
0.019 -0.007 0.057
0.019 -0.005 0.059
0.019 -0.007 0.057
0.019 -0.007 0.059
0.019 -0.007 0.057
0.019 -0.003 0.059
0.019 -0.001 0.061
0.015 0.009 0.051
0.019 -0.009 0.053
0.019 0.011 0.053
0.021 0.017 0.051
0.019 -0.005 0.057
0.019 -0.005 0.059
0.019 -0.003 0.063
0.021 0.019 0.057
0.025 0.013 0.039
0.021 0.013 0.045
0.023 0.013 0.045
0.027 0.017 0.037
0.021 0.015 0.049
0.019 0.015 0.057
0.017 0.017 0.063
0.017 0.017 0.063
0.021 0.017 0.057
0.021 0.023 0.063
0.017 -0.009 0.069
0.017 -0.007 0.071
0.019 -0.007 0.067
0.019 -0.005 0.071
0.015 -0.007 0.075
0.017 -0.007 0.073
0.019 -0.005 0.073
0.021 0.003 0.073
0.021 -0.003 0.065
0.021 -0.001 0.069
0.021 0.003 0.071
0.021 0.003 0.075
0.021 0.009 0.075
0.021 0.007 0.077
0.021 0.009 0.079
0.021 -0.003 0.067
0.021 -0.001 0.071
0.021 -0.003 0.069
0.013 0.017 0.067
0.021 -0.001 0.073
0.019 -0.003 0.077
0.021 0.001 0.073
0.019 -0.001 0.077
0.019 0.001 0.079
0.019 0.021 0.065
0.021 0.027 0.069
0.019 0.019 0.075
0.017 0.019 0.073
0.019 0.021 0.077
0.021 0.019 0.079
0.021 0.025 0.075
0.015 -0.013 0.081
0.015 -0.013 0.081
0.015 -0.001 0.087
0.015 -0.003 0.083
0.025 -0.017 0.089
0.017 0.009 0.091
0.017 0.009 0.091
0.011 0.009 0.095
0.015 0.013 0.093
0.019 0.005 0.087
0.021 0.007 0.081
0.021 0.007 0.083
0.021 0.007 0.085
0.021 0.011 0.087
0.017 0.007 0.089
0.021 0.005 0.083
0.021 0.007 0.085
0.017 0.001 0.087
0.017 0.001 0.087
0.019 0.015 0.089
0.013 0.015 0.095
0.013 0.017 0.095
0.019 0.009 0.087
0.019 0.013 0.089
0.017 0.017 0.091
0.021 0.015 0.087
0.015 0.021 0.093
0.021 0.017 0.087
0.021 0.025 0.081
0.017 0.021 0.091
0.017 0.017 0.065
0.019 0.019 0.065
0.019 0.019 0.065
0.019 0.021 0.067
0.019 0.025 0.065
0.019 0.021 0.067
0.021 0.025 0.071
0.021 0.027 0.069
0.019 0.021 0.067
0.019 0.025 0.065
0.019 0.023 0.069
0.019 0.025 0.065
0.019 0.029 0.065
0.021 0.027 0.069
0.019 0.009 0.073
0.021 0.011 0.079
0.019 0.023 0.075
0.019 0.021 0.077
0.019 0.021 0.073
0.019 0.029 0.067
0.011 0.045 0.079
0.019 0.033 0.077
0.021 0.011 0.079
0.021 0.011 0.083
0.021 0.019 0.081
0.021 0.017 0.083
0.021 0.017 0.085
0.021 0.021 0.083
0.021 0.025 0.081
0.021 0.021 0.081
0.021 0.025 0.081
0.011 0.045 0.081
0.019 0.031 0.081
0.019 0.029 0.083
0.019 0.027 0.085
0.011 0.045 0.081
