-0.005 -0.049 0.043
0.009 -0.049 0.043
0.011 -0.047 0.045
0.011 -0.049 0.049
0.013 -0.045 0.047
-0.001 -0.049 0.039
-0.001 -0.051 0.047
-0.015 -0.039 0.035
-0.023 -0.037 0.043
-0.023 -0.037 0.043
-0.019 -0.039 0.041
-0.019 -0.037 0.043
-0.019 -0.035 0.043
-0.003 -0.051 0.045
-0.001 -0.049 0.041
-0.013 -0.039 0.035
-0.001 -0.051 0.043
0.001 -0.051 0.045
-0.015 -0.039 0.037
-0.005 -0.049 0.043
-0.003 -0.051 0.053
-0.003 -0.049 0.059
-0.003 -0.051 0.053
-0.003 -0.049 0.057
-0.003 -0.049 0.059
-0.003 -0.049 0.059
-0.003 -0.047 0.061
-0.001 -0.047 0.063
-0.001 -0.047 0.061
-0.007 -0.049 0.049
0.003 -0.051 0.049
0.007 -0.051 0.051
0.007 -0.051 0.047
0.007 -0.051 0.053
0.003 -0.051 0.057
0.013 -0.047 0.049
0.007 -0.051 0.053
0.009 -0.049 0.057
0.009 -0.049 0.059
0.007 -0.049 0.059
0.013 -0.045 0.055
0.015 -0.043 0.055
0.011 -0.045 0.065
0.011 -0.045 0.061
0.011 -0.045 0.065
0.009 -0.045 0.067
0.011 -0.041 0.069
0.013 -0.041 0.067
0.013 -0.039 0.069
0.013 -0.035 0.073
-0.003 -0.045 0.065
0.001 -0.045 0.069
0.001 -0.043 0.071
0.007 -0.049 0.083
-0.003 -0.061 0.085
-0.003 -0.061 0.091
0.003 -0.059 0.085
-0.005 -0.061 0.093
-0.003 -0.057 0.091
-0.001 -0.051 0.089
-0.001 -0.057 0.091
0.001 -0.055 0.089
0.005 -0.057 0.097
-0.003 -0.049 0.089
0.001 -0.059 0.101
0.003 -0.059 0.101
0.003 -0.059 0.103
0.009 -0.053 0.097
0.005 -0.055 0.101
0.005 -0.055 0.101
0.007 -0.049 0.099
0.001 -0.041 0.073
0.009 -0.045 0.081
0.015 -0.029 0.081
0.015 -0.035 0.085
0.011 -0.047 0.095
0.009 -0.043 0.101
-0.005 -0.053 0.099
-0.007 -0.053 0.099
-0.003 -0.055 0.101
-0.001 -0.057 0.105
-0.001 -0.057 0.103
0.003 -0.059 0.103
0.001 -0.057 0.105
0.003 -0.049 0.105
0.001 -0.051 0.107
0.005 -0.039 0.105
0.007 -0.039 0.105
0.005 -0.033 0.105
0.005 -0.033 0.105
0.001 -0.027 0.105
0.011 -0.047 0.041
0.015 -0.049 0.041
0.015 -0.049 0.041
0.019 -0.045 0.039
0.017 -0.045 0.041
0.021 -0.043 0.039
0.019 -0.041 0.045
0.019 -0.041 0.045
0.019 -0.041 0.041
0.021 -0.035 0.043
0.013 -0.051 0.037
0.021 -0.051 0.035
0.015 -0.053 0.037
0.015 -0.049 0.041
0.019 -0.049 0.039
0.015 -0.049 0.041
0.017 -0.041 0.043
0.023 -0.049 0.037
0.021 -0.047 0.039
0.023 -0.045 0.039
0.021 -0.047 0.039
0.021 -0.037 0.037
0.021 -0.045 0.039
0.021 -0.037 0.039
0.019 -0.037 0.043
0.021 -0.035 0.043
0.019 -0.041 0.047
0.001 -0.051 0.053
0.011 -0.049 0.051
0.005 -0.051 0.057
0.005 -0.049 0.063
0.013 -0.045 0.053
0.017 -0.039 0.055
0.009 -0.049 0.059
0.011 -0.047 0.057
0.015 -0.039 0.057
0.013 -0.037 0.061
0.019 -0.041 0.053
0.021 -0.037 0.051
0.017 -0.039 0.055
0.011 -0.047 0.045
0.015 -0.043 0.045
0.019 -0.041 0.045
0.019 -0.041 0.045
0.021 -0.035 0.035
0.021 -0.039 0.039
0.023 -0.031 0.035
0.023 -0.029 0.035
0.025 -0.019 0.035
0.023 -0.019 0.039
0.021 -0.031 0.043
0.021 -0.033 0.047
0.023 -0.021 0.041
0.019 -0.017 0.047
0.019 -0.041 0.051
0.021 -0.039 0.047
0.021 -0.019 0.043
0.019 -0.037 0.053
0.017 -0.039 0.055
0.017 -0.029 0.051
0.017 -0.019 0.047
0.017 -0.019 0.053
0.023 -0.019 0.041
0.023 -0.017 0.041
0.019 -0.017 0.047
0.013 -0.031 0.055
0.013 -0.035 0.059
0.015 -0.021 0.053
0.015 -0.019 0.055
0.013 -0.037 0.063
0.013 -0.041 0.067
0.013 -0.031 0.061
0.013 -0.033 0.063
0.013 -0.033 0.065
0.015 -0.031 0.069
0.015 -0.031 0.065
0.011 -0.017 0.059
0.021 -0.015 0.051
0.021 -0.013 0.053
0.017 -0.015 0.055
0.019 -0.007 0.053
0.017 -0.013 0.057
0.017 -0.013 0.061
0.017 -0.013 0.061
0.005 -0.045 0.067
0.007 -0.045 0.069
0.013 -0.035 0.073
0.005 -0.055 0.081
0.003 -0.057 0.085
0.003 -0.053 0.089
0.007 -0.051 0.083
0.005 -0.051 0.087
0.009 -0.045 0.087
0.013 -0.041 0.085
0.011 -0.045 0.091
0.009 -0.049 0.093
0.009 -0.053 0.095
0.011 -0.049 0.095
0.009 -0.047 0.097
0.011 -0.047 0.095
0.013 -0.041 0.091
0.015 -0.041 0.093
0.013 -0.037 0.073
0.013 -0.035 0.075
0.015 -0.033 0.069
0.015 -0.031 0.073
0.015 -0.031 0.079
0.011 -0.043 0.085
0.011 -0.043 0.087
0.017 -0.025 0.075
0.017 -0.023 0.077
0.013 -0.035 0.077
0.013 -0.033 0.079
0.015 -0.031 0.077
0.013 -0.013 0.067
0.015 -0.035 0.083
0.017 -0.027 0.081
0.017 -0.033 0.089
0.017 -0.011 0.065
0.017 -0.009 0.069
0.019 -0.005 0.073
0.021 -0.001 0.073
0.015 -0.035 0.083
0.015 -0.037 0.085
0.013 -0.039 0.089
0.015 -0.037 0.089
0.013 -0.041 0.097
0.021 -0.027 0.089
0.011 -0.043 0.099
0.017 -0.027 0.081
0.019 -0.025 0.083
0.019 -0.025 0.085
0.021 -0.025 0.087
0.021 -0.023 0.087
0.021 -0.025 0.087
0.019 -0.029 0.095
0.023 -0.023 0.095
0.025 -0.019 0.093
0.025 -0.017 0.095
0.017 -0.035 0.097
0.019 -0.029 0.091
0.021 -0.027 0.093
0.023 -0.019 0.091
0.023 -0.023 0.095
0.015 -0.035 0.103
0.015 -0.033 0.103
0.019 -0.031 0.097
0.021 -0.029 0.099
0.021 -0.025 0.099
0.025 -0.017 0.089
0.003 -0.059 0.103
0.007 -0.055 0.099
0.009 -0.053 0.097
0.003 -0.059 0.103
0.007 -0.051 0.099
0.007 -0.045 0.099
0.005 -0.045 0.101
0.011 -0.045 0.097
0.013 -0.041 0.097
0.011 -0.043 0.101
0.011 -0.043 0.103
0.007 -0.041 0.105
0.013 -0.035 0.105
0.017 -0.033 0.103
0.015 -0.029 0.103
0.011 -0.037 0.105
0.013 -0.035 0.105
0.009 -0.037 0.105
0.009 -0.029 0.105
0.017 -0.033 0.103
0.019 -0.031 0.103
0.019 -0.029 0.105
0.021 -0.027 0.107
0.007 -0.033 0.105
0.009 -0.033 0.105
0.007 -0.029 0.105
0.009 -0.027 0.107
0.005 -0.025 0.105
0.003 -0.023 0.105
0.013 -0.023 0.109
0.019 -0.031 0.099
0.021 -0.029 0.097
0.021 -0.027 0.099
0.021 -0.025 0.099
0.025 -0.021 0.099
0.025 -0.021 0.099
0.017 -0.029 0.105
0.023 -0.027 0.107
0.013 -0.029 0.105
0.013 -0.027 0.105
0.013 -0.021 0.111
0.015 -0.015 0.109
0.025 -0.021 0.099
0.019 -0.007 0.111
0.015 -0.021 0.053
0.017 -0.019 0.051
0.013 -0.019 0.055
0.015 -0.041 0.057
0.011 -0.043 0.065
0.013 -0.041 0.065
0.013 -0.035 0.063
0.011 -0.019 0.057
0.013 -0.037 0.065
0.011 -0.021 0.055
0.011 -0.019 0.057
0.015 -0.029 0.065
0.013 -0.021 0.055
0.013 -0.017 0.059
0.017 -0.017 0.055
0.017 -0.015 0.057
0.013 -0.035 0.067
0.015 -0.033 0.069
0.013 -0.015 0.063
0.013 -0.015 0.063
0.013 -0.013 0.065
0.015 -0.013 0.063
0.015 -0.033 0.075
0.013 -0.015 0.063
0.015 -0.027 0.067
0.015 -0.029 0.069
0.015 -0.027 0.071
0.015 -0.033 0.075
0.013 -0.037 0.081
0.013 -0.033 0.079
0.015 -0.037 0.085
0.015 -0.027 0.073
0.013 -0.033 0.077
0.015 -0.023 0.071
0.017 -0.027 0.075
0.017 -0.027 0.077
0.015 -0.033 0.085
0.015 -0.035 0.087
0.017 -0.031 0.087
0.015 -0.015 0.059
0.017 -0.013 0.059
0.013 -0.015 0.063
0.015 -0.025 0.069
0.019 -0.011 0.059
0.015 -0.013 0.065
0.019 -0.009 0.065
0.017 -0.027 0.075
0.017 -0.027 0.077
0.017 -0.027 0.077
0.017 -0.027 0.077
0.017 -0.027 0.077
0.017 -0.007 0.071
0.017 -0.025 0.079
0.017 -0.007 0.071
0.021 -0.003 0.071
0.021 -0.023 0.087
0.021 -0.001 0.075
0.017 -0.031 0.091
0.021 -0.027 0.089
0.021 -0.025 0.087
0.021 -0.025 0.091
0.021 -0.027 0.089
0.021 -0.027 0.089
0.025 -0.017 0.089
0.019 0.001 0.085
0.021 -0.013 0.053
0.023 0.013 0.045
0.017 -0.019 0.051
0.019 -0.017 0.049
0.017 -0.019 0.053
0.019 -0.017 0.051
0.015 0.011 0.035
0.015 0.011 0.037
0.017 0.009 0.041
0.017 -0.017 0.055
0.015 -0.017 0.057
0.021 -0.013 0.053
0.019 -0.011 0.057
0.017 0.013 0.035
0.017 0.013 0.037
0.027 0.013 0.039
0.023 0.011 0.043
0.019 0.011 0.045
0.025 0.015 0.045
0.019 -0.015 0.053
0.019 -0.015 0.053
0.019 -0.015 0.053
0.017 0.009 0.043
0.021 0.011 0.043
0.023 0.011 0.043
0.019 0.001 0.059
0.019 0.011 0.053
0.021 0.011 0.041
0.023 0.011 0.043
0.025 0.013 0.039
0.025 0.015 0.043
0.025 0.017 0.045
0.025 0.015 0.043
0.025 0.015 0.045
0.025 0.017 0.045
0.021 0.015 0.047
0.025 0.015 0.045
0.021 0.019 0.049
0.013 -0.017 0.059
0.015 -0.029 0.065
0.015 -0.029 0.067
0.015 -0.013 0.063
0.019 -0.011 0.061
0.017 -0.011 0.063
0.015 -0.011 0.067
0.019 -0.011 0.061
0.019 -0.009 0.065
0.017 -0.009 0.069
0.015 -0.009 0.071
0.019 -0.007 0.065
0.019 -0.007 0.071
0.017 0.009 0.049
0.019 -0.003 0.061
0.017 -0.011 0.065
0.017 -0.009 0.069
0.017 -0.009 0.069
0.019 0.015 0.059
0.021 -0.001 0.069
0.015 -0.009 0.071
0.015 -0.009 0.071
0.017 -0.007 0.073
0.019 -0.007 0.071
0.021 -0.003 0.071
0.017 -0.007 0.075
0.021 0.003 0.069
0.019 0.017 0.061
0.021 0.017 0.057
0.021 0.019 0.053
0.021 0.021 0.059
0.021 0.021 0.061
0.021 0.023 0.063
0.019 -0.001 0.055
0.017 0.011 0.053
0.021 0.015 0.049
0.019 0.013 0.051
0.019 0.011 0.049
0.017 0.011 0.053
0.019 -0.005 0.061
0.019 -0.003 0.059
0.019 0.011 0.053
0.021 -0.001 0.063
0.021 -0.001 0.071
0.017 0.019 0.067
0.017 0.019 0.069
0.021 0.005 0.073
0.017 -0.021 0.079
0.017 -0.007 0.073
0.019 -0.005 0.073
0.019 -0.003 0.077
0.023 -0.021 0.089
0.021 -0.027 0.093
0.021 -0.001 0.073
0.021 0.001 0.073
0.021 0.003 0.073
0.021 0.007 0.077
0.021 0.009 0.079
0.023 -0.019 0.089
0.019 -0.003 0.075
0.023 -0.023 0.091
0.023 -0.023 0.093
0.023 -0.025 0.097
0.019 0.021 0.069
0.019 0.021 0.071
0.019 0.021 0.071
0.019 0.023 0.069
0.021 0.017 0.079
0.021 0.021 0.079
0.021 0.023 0.077
0.021 0.025 0.073
0.021 0.021 0.079
0.023 -0.025 0.097
0.025 -0.019 0.093
0.021 -0.029 0.103
0.021 -0.029 0.103
0.021 -0.025 0.099
0.023 -0.023 0.101
0.023 -0.015 0.103
0.021 -0.025 0.099
0.023 -0.019 0.103
0.023 -0.025 0.101
0.015 0.013 0.093
0.011 0.009 0.095
0.023 -0.019 0.103
0.025 -0.017 0.103
0.017 0.017 0.091
0.013 0.013 0.095
0.013 0.013 0.095
0.013 0.017 0.095
0.025 -0.015 0.103
0.017 0.019 0.091
0.015 0.019 0.093
0.021 0.019 0.081
0.021 0.021 0.081
0.021 0.017 0.085
0.021 0.017 0.087
0.021 0.019 0.087
0.021 0.021 0.087
0.019 0.013 0.089
0.025 -0.017 0.089
0.019 0.001 0.085
0.021 0.007 0.077
0.021 0.005 0.083
0.021 0.005 0.083
0.021 0.013 0.079
0.021 0.009 0.083
0.021 0.011 0.083
0.021 0.011 0.085
0.019 0.005 0.085
0.021 0.021 0.079
0.021 0.015 0.087
0.019 0.007 0.087
0.021 0.021 0.087
0.021 0.021 0.087
0.019 0.017 0.089
0.017 0.009 0.091
0.017 0.017 0.091
0.015 0.021 0.093
0.013 0.023 0.093
0.013 0.035 0.087
0.013 0.029 0.091
0.007 0.047 0.087
0.009 0.049 0.083
