0.015 0.027 0.049
0.005 0.029 0.049
0.013 0.029 0.047
0.019 0.029 0.065
0.019 0.031 0.067
0.007 0.045 0.061
0.007 0.041 0.061
0.007 0.045 0.063
0.017 0.029 0.055
0.019 0.031 0.061
0.019 0.027 0.057
0.019 0.027 0.057
0.009 0.029 0.053
0.013 0.035 0.063
0.015 0.035 0.065
0.017 0.033 0.063
0.009 0.041 0.063
0.013 0.037 0.067
0.019 0.031 0.071
0.017 0.035 0.075
0.017 0.035 0.073
0.011 0.039 0.069
0.019 0.027 0.079
0.013 0.037 0.075
0.015 0.035 0.075
0.007 0.047 0.065
0.009 0.045 0.065
0.007 0.045 0.061
0.007 0.029 0.051
0.009 0.029 0.053
0.011 0.031 0.055
0.015 0.027 0.049
0.007 0.045 0.059
0.009 0.027 0.047
0.009 0.043 0.063
0.009 0.035 0.059
0.013 0.029 0.047
0.001 0.029 0.047
0.009 0.033 0.057
0.003 0.027 0.053
0.009 0.033 0.057
0.009 0.035 0.059
0.011 0.041 0.067
0.011 0.041 0.067
0.011 0.041 0.069
0.013 0.037 0.071
0.013 0.037 0.071
0.011 0.041 0.067
0.017 0.035 0.075
0.011 0.035 0.061
0.009 0.041 0.065
0.011 0.035 0.061
0.011 0.041 0.067
0.015 0.035 0.069
0.013 0.037 0.075
0.011 0.041 0.069
0.011 0.039 0.069
0.011 0.039 0.073
0.017 0.031 0.085
0.011 -0.013 0.093
0.013 0.013 0.095
0.007 -0.007 0.095
0.001 -0.013 0.093
0.013 0.005 0.093
0.009 -0.015 0.097
0.005 -0.007 0.097
0.011 0.023 0.095
0.013 0.025 0.093
0.013 0.023 0.095
0.007 -0.005 0.101
0.007 -0.007 0.093
0.003 -0.009 0.097
0.007 -0.007 0.097
0.017 0.033 0.081
0.015 0.033 0.083
0.017 0.029 0.087
0.015 0.029 0.089
0.013 0.027 0.093
0.015 0.021 0.093
0.013 0.025 0.093
0.005 -0.007 0.097
0.001 -0.019 0.105
0.003 -0.017 0.105
-0.003 -0.047 0.105
-0.003 -0.047 0.105
-0.009 -0.045 0.101
0.003 -0.009 0.101
0.007 -0.019 0.103
0.005 -0.017 0.103
0.003 -0.019 0.105
0.005 -0.017 0.107
0.003 -0.017 0.107
0.003 -0.009 0.101
0.003 -0.011 0.099
0.019 0.027 0.051
0.015 0.031 0.045
0.027 0.017 0.041
0.023 -0.017 0.031
0.021 0.025 0.043
0.021 -0.027 0.045
0.019 0.001 0.057
0.019 0.001 0.059
0.019 -0.007 0.053
0.021 -0.029 0.041
0.017 -0.005 0.047
0.019 -0.009 0.045
0.019 -0.009 0.045
0.021 0.019 0.049
0.019 0.027 0.051
0.021 -0.011 0.045
0.019 -0.009 0.049
0.021 -0.043 0.035
0.021 -0.031 0.041
0.021 -0.039 0.039
0.023 -0.013 0.039
0.019 -0.029 0.049
0.019 -0.007 0.059
0.021 0.025 0.079
0.021 0.009 0.075
0.015 -0.035 0.055
0.021 0.005 0.071
0.021 0.003 0.073
0.015 -0.029 0.065
0.021 -0.003 0.065
0.021 -0.003 0.067
0.017 -0.033 0.053
0.019 -0.035 0.053
0.025 0.017 0.045
0.021 -0.011 0.039
0.023 -0.019 0.037
0.021 -0.025 0.043
0.021 -0.013 0.045
0.021 -0.011 0.045
0.019 -0.009 0.047
0.021 -0.011 0.047
0.015 0.029 0.047
0.011 0.027 0.051
0.013 0.029 0.053
0.015 0.031 0.057
0.019 0.025 0.053
0.023 -0.013 0.037
0.019 -0.007 0.047
0.019 0.003 0.063
0.019 0.003 0.061
0.019 0.025 0.067
0.019 -0.001 0.055
0.019 0.019 0.063
0.019 0.001 0.059
0.019 0.005 0.069
0.021 0.027 0.069
0.021 0.027 0.069
0.021 0.027 0.071
0.021 -0.013 0.051
0.013 0.033 0.059
0.013 0.033 0.059
0.021 0.025 0.059
0.019 0.005 0.067
0.019 -0.009 0.053
0.019 -0.003 0.053
0.021 -0.001 0.065
0.019 -0.001 0.057
0.019 0.001 0.059
0.021 0.025 0.083
0.021 0.019 0.081
0.021 0.013 0.081
0.015 -0.027 0.067
0.021 0.001 0.073
0.021 0.017 0.083
0.021 0.007 0.083
0.017 -0.021 0.075
0.017 -0.017 0.079
0.013 -0.013 0.093
0.017 0.005 0.089
0.015 -0.011 0.091
0.017 -0.019 0.099
0.013 -0.013 0.097
0.015 -0.017 0.097
0.015 -0.011 0.093
0.017 -0.017 0.085
0.017 -0.015 0.087
0.013 -0.013 0.089
0.019 0.009 0.087
0.019 -0.017 0.089
0.015 -0.011 0.089
0.019 -0.015 0.087
0.015 -0.015 0.097
0.013 -0.015 0.099
0.021 -0.015 0.097
0.013 -0.013 0.095
0.013 -0.013 0.097
0.011 -0.015 0.097
0.021 -0.015 0.097
0.021 -0.015 0.097
0.019 0.033 0.077
0.019 0.031 0.081
0.021 0.005 0.075
0.017 0.029 0.087
0.017 -0.017 0.079
0.017 0.029 0.087
0.019 0.025 0.087
0.021 0.023 0.081
0.021 0.015 0.079
0.019 0.009 0.071
0.019 0.005 0.069
0.019 0.031 0.081
0.019 0.029 0.083
0.021 0.025 0.083
0.019 0.029 0.083
0.019 0.025 0.085
0.017 0.031 0.083
0.013 0.035 0.083
0.019 0.027 0.085
0.021 0.003 0.069
0.021 0.001 0.067
0.021 0.005 0.071
0.021 0.013 0.079
0.021 0.007 0.077
0.021 0.009 0.075
0.015 -0.011 0.087
0.017 0.027 0.089
0.015 0.025 0.091
0.007 -0.005 0.095
0.007 -0.013 0.097
0.005 -0.007 0.097
0.005 -0.007 0.097
0.015 -0.013 0.093
0.023 -0.015 0.089
0.021 -0.015 0.091
0.023 -0.015 0.093
0.023 -0.015 0.089
0.021 -0.015 0.091
0.025 -0.013 0.095
0.023 -0.013 0.097
0.025 -0.015 0.093
0.015 0.019 0.093
0.013 0.027 0.093
0.021 0.015 0.087
0.015 0.025 0.091
0.021 0.021 0.085
0.019 0.017 0.089
0.013 0.019 0.095
0.013 0.023 0.095
0.007 -0.009 0.095
0.005 -0.005 0.095
0.007 -0.005 0.095
0.011 -0.015 0.095
0.015 -0.013 0.095
0.015 -0.011 0.093
0.005 -0.005 0.095
0.017 -0.015 0.091
0.027 -0.013 0.095
0.013 -0.013 0.105
0.015 -0.013 0.105
0.015 -0.021 0.103
0.019 -0.019 0.101
0.017 -0.021 0.101
0.015 -0.019 0.101
0.015 -0.007 0.107
0.013 -0.009 0.107
0.007 -0.019 0.103
0.015 -0.019 0.101
0.017 -0.009 0.107
0.021 -0.017 0.101
0.021 -0.017 0.101
0.019 -0.023 0.105
0.017 -0.013 0.107
0.019 -0.023 0.103
0.007 -0.013 0.099
0.005 -0.011 0.103
0.005 -0.009 0.103
0.007 -0.019 0.103
0.007 -0.019 0.103
0.005 -0.007 0.103
0.007 -0.015 0.101
0.007 -0.007 0.103
0.015 -0.017 0.099
0.003 -0.017 0.105
0.019 -0.005 0.109
0.017 -0.003 0.111
0.019 -0.001 0.113
0.003 -0.017 0.105
0.003 -0.017 0.107
0.003 -0.017 0.109
0.021 -0.017 0.099
0.025 -0.013 0.097
0.021 -0.017 0.099
0.021 -0.015 0.097
0.025 -0.013 0.097
0.023 -0.015 0.101
0.025 -0.013 0.101
0.019 -0.023 0.105
0.021 -0.023 0.105
0.005 -0.007 0.097
0.007 -0.007 0.097
0.007 -0.007 0.099
0.015 -0.015 0.097
0.005 -0.007 0.103
0.015 -0.007 0.107
0.017 -0.009 0.107
-0.003 0.041 0.033
0.001 0.047 0.047
0.003 0.039 0.043
-0.001 0.031 0.047
0.005 0.029 0.047
-0.001 0.045 0.043
0.001 0.045 0.043
0.001 0.047 0.049
0.001 0.047 0.049
-0.001 0.047 0.049
0.007 0.035 0.041
0.001 0.037 0.043
0.001 0.033 0.045
-0.001 0.035 0.045
0.003 0.047 0.053
0.001 0.027 0.047
0.003 0.027 0.049
0.005 0.045 0.057
0.001 0.045 0.041
-0.005 0.047 0.041
-0.005 0.049 0.047
0.003 0.043 0.039
0.001 0.043 0.037
-0.005 0.049 0.049
-0.003 0.049 0.049
0.001 0.049 0.055
-0.001 0.025 0.047
0.003 0.047 0.055
0.003 0.043 0.053
-0.003 0.049 0.051
-0.007 0.049 0.049
-0.003 0.049 0.055
0.001 0.049 0.055
-0.001 0.049 0.051
-0.001 0.049 0.053
-0.017 0.027 0.055
-0.017 0.025 0.059
0.001 0.049 0.059
-0.005 0.049 0.057
-0.007 0.049 0.057
-0.005 0.049 0.057
-0.007 0.047 0.059
0.003 0.047 0.065
-0.013 0.029 0.059
-0.013 0.027 0.061
-0.013 0.043 0.037
0.001 0.043 0.037
-0.009 0.045 0.037
-0.007 0.041 0.033
-0.005 0.043 0.035
-0.005 0.043 0.037
-0.001 0.045 0.039
-0.011 0.047 0.047
-0.009 0.047 0.041
-0.013 0.045 0.047
-0.007 0.049 0.047
-0.005 0.049 0.057
0.001 0.049 0.055
-0.011 0.047 0.051
-0.003 0.049 0.061
0.001 0.047 0.063
-0.005 0.047 0.061
-0.003 0.049 0.061
0.013 0.043 0.075
0.007 0.055 0.075
0.007 0.055 0.075
0.001 0.047 0.067
-0.001 0.047 0.065
0.017 0.033 0.037
0.005 0.043 0.035
0.009 0.041 0.031
0.011 0.039 0.031
0.011 0.039 0.031
0.009 0.033 0.043
0.019 0.025 0.053
0.025 0.019 0.041
0.025 0.017 0.043
0.021 0.025 0.049
0.005 0.039 0.041
0.005 0.037 0.041
0.015 0.035 0.035
0.007 0.031 0.043
0.001 0.031 0.045
0.009 0.027 0.047
0.021 0.029 0.039
0.025 0.025 0.039
0.023 0.027 0.039
0.025 0.025 0.039
0.029 0.021 0.033
0.029 0.021 0.033
0.019 0.031 0.037
0.023 0.021 0.043
0.017 0.031 0.041
0.019 0.027 0.047
0.015 0.033 0.061
0.017 0.029 0.057
0.017 0.029 0.055
0.019 0.031 0.061
0.009 0.033 0.057
0.019 0.033 0.067
0.017 0.035 0.069
0.015 0.035 0.063
0.011 0.037 0.067
0.015 0.035 0.065
0.015 0.035 0.065
0.021 0.021 0.053
0.021 0.025 0.059
0.007 0.043 0.061
0.007 0.035 0.059
0.003 0.027 0.049
0.005 0.031 0.055
0.009 0.027 0.049
0.011 0.027 0.051
0.009 0.029 0.053
0.013 0.029 0.053
0.011 0.041 0.067
0.009 0.045 0.069
0.019 0.033 0.067
0.009 0.043 0.063
0.007 0.045 0.067
0.015 0.031 0.059
0.015 0.033 0.061
0.021 0.023 0.051
0.019 0.027 0.051
0.019 0.025 0.053
0.019 0.029 0.063
0.007 0.041 0.037
0.015 0.035 0.035
0.013 0.037 0.037
0.013 0.033 0.039
0.011 0.037 0.037
0.009 0.037 0.039
0.007 0.043 0.035
0.003 0.043 0.039
0.005 0.039 0.043
0.001 0.045 0.041
0.001 0.045 0.043
0.007 0.045 0.063
0.007 0.047 0.065
0.005 0.045 0.057
0.005 0.047 0.061
0.007 0.045 0.063
0.013 0.037 0.075
0.013 0.037 0.071
0.013 0.037 0.077
0.017 0.035 0.077
0.019 0.033 0.077
0.019 0.005 0.067
0.021 0.005 0.071
0.021 0.009 0.079
0.021 0.009 0.075
0.021 0.023 0.079
0.021 0.017 0.079
0.011 0.045 0.071
0.009 0.047 0.073
0.013 0.043 0.075
0.009 0.049 0.077
0.017 0.035 0.069
0.015 0.037 0.071
0.007 0.051 0.073
0.005 0.045 0.071
0.021 0.027 0.071
0.019 0.031 0.073
0.021 0.027 0.075
0.019 0.033 0.073
0.021 0.025 0.079
0.011 0.035 0.087
0.015 0.025 0.091
0.007 0.031 0.087
0.015 0.013 0.093
0.013 0.029 0.091
0.017 0.023 0.091
0.019 0.017 0.089
0.021 0.015 0.083
0.009 0.033 0.087
0.009 0.033 0.087
0.013 0.027 0.093
0.013 0.021 0.095
0.011 0.033 0.089
0.015 0.029 0.089
0.013 0.033 0.089
0.019 0.027 0.083
0.021 0.025 0.081
0.021 0.025 0.083
0.021 0.021 0.087
0.017 0.029 0.087
0.019 0.023 0.089
0.017 0.023 0.091
0.017 0.023 0.091
0.017 0.023 0.091
0.009 0.045 0.069
0.007 0.045 0.071
0.011 0.045 0.071
0.001 0.045 0.069
0.009 0.045 0.067
0.011 0.041 0.067
0.011 0.047 0.075
0.009 0.049 0.075
0.011 0.049 0.081
0.013 0.043 0.075
0.015 0.037 0.073
0.011 0.049 0.079
0.009 0.051 0.077
0.007 0.051 0.073
0.007 0.053 0.077
0.009 0.051 0.077
0.011 0.045 0.077
0.017 0.035 0.075
0.005 0.055 0.077
0.011 0.045 0.083
0.009 0.045 0.085
0.009 0.049 0.085
0.007 0.053 0.085
