-0.013 -0.023 0.047
-0.015 -0.015 0.039
-0.015 -0.011 0.037
-0.005 -0.049 0.045
-0.025 -0.035 0.041
-0.007 -0.047 0.051
-0.009 -0.045 0.051
-0.009 -0.039 0.049
-0.003 -0.049 0.059
-0.009 -0.043 0.055
-0.007 -0.045 0.059
-0.007 -0.039 0.061
-0.007 -0.033 0.061
-0.007 -0.037 0.063
-0.021 -0.031 0.041
-0.019 -0.025 0.041
-0.015 -0.019 0.039
-0.017 -0.023 0.045
-0.017 -0.023 0.045
-0.013 -0.017 0.043
-0.013 -0.017 0.043
-0.015 -0.009 0.037
-0.015 -0.009 0.037
-0.013 -0.009 0.041
-0.011 -0.013 0.043
-0.005 -0.013 0.049
-0.007 -0.011 0.049
-0.007 -0.011 0.049
-0.003 -0.023 0.055
-0.001 -0.027 0.063
-0.003 -0.013 0.057
-0.003 -0.045 0.067
-0.001 -0.045 0.067
-0.005 -0.037 0.069
-0.003 -0.035 0.073
-0.007 -0.061 0.093
-0.013 -0.051 0.085
-0.005 -0.059 0.093
-0.001 -0.057 0.091
-0.005 -0.041 0.089
-0.007 -0.039 0.087
-0.009 -0.045 0.101
-0.007 -0.035 0.097
-0.001 -0.029 0.077
-0.009 -0.049 0.101
-0.007 -0.049 0.103
-0.009 -0.043 0.099
-0.003 -0.045 0.103
-0.005 -0.033 0.099
-0.001 -0.025 0.105
-0.011 -0.035 0.047
-0.011 -0.031 0.053
-0.011 -0.019 0.047
-0.007 -0.049 0.049
-0.001 -0.051 0.055
-0.009 -0.045 0.049
-0.005 -0.049 0.055
-0.005 -0.047 0.057
-0.005 -0.043 0.065
-0.005 -0.041 0.065
-0.005 -0.035 0.069
0.001 -0.049 0.061
0.003 -0.051 0.057
-0.011 -0.047 0.081
0.001 -0.047 0.065
-0.001 -0.043 0.069
-0.003 -0.035 0.073
-0.011 -0.029 0.053
-0.007 -0.031 0.059
-0.007 -0.027 0.055
-0.011 -0.025 0.053
-0.009 -0.023 0.053
-0.001 -0.027 0.063
-0.007 -0.013 0.047
-0.007 -0.011 0.049
-0.003 -0.013 0.057
-0.003 -0.013 0.057
-0.007 -0.009 0.051
-0.007 -0.009 0.051
-0.005 -0.009 0.055
-0.003 -0.005 0.049
-0.003 -0.003 0.051
0.001 -0.017 0.057
0.001 -0.011 0.065
0.007 -0.021 0.063
0.007 -0.019 0.061
-0.001 -0.003 0.059
0.005 -0.015 0.063
0.007 -0.015 0.065
0.009 -0.017 0.065
0.001 -0.005 0.075
0.005 -0.007 0.077
0.001 -0.043 0.071
-0.009 -0.043 0.085
-0.007 -0.039 0.085
-0.007 -0.037 0.087
-0.005 -0.041 0.089
-0.005 -0.039 0.089
-0.005 -0.051 0.089
-0.009 -0.049 0.101
-0.007 -0.051 0.105
-0.007 -0.051 0.105
-0.003 -0.051 0.107
-0.009 -0.045 0.101
-0.009 -0.045 0.101
-0.007 -0.037 0.097
-0.003 -0.045 0.103
-0.001 -0.047 0.105
0.001 -0.045 0.103
0.003 -0.043 0.103
-0.005 -0.031 0.087
-0.001 -0.027 0.077
-0.001 -0.027 0.079
-0.001 -0.023 0.085
0.009 -0.015 0.071
0.009 -0.015 0.071
0.001 -0.017 0.087
0.001 -0.015 0.091
-0.005 -0.033 0.093
-0.005 -0.033 0.095
-0.003 -0.025 0.087
0.001 -0.017 0.097
-0.003 -0.031 0.103
0.007 -0.033 0.105
0.007 -0.027 0.105
0.005 -0.023 0.105
-0.001 -0.021 0.107
0.009 -0.019 0.107
0.001 -0.015 0.091
0.001 -0.015 0.095
0.003 -0.013 0.095
0.001 -0.015 0.097
0.001 -0.017 0.099
0.001 -0.015 0.101
0.001 -0.015 0.103
0.001 -0.017 0.103
-0.001 -0.019 0.107
0.001 -0.019 0.109
-0.001 -0.055 0.105
-0.001 -0.053 0.105
-0.003 -0.051 0.107
0.001 -0.053 0.105
-0.001 -0.047 0.105
0.005 -0.043 0.103
0.005 -0.041 0.105
0.009 -0.037 0.105
0.003 -0.025 0.105
0.001 -0.019 0.109
0.001 -0.019 0.109
0.011 -0.025 0.113
0.009 -0.023 0.111
0.013 -0.029 0.105
0.013 -0.027 0.107
0.011 -0.019 0.109
0.013 -0.019 0.109
0.011 -0.025 0.113
0.001 -0.017 0.103
0.003 -0.011 0.101
0.005 -0.009 0.103
0.017 -0.003 0.113
0.013 -0.019 0.115
-0.019 0.025 0.055
-0.013 0.003 0.037
-0.009 0.003 0.037
-0.009 0.015 0.049
-0.003 0.009 0.047
-0.011 0.015 0.039
-0.011 0.025 0.035
-0.013 0.031 0.035
-0.015 0.031 0.041
-0.019 0.021 0.051
-0.015 0.019 0.051
-0.019 0.023 0.055
-0.005 0.013 0.051
-0.003 0.013 0.051
-0.019 0.025 0.055
-0.011 0.019 0.061
-0.007 0.021 0.063
-0.015 0.037 0.039
-0.015 0.037 0.041
-0.013 0.029 0.059
-0.003 0.037 0.055
-0.011 0.043 0.053
-0.005 0.047 0.061
-0.011 0.047 0.053
-0.009 0.023 0.067
-0.001 0.047 0.065
-0.007 0.013 0.049
-0.011 0.017 0.051
-0.003 0.009 0.047
0.005 0.009 0.049
0.013 0.007 0.043
-0.001 0.009 0.043
0.001 0.009 0.043
0.003 0.009 0.045
0.007 0.011 0.057
0.009 0.009 0.053
0.007 0.009 0.053
-0.007 0.013 0.049
-0.009 0.015 0.051
-0.013 0.019 0.053
-0.011 0.019 0.061
-0.011 0.023 0.063
-0.007 0.023 0.071
0.003 0.015 0.059
0.003 0.017 0.061
-0.001 -0.003 0.069
0.001 0.003 0.071
0.003 0.015 0.059
0.009 0.011 0.059
0.001 0.007 0.073
0.001 -0.003 0.077
0.003 0.015 0.055
-0.009 0.023 0.067
0.003 0.015 0.059
0.001 0.025 0.071
0.001 0.011 0.081
0.001 0.015 0.081
0.003 0.019 0.075
0.001 0.019 0.083
0.001 0.023 0.081
-0.013 0.027 0.061
-0.007 0.039 0.059
0.001 0.037 0.059
0.001 0.007 0.079
0.001 0.009 0.081
0.005 0.001 0.085
0.001 0.017 0.081
0.001 0.013 0.083
0.003 0.019 0.087
0.003 0.013 0.089
0.005 0.025 0.089
0.003 0.003 0.085
0.011 0.001 0.091
0.011 0.005 0.093
0.013 0.007 0.093
0.001 0.019 0.085
0.003 0.029 0.085
0.003 0.029 0.085
0.005 0.025 0.089
0.005 0.031 0.085
0.005 0.023 0.089
0.009 0.013 0.091
0.011 0.021 0.095
0.005 0.033 0.081
0.003 0.045 0.071
0.003 0.041 0.071
0.001 0.045 0.069
0.003 0.041 0.073
0.003 0.041 0.073
0.005 0.043 0.077
0.005 0.041 0.079
0.003 0.045 0.083
0.003 0.045 0.085
0.009 0.031 0.089
0.005 0.053 0.077
0.009 0.037 0.083
0.005 0.043 0.087
0.007 0.043 0.087
0.003 0.049 0.085
0.023 -0.019 0.039
0.023 -0.019 0.037
0.021 -0.013 0.053
0.021 -0.029 0.039
0.021 -0.027 0.045
0.021 -0.025 0.041
0.017 -0.029 0.051
0.017 -0.019 0.051
0.015 -0.025 0.051
0.013 -0.039 0.059
0.013 -0.031 0.055
0.019 -0.007 0.051
0.021 -0.015 0.043
0.021 -0.011 0.043
0.019 -0.009 0.045
0.017 -0.003 0.047
0.019 -0.007 0.049
0.013 -0.007 0.039
0.009 -0.005 0.037
0.011 0.001 0.049
0.009 -0.001 0.043
0.013 0.001 0.049
0.019 -0.003 0.055
0.019 -0.005 0.057
0.007 -0.023 0.059
0.017 0.003 0.057
0.021 -0.001 0.067
0.015 -0.033 0.071
0.015 -0.027 0.073
0.017 -0.023 0.075
0.003 -0.055 0.085
0.011 -0.043 0.087
0.009 -0.053 0.095
0.009 -0.051 0.095
0.011 -0.045 0.091
0.013 -0.039 0.091
0.015 -0.035 0.089
0.019 0.009 0.071
0.013 -0.039 0.103
0.021 -0.027 0.099
0.019 -0.031 0.101
0.011 -0.037 0.105
0.023 -0.023 0.101
0.013 -0.017 0.103
0.023 -0.021 0.037
0.025 -0.017 0.035
0.021 -0.043 0.039
0.021 -0.039 0.049
0.021 -0.039 0.047
0.023 -0.045 0.037
0.023 -0.047 0.035
0.021 -0.029 0.039
0.023 -0.021 0.039
0.021 -0.031 0.039
0.023 -0.029 0.037
0.021 -0.033 0.039
0.017 -0.041 0.043
0.021 -0.035 0.039
0.019 -0.037 0.041
0.021 -0.033 0.043
0.021 -0.033 0.045
0.021 -0.033 0.047
0.011 -0.047 0.051
0.013 -0.043 0.057
0.011 -0.045 0.059
0.021 -0.039 0.049
0.019 -0.039 0.053
0.019 -0.035 0.053
0.023 -0.019 0.039
0.025 -0.021 0.035
0.023 -0.013 0.039
0.023 -0.029 0.035
0.023 -0.027 0.037
0.021 -0.031 0.045
0.019 -0.027 0.047
0.023 -0.017 0.043
0.023 -0.017 0.043
0.017 -0.019 0.047
0.021 -0.015 0.047
0.011 0.001 0.047
0.013 -0.005 0.041
0.011 -0.003 0.041
0.023 -0.015 0.035
0.019 -0.009 0.045
0.015 -0.015 0.059
0.007 -0.025 0.057
0.009 -0.025 0.059
0.007 -0.023 0.059
0.021 -0.013 0.053
0.019 -0.003 0.053
0.019 -0.011 0.057
0.019 -0.005 0.059
0.013 -0.041 0.067
0.013 -0.041 0.065
0.017 -0.027 0.075
0.013 -0.035 0.073
0.007 -0.049 0.083
0.007 -0.049 0.083
0.011 -0.045 0.097
0.015 -0.037 0.085
0.017 -0.031 0.087
0.017 -0.031 0.083
0.015 -0.035 0.087
0.017 -0.029 0.087
0.017 -0.033 0.091
0.015 -0.037 0.089
0.017 -0.035 0.093
0.017 -0.027 0.079
0.013 -0.013 0.077
0.017 -0.021 0.075
0.013 -0.015 0.075
0.021 -0.001 0.071
0.013 -0.013 0.079
0.019 -0.005 0.075
0.015 -0.015 0.079
0.021 0.003 0.081
0.021 -0.001 0.069
0.021 0.001 0.075
0.017 -0.021 0.083
0.017 -0.031 0.087
0.025 -0.015 0.089
0.023 -0.015 0.093
0.025 -0.017 0.093
0.019 0.003 0.085
0.005 -0.057 0.101
0.021 -0.029 0.103
0.023 -0.025 0.107
0.023 -0.025 0.107
0.015 -0.017 0.103
0.013 -0.017 0.101
0.015 -0.019 0.105
0.015 -0.021 0.105
0.013 -0.023 0.111
0.025 -0.015 0.097
0.025 -0.019 0.101
0.021 -0.025 0.105
0.007 -0.007 0.099
0.007 -0.011 0.101
0.007 -0.007 0.103
0.025 -0.013 0.097
0.019 -0.005 0.109
0.017 0.033 0.037
0.015 0.035 0.037
0.021 0.027 0.043
0.025 0.021 0.041
0.023 0.027 0.041
0.003 0.037 0.043
0.015 0.033 0.039
0.011 0.033 0.043
-0.001 0.033 0.047
-0.001 0.031 0.047
0.001 0.033 0.045
0.001 0.029 0.047
0.011 0.007 0.061
0.017 0.029 0.057
0.019 0.027 0.057
0.017 0.029 0.057
0.019 0.027 0.059
0.017 0.033 0.065
0.005 0.043 0.037
-0.005 0.045 0.039
-0.003 0.045 0.041
-0.007 0.047 0.043
-0.001 0.035 0.049
-0.001 0.035 0.049
0.005 0.041 0.057
0.007 0.045 0.061
-0.003 0.049 0.055
0.019 0.009 0.071
0.019 0.031 0.073
0.017 0.035 0.071
0.027 0.023 0.037
0.025 0.023 0.035
0.013 0.023 0.033
0.023 0.019 0.045
0.027 0.017 0.041
0.019 0.011 0.047
0.025 0.015 0.045
0.025 0.015 0.043
0.025 0.015 0.045
0.027 0.017 0.041
0.027 0.023 0.037
0.015 0.031 0.045
0.023 0.023 0.041
0.025 0.025 0.039
0.021 0.023 0.047
0.027 0.019 0.041
0.021 0.027 0.041
0.011 0.005 0.057
0.019 0.011 0.051
0.011 0.007 0.061
0.019 0.017 0.059
0.021 0.015 0.051
0.021 0.017 0.055
0.019 0.025 0.057
0.013 0.029 0.053
0.007 0.031 0.055
0.019 0.027 0.061
0.019 0.029 0.065
0.021 0.023 0.055
0.019 0.027 0.049
0.019 0.025 0.055
0.017 0.029 0.055
0.021 0.021 0.059
0.019 0.029 0.061
0.019 0.031 0.063
0.015 0.035 0.035
0.009 0.035 0.041
0.011 0.037 0.065
0.007 0.045 0.059
0.019 0.009 0.071
0.021 0.009 0.075
0.019 0.013 0.077
0.021 0.015 0.083
0.017 0.015 0.073
0.019 0.013 0.077
0.019 0.023 0.069
0.015 0.035 0.067
0.017 0.035 0.071
0.019 0.031 0.081
0.019 0.021 0.073
0.019 0.019 0.065
0.019 0.027 0.067
0.021 0.027 0.069
0.021 0.027 0.071
0.021 0.025 0.071
0.021 0.019 0.079
0.019 0.007 0.087
0.019 0.009 0.089
0.019 0.023 0.087
0.017 0.005 0.089
0.017 0.015 0.091
0.015 0.017 0.093
0.017 0.019 0.091
0.015 0.015 0.093
0.021 0.005 0.081
0.017 0.031 0.085
0.015 0.029 0.089
0.017 0.023 0.091
0.013 0.023 0.093
0.021 0.025 0.083
0.013 0.037 0.071
0.011 0.039 0.077
0.011 0.043 0.081
0.007 0.053 0.075
0.005 0.057 0.079
0.011 0.049 0.079
0.013 0.035 0.087
0.009 0.047 0.083
0.007 0.055 0.081
0.007 0.051 0.087
0.009 0.051 0.081
