0.023 -0.021 0.037
0.023 -0.015 0.039
-0.005 -0.007 0.033
0.021 -0.011 0.045
0.021 -0.015 0.049
0.021 -0.015 0.049
0.021 -0.013 0.047
0.017 -0.019 0.051
0.017 -0.021 0.049
0.019 -0.017 0.051
0.021 -0.031 0.041
0.021 -0.027 0.041
0.021 -0.033 0.045
0.021 -0.027 0.045
0.021 -0.019 0.043
0.021 -0.021 0.041
0.023 -0.017 0.043
0.021 -0.019 0.043
0.017 -0.023 0.045
0.019 -0.023 0.043
0.023 -0.017 0.041
0.021 -0.019 0.043
0.019 -0.029 0.049
0.021 -0.029 0.047
0.017 -0.033 0.053
0.017 -0.023 0.049
0.017 -0.019 0.049
0.015 -0.025 0.051
0.017 -0.019 0.051
0.013 -0.035 0.067
0.015 -0.031 0.065
0.007 -0.023 0.061
0.011 -0.023 0.065
0.017 -0.007 0.043
0.019 -0.009 0.045
0.019 -0.007 0.049
0.019 -0.009 0.047
0.023 -0.015 0.041
0.017 -0.009 0.043
0.017 -0.005 0.045
0.017 -0.005 0.045
0.015 -0.003 0.045
0.017 -0.003 0.047
0.019 -0.011 0.043
0.019 -0.009 0.053
0.019 -0.005 0.051
0.005 -0.001 0.043
-0.007 -0.005 0.037
-0.005 -0.005 0.037
0.001 -0.003 0.041
0.019 -0.003 0.051
0.017 -0.001 0.053
0.011 0.001 0.049
0.009 -0.001 0.043
0.013 0.003 0.053
0.013 0.001 0.049
0.013 0.001 0.051
0.019 -0.009 0.057
0.011 -0.019 0.057
0.019 -0.007 0.057
0.019 -0.009 0.059
0.019 -0.011 0.059
0.019 -0.009 0.059
0.007 -0.023 0.059
0.007 -0.023 0.061
0.007 -0.021 0.059
0.007 -0.023 0.061
0.009 -0.023 0.063
0.013 0.003 0.053
0.013 0.003 0.055
0.019 -0.005 0.061
0.015 -0.033 0.071
0.015 -0.027 0.069
0.005 -0.049 0.089
0.003 -0.057 0.087
0.005 -0.051 0.087
0.003 -0.055 0.087
0.005 -0.049 0.087
0.007 -0.047 0.087
-0.001 -0.057 0.091
0.003 -0.053 0.089
0.011 -0.047 0.095
0.015 -0.041 0.093
0.013 -0.041 0.091
0.013 -0.039 0.091
0.021 -0.023 0.087
0.019 -0.027 0.087
0.023 -0.021 0.093
0.025 -0.019 0.099
0.025 -0.017 0.097
0.025 -0.019 0.097
0.015 -0.019 0.075
0.019 0.009 0.071
0.021 0.005 0.073
0.019 0.009 0.073
0.025 -0.015 0.089
0.017 -0.015 0.089
0.021 -0.015 0.089
0.025 -0.017 0.095
0.027 -0.013 0.095
0.013 -0.041 0.101
0.005 -0.049 0.101
0.015 -0.037 0.103
0.019 -0.031 0.101
0.019 -0.023 0.105
0.009 -0.039 0.105
0.023 -0.027 0.037
0.023 -0.021 0.037
0.009 -0.009 0.033
0.013 -0.015 0.031
0.019 -0.039 0.041
0.019 -0.043 0.041
0.021 -0.039 0.051
0.019 -0.041 0.051
0.017 -0.043 0.047
0.021 -0.051 0.033
0.023 -0.031 0.037
0.023 -0.029 0.037
0.021 -0.031 0.039
0.021 -0.039 0.049
0.021 -0.035 0.043
0.023 -0.045 0.035
0.023 -0.047 0.039
0.021 -0.033 0.035
0.021 -0.033 0.039
0.019 -0.043 0.041
0.017 -0.041 0.055
0.011 -0.047 0.051
0.015 -0.043 0.055
0.021 -0.039 0.051
0.021 -0.039 0.051
0.017 -0.041 0.055
0.013 -0.039 0.065
0.015 -0.041 0.057
0.011 -0.045 0.059
0.013 -0.039 0.061
0.013 -0.035 0.059
0.013 -0.037 0.061
0.023 -0.019 0.037
0.023 -0.013 0.037
0.021 -0.013 0.035
0.023 -0.027 0.035
0.023 -0.015 0.035
0.025 -0.023 0.033
0.025 -0.019 0.033
0.019 -0.027 0.047
0.023 -0.021 0.041
0.021 -0.015 0.047
0.007 -0.007 0.035
0.009 -0.005 0.037
0.017 -0.013 0.035
0.011 -0.011 0.033
0.015 -0.009 0.037
0.009 -0.005 0.037
0.005 -0.003 0.039
0.009 -0.007 0.035
0.011 -0.005 0.039
0.009 -0.001 0.043
0.017 -0.003 0.047
0.023 -0.013 0.037
0.023 -0.015 0.035
0.023 -0.013 0.039
0.021 -0.011 0.039
0.021 -0.011 0.043
0.017 -0.027 0.049
0.011 -0.029 0.055
0.013 -0.023 0.053
0.015 -0.021 0.051
0.017 -0.019 0.051
0.017 -0.017 0.055
0.015 -0.021 0.053
0.017 -0.019 0.053
0.013 -0.017 0.059
0.019 -0.007 0.061
0.019 -0.009 0.063
0.017 -0.013 0.059
0.019 -0.011 0.061
0.017 -0.013 0.061
0.009 -0.019 0.061
0.017 -0.029 0.051
0.019 -0.001 0.059
0.019 -0.001 0.059
0.019 -0.005 0.063
0.019 -0.001 0.061
0.013 -0.037 0.071
0.013 -0.039 0.069
0.013 -0.037 0.069
0.013 -0.037 0.071
0.015 -0.031 0.075
0.015 -0.031 0.077
0.013 -0.035 0.075
0.015 -0.031 0.073
0.015 -0.029 0.077
0.003 -0.057 0.083
0.007 -0.051 0.083
0.007 -0.047 0.087
0.011 -0.043 0.091
0.015 -0.037 0.089
0.013 -0.041 0.083
0.013 -0.039 0.083
0.013 -0.039 0.087
0.015 -0.039 0.095
0.019 -0.031 0.097
0.013 -0.041 0.091
0.017 -0.031 0.091
0.017 -0.033 0.091
0.023 -0.023 0.093
0.021 -0.029 0.097
0.023 -0.023 0.097
0.023 -0.025 0.097
0.015 -0.035 0.091
0.015 -0.029 0.065
0.013 -0.025 0.065
0.013 -0.027 0.065
0.011 -0.021 0.067
0.011 -0.019 0.067
0.011 -0.021 0.067
0.015 -0.013 0.065
0.011 -0.017 0.071
0.017 -0.027 0.077
0.015 -0.019 0.075
0.021 -0.001 0.073
0.015 -0.011 0.069
0.017 -0.009 0.069
0.019 -0.007 0.069
0.015 -0.009 0.071
0.017 -0.007 0.073
0.019 -0.005 0.075
0.013 -0.013 0.079
0.015 -0.015 0.079
0.019 -0.003 0.079
0.019 -0.007 0.065
0.019 -0.009 0.067
0.021 -0.003 0.065
0.021 -0.001 0.067
0.021 -0.001 0.069
0.021 -0.001 0.073
0.021 0.001 0.075
0.015 -0.015 0.083
0.015 -0.015 0.093
0.021 -0.023 0.085
0.017 -0.017 0.085
0.025 -0.015 0.087
0.021 -0.025 0.089
0.023 -0.023 0.091
0.023 -0.021 0.095
0.025 -0.017 0.093
0.009 -0.013 0.087
0.005 -0.013 0.085
0.015 -0.011 0.089
0.007 -0.011 0.087
0.013 -0.011 0.087
0.007 -0.011 0.087
0.013 -0.011 0.081
0.021 0.005 0.083
0.013 -0.003 0.087
0.019 0.001 0.085
0.007 -0.011 0.089
0.005 -0.009 0.091
0.017 -0.015 0.089
0.015 -0.013 0.095
0.017 -0.015 0.089
0.023 -0.015 0.089
0.009 -0.051 0.097
0.007 -0.051 0.099
0.013 -0.041 0.103
0.013 -0.041 0.101
0.023 -0.027 0.107
0.023 -0.025 0.107
0.013 -0.035 0.105
0.023 -0.025 0.107
0.021 -0.023 0.107
0.023 -0.025 0.107
0.021 -0.025 0.103
0.021 -0.023 0.103
0.021 -0.023 0.103
0.015 -0.013 0.105
0.015 -0.017 0.103
0.007 -0.013 0.101
0.011 -0.017 0.101
0.011 -0.017 0.103
0.015 -0.017 0.099
0.015 -0.023 0.107
0.013 -0.023 0.111
0.015 -0.017 0.105
0.015 -0.017 0.105
0.017 -0.013 0.107
0.013 -0.023 0.109
0.017 -0.015 0.109
0.017 -0.015 0.109
0.023 -0.017 0.099
0.025 -0.017 0.097
0.025 -0.017 0.101
0.025 -0.019 0.099
0.025 -0.017 0.103
0.021 -0.023 0.105
0.007 -0.011 0.101
0.005 -0.013 0.103
0.005 -0.013 0.103
0.007 -0.007 0.101
0.015 -0.015 0.099
0.017 -0.011 0.107
0.015 -0.013 0.105
0.017 -0.009 0.107
0.017 -0.011 0.111
0.025 -0.013 0.103
0.017 -0.011 0.111
0.019 -0.005 0.109
0.019 -0.005 0.109
0.017 0.033 0.037
0.023 0.019 0.045
0.021 0.019 0.047
0.025 0.017 0.045
0.021 0.025 0.043
0.021 0.023 0.043
0.021 0.027 0.043
0.023 0.027 0.041
0.023 0.027 0.041
0.019 0.027 0.045
0.023 0.025 0.041
0.021 0.023 0.047
0.023 0.019 0.043
0.021 0.025 0.045
0.021 0.025 0.045
0.021 0.019 0.053
0.021 0.019 0.053
0.017 0.029 0.043
0.017 0.029 0.043
0.017 0.029 0.047
0.013 0.031 0.045
0.013 0.031 0.043
0.015 0.031 0.045
0.003 0.037 0.043
0.017 0.033 0.037
0.013 0.037 0.037
0.013 0.029 0.047
0.011 0.029 0.047
0.013 0.031 0.045
0.011 0.029 0.047
0.013 0.029 0.053
0.005 0.029 0.049
0.013 0.031 0.045
0.019 0.027 0.051
0.009 0.027 0.047
-0.001 0.035 0.049
0.003 0.029 0.047
0.015 0.033 0.061
0.013 0.033 0.059
0.011 0.031 0.055
0.019 0.031 0.061
0.015 0.033 0.061
0.017 0.035 0.067
0.019 0.031 0.067
0.015 0.035 0.063
0.013 0.035 0.065
0.015 0.035 0.065
0.005 0.041 0.041
0.003 0.043 0.041
-0.001 0.045 0.039
-0.005 0.045 0.039
0.003 0.043 0.037
0.001 0.043 0.045
0.001 0.045 0.045
-0.011 0.047 0.043
-0.009 0.047 0.043
-0.003 0.049 0.047
-0.007 0.049 0.047
0.003 0.043 0.053
0.005 0.045 0.057
0.007 0.045 0.059
-0.001 0.037 0.049
-0.001 0.037 0.051
0.005 0.041 0.057
0.003 0.047 0.053
-0.003 0.049 0.053
-0.003 0.049 0.059
0.019 0.031 0.071
0.009 0.043 0.067
0.005 0.047 0.067
0.025 0.023 0.039
0.015 0.033 0.033
0.015 0.033 0.033
0.013 0.037 0.033
0.029 0.023 0.037
0.027 0.021 0.039
0.025 0.015 0.043
0.027 0.015 0.039
0.025 0.015 0.045
0.025 0.017 0.043
0.021 0.029 0.039
0.025 0.023 0.039
0.017 0.033 0.035
0.015 0.031 0.041
0.015 0.029 0.047
0.029 0.023 0.037
0.027 0.021 0.039
0.027 0.021 0.039
0.029 0.023 0.035
0.029 0.023 0.037
0.023 0.021 0.043
0.027 0.019 0.041
0.021 0.027 0.043
0.021 0.025 0.043
0.017 0.029 0.043
0.019 0.027 0.045
0.009 0.003 0.053
0.011 0.001 0.049
0.019 0.011 0.051
0.021 0.017 0.057
0.011 0.005 0.059
0.013 0.007 0.063
0.017 0.003 0.057
0.015 0.003 0.057
0.021 0.023 0.061
0.019 0.019 0.065
0.021 0.017 0.049
0.019 0.003 0.061
0.021 0.023 0.057
0.017 0.029 0.057
0.017 0.029 0.055
0.007 0.031 0.053
0.017 0.029 0.055
0.019 0.027 0.061
0.019 0.031 0.065
0.021 0.017 0.049
0.021 0.021 0.053
0.019 0.027 0.051
0.019 0.021 0.063
0.021 0.023 0.063
0.019 0.025 0.057
0.019 0.027 0.059
0.021 0.025 0.059
0.011 0.035 0.039
0.013 0.033 0.039
0.005 0.037 0.041
0.003 0.033 0.043
0.001 0.043 0.043
0.001 0.047 0.049
0.009 0.035 0.059
0.007 0.041 0.061
0.009 0.033 0.057
0.005 0.045 0.057
0.017 0.011 0.073
0.015 0.009 0.067
0.015 0.009 0.067
0.015 0.009 0.069
0.021 0.015 0.079
0.021 0.013 0.081
0.021 0.017 0.081
0.019 0.015 0.075
0.021 0.023 0.081
0.019 0.007 0.073
0.021 0.005 0.079
0.017 0.011 0.073
0.017 0.013 0.073
0.021 0.025 0.071
0.019 0.021 0.069
0.019 0.021 0.071
0.021 0.025 0.071
0.019 0.033 0.069
0.015 0.035 0.067
0.021 0.023 0.079
0.019 0.031 0.081
0.019 0.021 0.075
0.019 0.033 0.075
0.015 0.035 0.081
0.019 0.021 0.067
0.019 0.023 0.067
0.019 0.023 0.069
0.021 0.027 0.071
0.021 0.027 0.075
0.019 0.031 0.075
0.019 0.031 0.079
0.021 0.015 0.085
0.017 0.007 0.089
0.021 0.017 0.085
0.019 0.023 0.085
0.017 0.011 0.091
0.015 0.007 0.091
0.017 0.009 0.091
0.013 0.009 0.093
0.017 0.013 0.091
0.017 0.019 0.091
0.021 0.003 0.081
0.019 0.005 0.087
0.021 0.007 0.085
0.019 0.029 0.083
0.017 0.031 0.085
0.013 0.035 0.085
0.015 0.029 0.089
0.013 0.031 0.089
0.017 0.023 0.091
0.017 0.021 0.091
0.017 0.023 0.091
0.015 0.021 0.093
0.017 0.027 0.089
0.015 0.029 0.089
0.013 0.025 0.093
0.021 0.021 0.087
0.015 0.035 0.067
0.003 0.045 0.069
0.013 0.037 0.079
0.011 0.045 0.075
0.011 0.045 0.079
0.011 0.043 0.079
0.019 0.033 0.071
0.005 0.057 0.079
0.011 0.045 0.083
0.007 0.041 0.087
0.007 0.049 0.087
0.011 0.043 0.083
0.005 0.057 0.081
