0.019 -0.039 0.041
0.021 -0.031 0.049
0.021 -0.015 0.045
0.019 -0.009 0.045
0.007 -0.051 0.051
0.019 -0.035 0.053
0.017 -0.037 0.055
0.013 -0.035 0.059
0.019 -0.041 0.047
0.017 -0.043 0.041
0.019 -0.041 0.045
0.017 -0.041 0.043
0.013 -0.043 0.043
0.021 -0.033 0.047
0.017 -0.043 0.053
0.015 -0.039 0.057
0.013 -0.033 0.057
0.009 -0.049 0.057
0.005 -0.051 0.055
0.011 -0.047 0.059
0.011 -0.045 0.063
0.013 -0.043 0.061
0.013 -0.037 0.059
0.013 -0.037 0.063
0.013 -0.035 0.065
0.013 -0.039 0.065
0.011 -0.045 0.065
0.013 -0.037 0.067
0.019 -0.031 0.051
0.017 -0.029 0.051
0.019 -0.031 0.051
0.017 -0.027 0.049
0.013 -0.027 0.053
0.013 -0.027 0.053
0.017 -0.025 0.049
0.011 -0.031 0.057
0.009 -0.027 0.057
0.021 -0.031 0.049
0.015 -0.027 0.051
0.021 -0.029 0.047
0.019 -0.027 0.047
0.017 -0.023 0.047
0.017 -0.019 0.045
0.017 -0.021 0.049
0.015 -0.025 0.051
0.017 -0.023 0.047
0.017 -0.019 0.045
0.013 -0.027 0.053
0.013 -0.031 0.059
0.013 -0.031 0.059
0.011 -0.021 0.055
0.019 -0.011 0.049
0.021 -0.013 0.045
0.021 -0.011 0.045
0.019 -0.009 0.049
0.019 -0.009 0.045
0.017 -0.017 0.055
0.017 -0.017 0.055
0.017 -0.015 0.055
0.017 -0.013 0.057
0.009 -0.025 0.061
0.009 -0.025 0.059
0.011 -0.027 0.061
0.007 -0.023 0.057
0.009 -0.021 0.057
0.007 -0.023 0.061
0.017 -0.013 0.059
0.019 -0.011 0.061
0.013 -0.015 0.063
0.019 -0.005 0.065
0.015 -0.013 0.065
0.019 -0.009 0.067
0.021 -0.003 0.071
0.013 -0.037 0.073
0.009 -0.039 0.075
0.013 -0.033 0.077
0.011 -0.033 0.081
-0.001 -0.061 0.087
0.005 -0.051 0.089
0.009 -0.051 0.095
0.003 -0.055 0.085
-0.001 -0.057 0.091
0.009 -0.051 0.095
-0.001 -0.053 0.089
0.017 -0.035 0.093
0.011 -0.043 0.095
0.017 -0.035 0.095
0.017 -0.033 0.097
0.017 -0.033 0.097
0.017 -0.035 0.099
0.017 -0.027 0.077
0.017 -0.027 0.081
0.019 -0.027 0.083
0.017 -0.029 0.085
0.021 -0.023 0.085
0.021 -0.025 0.093
0.023 -0.025 0.097
0.023 -0.023 0.095
0.021 -0.031 0.103
0.001 -0.051 0.107
0.011 -0.043 0.103
0.005 -0.045 0.101
0.003 -0.045 0.103
0.021 -0.025 0.105
0.023 -0.025 0.107
0.015 -0.021 0.103
0.001 -0.031 0.105
0.021 -0.037 0.039
0.021 -0.027 0.039
0.023 -0.027 0.033
0.023 -0.025 0.035
0.025 -0.021 0.035
0.025 -0.019 0.033
0.025 -0.017 0.033
0.005 -0.051 0.045
0.007 -0.051 0.049
0.021 -0.051 0.037
0.023 -0.049 0.037
0.011 -0.047 0.043
0.017 -0.047 0.041
0.011 -0.047 0.043
0.011 -0.047 0.045
0.013 -0.047 0.049
0.023 -0.045 0.037
0.021 -0.039 0.039
0.021 -0.037 0.039
0.019 -0.039 0.041
0.021 -0.039 0.047
0.021 -0.039 0.049
0.021 -0.033 0.047
0.007 -0.051 0.053
0.011 -0.049 0.053
0.005 -0.051 0.055
0.017 -0.037 0.055
0.007 -0.047 0.065
0.015 -0.037 0.057
0.015 -0.037 0.057
0.013 -0.035 0.059
0.017 -0.043 0.051
0.023 -0.025 0.039
0.021 -0.019 0.043
0.021 -0.019 0.043
0.023 -0.019 0.041
0.023 -0.019 0.037
0.023 -0.027 0.037
0.023 -0.017 0.037
0.025 -0.017 0.035
0.021 -0.025 0.043
0.019 -0.027 0.047
0.019 -0.023 0.043
0.019 -0.021 0.041
0.017 -0.019 0.045
0.017 -0.019 0.045
0.017 -0.019 0.047
0.019 -0.017 0.049
0.015 -0.009 0.037
0.015 -0.009 0.037
0.015 -0.007 0.039
0.017 -0.007 0.045
0.013 -0.001 0.045
0.023 -0.013 0.039
0.015 -0.027 0.051
0.013 -0.027 0.053
0.007 -0.023 0.057
0.011 -0.023 0.053
0.013 -0.027 0.063
0.009 -0.021 0.057
0.009 -0.021 0.065
0.009 -0.017 0.063
0.019 -0.031 0.051
0.021 -0.031 0.049
0.017 -0.019 0.049
0.019 -0.017 0.051
0.019 -0.017 0.051
0.013 -0.013 0.067
0.015 -0.011 0.069
0.019 -0.011 0.051
0.019 -0.009 0.061
0.017 -0.013 0.061
0.007 -0.047 0.065
0.007 -0.045 0.069
0.007 -0.043 0.071
0.011 -0.041 0.071
0.015 -0.033 0.075
0.013 -0.035 0.077
0.013 -0.033 0.079
0.003 -0.057 0.083
0.003 -0.057 0.087
0.005 -0.049 0.089
0.005 -0.051 0.087
0.005 -0.049 0.087
0.011 -0.049 0.095
0.011 -0.043 0.087
0.007 -0.047 0.087
0.013 -0.041 0.083
0.013 -0.041 0.083
0.015 -0.037 0.089
0.015 -0.035 0.089
0.015 -0.037 0.085
0.015 -0.033 0.083
0.013 -0.037 0.087
0.013 -0.039 0.085
0.015 -0.041 0.093
0.013 -0.041 0.099
0.011 -0.043 0.095
0.013 -0.041 0.097
0.015 -0.037 0.097
0.015 -0.035 0.091
0.017 -0.025 0.075
0.015 -0.031 0.067
0.013 -0.025 0.067
0.017 -0.023 0.075
0.009 -0.017 0.065
0.015 -0.019 0.075
0.015 -0.031 0.079
0.017 -0.019 0.079
0.025 -0.017 0.087
0.017 -0.017 0.083
0.017 -0.019 0.077
0.017 -0.027 0.079
0.013 -0.011 0.071
0.013 -0.009 0.075
0.011 -0.013 0.069
0.015 -0.013 0.065
0.011 -0.015 0.069
0.011 -0.011 0.073
0.013 -0.009 0.077
0.013 -0.009 0.079
0.013 -0.007 0.079
0.017 -0.007 0.075
0.017 -0.011 0.065
0.019 -0.009 0.067
0.021 -0.001 0.067
0.023 -0.021 0.091
0.019 -0.031 0.097
0.021 -0.027 0.101
0.023 -0.023 0.099
0.025 -0.019 0.097
0.023 -0.017 0.099
0.019 -0.025 0.083
0.023 -0.019 0.087
0.019 -0.029 0.093
0.021 -0.027 0.093
0.025 -0.017 0.095
0.027 -0.013 0.095
0.025 -0.017 0.089
0.013 -0.007 0.083
0.013 -0.005 0.083
0.015 -0.003 0.085
0.013 -0.003 0.087
0.025 -0.015 0.101
0.015 -0.013 0.095
0.027 -0.013 0.095
0.023 -0.015 0.097
0.025 -0.017 0.101
0.019 -0.001 0.081
0.025 -0.015 0.095
0.023 -0.015 0.089
0.005 -0.055 0.101
0.007 -0.049 0.099
0.001 -0.057 0.105
0.003 -0.049 0.105
0.001 -0.051 0.107
0.013 -0.041 0.101
0.011 -0.043 0.103
0.009 -0.039 0.105
0.017 -0.021 0.101
0.021 -0.023 0.105
0.023 -0.019 0.103
0.025 -0.017 0.103
0.015 -0.017 0.105
0.023 -0.017 0.103
0.015 -0.017 0.103
0.015 -0.017 0.103
0.015 -0.017 0.103
0.013 -0.027 0.107
0.021 -0.027 0.107
0.013 -0.025 0.111
0.013 -0.023 0.109
0.013 -0.023 0.109
0.003 -0.019 0.109
0.015 -0.017 0.109
0.015 -0.017 0.107
0.013 -0.021 0.111
0.021 -0.027 0.099
0.023 -0.017 0.099
0.025 -0.019 0.101
0.019 -0.021 0.101
0.021 -0.029 0.105
0.023 -0.027 0.107
0.021 -0.023 0.107
0.007 -0.015 0.101
0.007 -0.011 0.099
0.017 -0.015 0.109
0.017 -0.009 0.107
0.007 -0.007 0.103
0.017 -0.015 0.107
0.015 -0.013 0.111
0.021 0.023 0.045
0.021 0.027 0.043
0.019 0.027 0.045
-0.001 0.005 0.037
-0.007 0.007 0.039
-0.005 0.007 0.039
-0.001 0.005 0.037
-0.001 0.005 0.037
0.013 0.007 0.045
0.013 0.007 0.049
0.015 0.009 0.051
0.019 0.011 0.051
0.017 0.009 0.045
0.019 0.011 0.047
0.019 0.011 0.049
0.013 0.009 0.055
0.021 0.015 0.049
0.021 0.015 0.051
0.025 0.015 0.045
0.021 0.021 0.049
0.021 0.019 0.057
0.021 0.023 0.059
0.021 0.023 0.057
0.021 0.019 0.059
0.021 0.021 0.059
0.021 0.021 0.057
0.019 0.027 0.057
0.015 0.011 0.057
0.019 0.021 0.067
0.017 0.019 0.069
0.017 0.015 0.061
0.013 0.015 0.065
0.019 0.017 0.061
0.019 0.019 0.063
0.019 0.021 0.069
0.007 0.017 0.067
0.011 0.015 0.065
0.013 0.015 0.065
0.017 0.019 0.069
0.019 0.019 0.075
0.017 0.019 0.067
0.017 0.019 0.071
0.019 0.021 0.071
0.019 0.021 0.069
0.019 0.021 0.069
0.005 0.039 0.043
0.007 0.039 0.039
0.019 0.029 0.061
0.017 0.029 0.055
-0.001 0.039 0.047
0.001 0.041 0.045
0.001 0.045 0.047
0.001 0.041 0.045
0.001 0.045 0.047
0.017 0.033 0.063
0.019 0.033 0.067
0.019 0.031 0.061
0.001 0.039 0.055
0.007 0.043 0.059
0.017 0.035 0.069
0.005 0.047 0.061
0.017 0.035 0.073
0.011 0.041 0.073
0.023 0.011 0.041
0.023 0.027 0.041
0.017 0.031 0.035
0.021 0.029 0.039
0.013 0.037 0.035
0.015 0.033 0.033
0.023 0.011 0.041
0.017 0.009 0.045
0.017 0.009 0.045
0.015 0.011 0.035
0.013 0.009 0.037
0.013 0.007 0.043
0.013 0.007 0.045
0.013 0.007 0.043
0.013 0.007 0.047
0.013 0.007 0.047
0.027 0.015 0.041
0.027 0.015 0.039
0.027 0.015 0.039
0.023 0.013 0.045
0.023 0.019 0.045
0.021 0.023 0.043
0.019 0.029 0.037
0.021 0.017 0.057
0.015 0.029 0.047
0.019 0.025 0.053
0.013 0.031 0.045
0.017 0.029 0.047
0.017 0.029 0.047
0.025 0.023 0.039
0.029 0.021 0.037
0.025 0.025 0.039
0.019 0.031 0.039
0.025 0.019 0.041
0.023 0.021 0.043
0.021 0.019 0.047
0.025 0.021 0.041
0.019 0.027 0.045
0.019 0.027 0.049
0.021 -0.001 0.065
0.021 -0.001 0.063
0.019 -0.001 0.055
0.011 0.007 0.051
0.013 0.007 0.049
0.017 0.013 0.057
0.013 0.011 0.059
0.017 0.009 0.049
0.013 0.009 0.055
0.019 0.001 0.063
0.021 0.001 0.067
0.021 0.003 0.071
0.019 0.003 0.061
0.013 0.013 0.061
0.009 0.013 0.061
0.017 0.009 0.049
0.021 0.015 0.051
0.019 0.013 0.055
0.021 0.023 0.057
0.021 0.025 0.059
0.019 0.025 0.057
0.017 0.019 0.067
0.017 0.019 0.069
0.019 0.027 0.065
0.019 0.023 0.071
0.021 0.023 0.051
0.017 0.017 0.063
0.021 0.021 0.061
0.019 0.031 0.063
0.019 0.029 0.063
0.019 0.031 0.039
0.009 0.039 0.037
0.007 0.041 0.037
0.005 0.043 0.037
0.009 0.035 0.041
0.017 0.033 0.037
0.017 0.033 0.065
0.019 0.033 0.069
0.005 0.041 0.057
0.007 0.043 0.061
0.005 0.047 0.063
0.017 0.033 0.063
0.021 0.005 0.071
0.021 0.007 0.075
0.019 0.011 0.075
0.019 0.005 0.087
0.019 0.015 0.077
0.021 0.001 0.069
0.021 0.005 0.077
0.021 0.005 0.079
0.019 0.017 0.077
0.019 0.021 0.077
0.021 0.025 0.077
0.021 0.027 0.075
0.021 0.017 0.087
0.021 0.019 0.085
0.021 0.019 0.087
0.021 0.023 0.083
0.019 0.019 0.065
0.019 0.023 0.073
0.019 0.031 0.073
0.017 0.005 0.089
0.017 0.001 0.087
0.017 0.005 0.089
0.013 0.003 0.091
0.015 0.007 0.091
0.013 0.011 0.093
0.019 0.001 0.081
0.021 0.005 0.081
0.017 0.003 0.087
0.021 0.011 0.081
0.019 0.009 0.087
0.017 0.005 0.089
0.019 0.023 0.089
0.017 0.029 0.087
0.015 0.027 0.089
0.015 0.021 0.093
0.017 0.021 0.091
0.013 0.019 0.095
0.013 0.029 0.091
0.021 0.017 0.081
0.021 0.021 0.081
0.019 0.025 0.085
0.019 0.027 0.085
0.017 0.027 0.087
0.019 0.017 0.089
0.017 0.017 0.091
0.015 0.037 0.071
0.015 0.037 0.073
0.017 0.035 0.073
0.011 0.043 0.071
0.007 0.047 0.065
0.011 0.043 0.073
0.011 0.041 0.067
0.017 0.033 0.081
0.017 0.033 0.079
0.011 0.039 0.073
0.013 0.037 0.075
0.013 0.037 0.081
0.011 0.047 0.075
0.011 0.047 0.077
0.017 0.035 0.077
0.015 0.031 0.087
0.013 0.037 0.081
0.013 0.037 0.081
0.013 0.035 0.087
0.013 0.035 0.087
0.013 0.035 0.087
0.009 0.045 0.085
0.011 0.047 0.081
0.011 0.045 0.083
0.009 0.051 0.083
