-0.011 -0.041 0.043
-0.021 -0.037 0.043
-0.011 -0.037 0.047
-0.003 -0.051 0.045
-0.005 -0.049 0.049
-0.021 -0.039 0.037
-0.019 -0.039 0.039
-0.019 -0.037 0.043
-0.007 -0.047 0.043
-0.007 -0.047 0.041
-0.007 -0.047 0.043
-0.005 -0.049 0.045
-0.013 -0.039 0.035
-0.011 -0.041 0.045
-0.009 -0.043 0.047
-0.009 -0.045 0.045
-0.015 -0.037 0.043
-0.009 -0.039 0.049
-0.005 -0.049 0.055
-0.007 -0.047 0.055
-0.007 -0.043 0.057
-0.011 -0.035 0.053
-0.001 -0.047 0.065
-0.009 -0.035 0.057
-0.007 -0.039 0.061
-0.021 -0.033 0.045
-0.017 -0.031 0.045
-0.019 -0.027 0.045
-0.019 -0.037 0.043
-0.015 -0.033 0.045
-0.015 -0.035 0.045
-0.011 -0.039 0.047
-0.019 -0.027 0.045
-0.015 -0.031 0.047
-0.013 -0.025 0.047
-0.011 -0.021 0.049
-0.013 -0.025 0.051
-0.013 -0.009 0.041
-0.011 -0.021 0.049
-0.009 -0.007 0.045
-0.007 -0.011 0.051
-0.005 -0.011 0.053
-0.013 -0.031 0.051
-0.013 -0.027 0.051
-0.011 -0.029 0.055
-0.009 -0.031 0.057
-0.009 -0.031 0.057
-0.013 -0.025 0.051
-0.005 -0.033 0.065
-0.005 -0.013 0.051
-0.007 -0.011 0.051
-0.005 -0.011 0.053
-0.003 -0.007 0.057
-0.001 -0.013 0.059
-0.001 -0.011 0.063
-0.003 -0.007 0.059
-0.001 -0.003 0.061
-0.001 -0.003 0.065
-0.009 -0.041 0.083
-0.005 -0.061 0.087
-0.009 -0.059 0.087
-0.007 -0.059 0.089
-0.013 -0.055 0.087
-0.007 -0.059 0.091
-0.005 -0.061 0.093
-0.011 -0.055 0.089
-0.009 -0.043 0.085
-0.009 -0.043 0.085
-0.007 -0.035 0.087
-0.009 -0.047 0.101
-0.009 -0.047 0.101
-0.007 -0.037 0.097
-0.005 -0.039 0.099
-0.003 -0.031 0.069
-0.001 -0.027 0.073
-0.007 -0.037 0.085
-0.005 -0.031 0.087
-0.005 -0.033 0.087
-0.009 -0.041 0.097
-0.003 -0.029 0.089
-0.005 -0.033 0.099
-0.009 -0.053 0.103
-0.009 -0.053 0.105
-0.005 -0.055 0.105
-0.005 -0.053 0.105
-0.009 -0.045 0.101
-0.009 -0.043 0.099
-0.005 -0.049 0.105
-0.003 -0.043 0.101
-0.001 -0.037 0.105
-0.001 -0.037 0.105
-0.001 -0.033 0.105
-0.003 -0.031 0.101
-0.001 -0.025 0.099
-0.009 -0.045 0.045
-0.011 -0.031 0.053
-0.005 -0.041 0.065
-0.013 -0.053 0.083
-0.007 -0.035 0.059
0.015 -0.051 0.039
0.003 -0.051 0.045
0.003 -0.051 0.053
0.005 -0.051 0.049
0.015 -0.051 0.039
-0.001 -0.051 0.047
0.001 -0.051 0.051
-0.001 -0.051 0.053
-0.005 -0.049 0.053
-0.009 -0.045 0.051
0.001 -0.049 0.059
0.003 -0.051 0.053
0.017 -0.049 0.041
0.011 -0.049 0.051
0.019 -0.043 0.041
0.001 -0.049 0.063
0.009 -0.049 0.059
0.005 -0.051 0.055
0.001 -0.049 0.063
0.005 -0.049 0.063
-0.009 -0.059 0.087
0.003 -0.049 0.063
-0.009 -0.057 0.089
-0.007 -0.059 0.091
-0.009 -0.059 0.087
-0.009 -0.057 0.089
-0.009 -0.057 0.089
-0.007 -0.059 0.089
-0.005 -0.041 0.065
-0.001 -0.047 0.061
-0.013 -0.055 0.087
-0.009 -0.059 0.087
-0.013 -0.055 0.087
-0.013 -0.055 0.087
-0.013 -0.051 0.085
-0.009 -0.045 0.087
-0.011 -0.027 0.053
-0.005 -0.009 0.055
-0.003 -0.011 0.057
-0.003 -0.009 0.057
0.001 -0.013 0.061
-0.011 -0.047 0.085
-0.007 -0.039 0.085
-0.013 -0.051 0.085
-0.013 -0.049 0.085
-0.003 -0.035 0.071
-0.009 -0.043 0.085
-0.003 -0.033 0.071
-0.009 -0.043 0.085
-0.009 -0.049 0.089
-0.003 -0.033 0.073
-0.003 -0.031 0.073
-0.001 -0.027 0.073
-0.009 -0.045 0.087
-0.003 -0.009 0.057
-0.003 -0.007 0.059
0.005 -0.013 0.067
-0.003 -0.031 0.089
-0.007 -0.039 0.087
-0.005 -0.031 0.087
-0.007 -0.037 0.097
-0.003 -0.029 0.087
-0.003 -0.025 0.089
-0.011 -0.055 0.089
-0.009 -0.057 0.089
-0.009 -0.057 0.089
-0.007 -0.057 0.093
-0.007 -0.053 0.091
-0.005 -0.051 0.089
-0.009 -0.053 0.103
-0.007 -0.053 0.103
-0.007 -0.053 0.101
-0.005 -0.061 0.093
-0.007 -0.057 0.093
-0.001 -0.055 0.091
0.001 -0.059 0.103
-0.005 -0.055 0.103
-0.001 -0.057 0.103
-0.003 -0.055 0.101
0.003 -0.049 0.089
-0.007 -0.055 0.105
-0.007 -0.049 0.103
-0.007 -0.049 0.103
-0.003 -0.053 0.105
-0.007 -0.051 0.105
-0.003 -0.051 0.107
-0.003 -0.055 0.105
-0.003 -0.053 0.105
0.005 -0.051 0.101
-0.003 -0.045 0.103
-0.003 -0.049 0.107
-0.001 -0.039 0.103
0.009 -0.043 0.103
0.007 -0.043 0.103
-0.003 -0.031 0.073
-0.007 -0.033 0.085
-0.009 -0.047 0.101
-0.007 -0.037 0.087
-0.005 -0.047 0.103
-0.003 -0.027 0.091
-0.005 -0.031 0.097
-0.007 -0.037 0.097
-0.007 -0.039 0.099
-0.007 -0.035 0.095
-0.007 -0.035 0.095
-0.001 -0.021 0.085
0.001 -0.017 0.085
-0.005 -0.033 0.097
-0.003 -0.025 0.091
-0.005 -0.031 0.097
0.003 -0.007 0.077
0.003 -0.003 0.079
0.001 -0.017 0.091
-0.005 -0.033 0.097
-0.005 -0.033 0.097
-0.003 -0.027 0.099
-0.001 -0.025 0.099
-0.001 -0.027 0.101
-0.001 -0.023 0.099
-0.005 -0.047 0.103
-0.003 -0.027 0.091
-0.003 -0.025 0.091
-0.005 -0.035 0.099
-0.003 -0.037 0.103
-0.001 -0.025 0.099
-0.001 -0.021 0.099
0.005 -0.027 0.105
0.003 -0.041 0.105
0.005 -0.043 0.103
0.009 -0.037 0.105
0.007 -0.035 0.105
0.009 -0.029 0.105
0.011 -0.033 0.105
0.011 -0.031 0.105
0.013 -0.027 0.107
-0.001 -0.023 0.099
0.001 -0.015 0.091
-0.001 -0.031 0.105
0.001 -0.015 0.095
-0.001 -0.021 0.101
-0.001 -0.019 0.107
0.001 -0.017 0.097
0.001 -0.015 0.097
-0.001 -0.023 0.105
0.003 -0.011 0.097
-0.001 -0.019 0.107
0.001 -0.023 0.107
0.007 -0.023 0.107
0.005 -0.023 0.105
0.003 -0.011 0.099
0.005 -0.027 0.105
0.013 -0.025 0.111
-0.001 -0.057 0.103
-0.001 -0.057 0.103
0.001 -0.057 0.105
0.003 -0.057 0.103
0.003 -0.053 0.103
-0.001 -0.051 0.107
-0.001 -0.051 0.107
-0.001 -0.049 0.107
0.001 -0.041 0.103
0.003 -0.051 0.105
0.009 -0.043 0.103
0.011 -0.043 0.103
0.011 -0.041 0.103
0.015 -0.035 0.103
0.013 -0.033 0.105
0.017 -0.033 0.103
0.001 -0.023 0.107
-0.001 -0.025 0.105
-0.001 -0.023 0.105
0.003 -0.025 0.105
0.005 -0.023 0.105
-0.001 -0.023 0.105
0.003 -0.023 0.105
0.001 -0.021 0.107
0.009 -0.027 0.107
0.001 -0.025 0.105
0.013 -0.031 0.105
0.011 -0.025 0.111
0.011 -0.025 0.113
0.001 -0.023 0.107
0.001 -0.019 0.109
0.003 -0.019 0.109
0.011 -0.035 0.105
0.017 -0.027 0.105
0.013 -0.027 0.107
0.009 -0.027 0.107
0.013 -0.027 0.107
0.017 -0.025 0.105
0.019 -0.025 0.107
0.017 -0.027 0.105
0.019 -0.027 0.105
0.001 -0.017 0.101
-0.001 -0.021 0.107
0.003 -0.013 0.103
0.007 -0.025 0.107
0.005 -0.007 0.103
0.011 -0.015 0.109
0.015 -0.013 0.111
-0.017 0.021 0.051
-0.015 0.003 0.035
-0.009 0.003 0.035
-0.009 0.005 0.039
-0.003 0.005 0.039
-0.013 0.013 0.035
-0.013 0.007 0.039
-0.013 0.007 0.039
-0.013 0.007 0.039
-0.013 0.015 0.039
-0.005 0.009 0.041
-0.007 0.011 0.039
-0.007 0.011 0.043
-0.009 0.013 0.043
-0.009 0.013 0.045
-0.005 0.009 0.045
-0.003 0.009 0.047
-0.005 0.011 0.049
-0.013 0.015 0.039
-0.017 0.019 0.045
-0.017 0.021 0.047
-0.011 0.015 0.047
-0.013 0.019 0.049
-0.017 0.019 0.045
-0.015 0.019 0.047
-0.011 0.015 0.047
-0.007 0.015 0.051
-0.011 0.017 0.051
-0.007 0.017 0.053
-0.017 0.021 0.049
-0.019 0.023 0.055
-0.017 0.021 0.053
-0.013 0.019 0.053
-0.015 0.021 0.055
-0.015 0.021 0.057
-0.017 0.025 0.057
-0.017 0.025 0.059
-0.011 0.017 0.051
-0.015 0.019 0.051
-0.017 0.023 0.057
-0.017 0.023 0.057
-0.017 0.023 0.059
-0.007 0.021 0.061
-0.015 0.023 0.061
-0.013 0.027 0.061
-0.015 0.037 0.039
-0.015 0.019 0.051
-0.015 0.035 0.045
-0.019 0.023 0.055
-0.017 0.023 0.057
-0.017 0.025 0.057
-0.015 0.023 0.061
-0.015 0.039 0.047
-0.013 0.039 0.049
-0.013 0.043 0.049
-0.011 0.041 0.055
-0.009 0.039 0.055
-0.003 0.037 0.055
-0.013 0.043 0.051
-0.007 0.039 0.059
-0.001 0.039 0.063
-0.007 0.043 0.061
-0.005 0.045 0.061
-0.001 -0.001 0.067
-0.005 0.021 0.069
-0.005 0.021 0.071
-0.001 0.041 0.067
-0.001 0.047 0.065
-0.005 -0.007 0.055
-0.011 0.017 0.051
-0.007 0.019 0.053
-0.003 0.017 0.051
-0.003 0.019 0.051
-0.003 0.007 0.039
-0.001 -0.011 0.063
0.003 -0.009 0.071
0.003 -0.009 0.071
0.001 -0.007 0.069
-0.007 0.013 0.049
-0.005 0.017 0.051
0.001 0.015 0.051
0.001 0.023 0.053
-0.001 0.025 0.047
0.001 0.019 0.057
-0.001 -0.005 0.063
0.001 -0.009 0.069
-0.001 -0.005 0.069
0.001 -0.007 0.071
0.003 -0.009 0.071
0.003 -0.009 0.071
0.005 0.013 0.059
0.001 -0.005 0.075
0.003 0.015 0.059
0.001 0.005 0.073
-0.001 -0.007 0.063
-0.001 -0.011 0.063
-0.001 -0.007 0.067
0.001 -0.011 0.067
0.003 0.011 0.051
0.001 -0.007 0.073
0.001 -0.003 0.075
0.007 0.013 0.059
0.005 0.015 0.063
-0.001 0.001 0.071
0.001 0.003 0.071
0.001 -0.007 0.071
0.001 -0.005 0.075
0.001 0.019 0.057
0.001 0.019 0.059
0.001 0.023 0.053
0.001 0.023 0.063
0.001 0.019 0.059
0.003 0.017 0.063
0.003 0.019 0.063
0.003 0.019 0.065
0.003 0.017 0.063
0.001 0.021 0.065
0.001 0.001 0.081
-0.003 0.021 0.071
-0.003 0.021 0.067
0.001 0.015 0.079
0.001 0.013 0.081
0.001 -0.003 0.077
0.001 0.005 0.077
0.001 0.003 0.079
0.003 -0.001 0.081
-0.009 0.019 0.059
0.003 0.017 0.055
0.001 0.019 0.055
0.001 0.019 0.057
0.001 0.023 0.053
0.003 0.029 0.047
-0.011 0.019 0.061
-0.011 0.021 0.063
-0.009 0.021 0.065
-0.013 0.023 0.063
-0.013 0.023 0.063
0.001 0.029 0.069
0.001 0.031 0.071
0.001 0.039 0.063
0.001 0.039 0.067
0.003 0.039 0.069
0.001 0.001 0.075
0.001 0.007 0.075
0.001 0.003 0.077
0.001 0.001 0.081
0.003 0.005 0.087
0.001 -0.015 0.091
-0.001 -0.023 0.099
-0.001 -0.019 0.107
0.003 -0.011 0.099
0.005 -0.005 0.095
0.011 0.001 0.091
0.003 0.019 0.067
0.001 0.021 0.069
0.005 0.019 0.071
0.001 0.021 0.071
0.001 0.005 0.081
0.001 0.007 0.079
0.001 0.027 0.069
0.001 0.029 0.069
0.007 0.007 0.091
0.005 0.011 0.091
0.007 0.009 0.091
0.005 0.011 0.091
0.011 0.013 0.093
0.001 0.003 0.083
0.007 0.001 0.087
0.001 0.011 0.085
0.005 -0.007 0.103
0.007 0.007 0.091
0.011 0.009 0.095
0.005 -0.009 0.103
0.005 -0.007 0.103
0.003 0.015 0.087
0.007 0.029 0.087
0.011 0.019 0.095
0.013 0.017 0.095
0.007 0.023 0.091
0.011 0.021 0.095
0.011 0.025 0.093
0.011 0.013 0.095
0.011 0.009 0.095
0.011 0.011 0.095
0.013 0.009 0.095
0.011 0.017 0.095
0.011 0.011 0.095
0.013 0.015 0.095
0.013 0.017 0.095
0.013 0.019 0.095
0.001 0.029 0.075
0.003 0.035 0.073
0.001 0.027 0.081
0.001 0.043 0.069
0.001 0.029 0.079
0.001 0.027 0.083
0.003 0.031 0.081
0.003 0.033 0.079
0.003 0.029 0.083
0.003 0.025 0.087
0.003 0.021 0.089
0.005 0.033 0.083
0.005 0.041 0.077
0.005 0.043 0.077
0.005 0.043 0.077
0.005 0.041 0.079
0.009 0.037 0.081
0.005 0.017 0.091
0.003 0.051 0.081
0.007 0.033 0.085
0.009 0.041 0.085
0.007 0.045 0.087
0.005 0.047 0.089
